# .PCD v0.7 - Point Cloud Data file format
VERSION 0.7
FIELDS x y z rgb
SIZE 4 4 4 4
TYPE F F F F
COUNT 1 1 1 1
WIDTH 988
HEIGHT 1
VIEWPOINT 0 0 0 1 0 0 0
POINTS 988
DATA ascii
-0.02525981 0.039786007 0.15100001 1.8720786e-38
-0.024368688 0.039542977 0.15100001 2.1947605e-38
-0.023558578 0.039178424 0.15100001 2.3050707e-38
-0.0015640669 0.039664492 0.15100001 3.7843452e-39
-0.00087547256 0.039704997 0.15100001 4.0609335e-39
-0.024287678 0.040515106 0.15100001 2.1394439e-38
-0.023315543 0.040636625 0.15100001 2.2958871e-38
-0.022489231 0.04056371 0.15100001 2.3234378e-38
-0.00076205702 0.040417891 0.15100001 3.8769038e-39
-0.024044644 0.041608758 0.15100001 2.0013317e-38
-0.023293452 0.041509334 0.15100001 2.2591529e-38
-0.022365505 0.041597709 0.15100001 2.3142542e-38
-0.02124976 0.041973308 0.15100001 2.3234378e-38
-0.02088521 0.041973308 0.15100001 2.3234378e-38
-0.022586444 0.042459372 0.15100001 2.2958871e-38
-0.021440715 0.042632967 0.15100001 2.3050707e-38
-0.021857344 0.043188471 0.15100001 2.2958871e-38
-0.011727099 -0.028817434 0.15200001 1.1251828e-38
-0.015396741 -0.0274719 0.15200001 1.0791202e-38
-0.014662813 -0.0274719 0.15200001 1.0605709e-38
-0.016130669 -0.026982615 0.15200001 1.10678e-38
-0.015559837 -0.026982615 0.15200001 1.0699369e-38
-0.014662813 -0.026982615 0.15200001 1.0329118e-38
-0.013684243 -0.026860293 0.15200001 9.8673973e-39
-0.012644511 -0.026799131 0.15200001 1.0145077e-38
-0.015886027 -0.025270116 0.15200001 1.0699017e-38
-0.015886027 -0.02478083 0.15200001 1.0514626e-38
-0.00022888971 0.0045762961 0.15200001 1.5759601e-38
0.00044387791 0.0044539748 0.15200001 1.5667044e-38
0.0013612882 0.0043316535 0.15200001 1.5758882e-38
-0.064325288 0.019866467 0.15200001 2.5868782e-39
-0.063102074 0.019744147 0.15200001 2.6787179e-39
-0.064325288 0.020233432 0.15200001 2.4946826e-39
-0.064325288 0.021212002 0.15200001 2.1259001e-39
-0.065303862 0.022924501 0.15200001 2.0329842e-39
-0.029463701 0.022924501 0.15200001 3.2308057e-39
-0.065181538 0.023413787 0.15200001 1.9407886e-39
-0.064080648 0.02365843 0.15200001 1.7563945e-39
-0.029586021 0.023413787 0.15200001 2.954216e-39
-0.025182452 0.024881644 0.15200001 2.8620232e-39
-0.024937809 0.024881644 0.15200001 2.9542188e-39
-0.056741364 0.025370929 0.15200001 9.273569e-40
-0.029422926 0.02569712 0.15200001 2.1244554e-39
-0.026283344 0.025615571 0.15200001 2.4932379e-39
-0.025427096 0.025248608 0.15200001 2.7698248e-39
-0.024815489 0.025126286 0.15200001 2.8620218e-39
-0.029341379 0.026431048 0.15200001 1.8478685e-39
-0.028852094 0.026838785 0.15200001 1.7556728e-39
-0.027384236 0.026104856 0.15200001 2.3077676e-39
-0.024203882 0.026838785 0.15200001 2.5843573e-39
-0.023388406 0.026675692 0.15200001 2.6765529e-39
-0.022602582 0.026460702 0.152 2.8609442e-39
-0.021635132 0.026838785 0.15200001 2.8609442e-39
-0.029341379 0.027409619 0.15200001 1.7556742e-39
-0.028754238 0.02732807 0.15200001 1.7553155e-39
-0.024203882 0.027409619 0.15200001 2.3081305e-39
-0.023469953 0.027205748 0.15200001 2.4921617e-39
-0.022552544 0.027205748 0.15200001 2.6765529e-39
-0.021561738 0.027181286 0.15200001 2.7687486e-39
-0.020569189 0.027502816 0.15200002 2.8609442e-39
-0.019402767 0.027480973 0.15200001 3.0453355e-39
-0.028485131 0.028306641 0.15200001 1.8478713e-39
-0.024203882 0.028061999 0.15200001 2.0322625e-39
-0.023836918 0.028184321 0.15200001 2.1244582e-39
-0.018393615 0.028245481 0.15200001 3.2297267e-39
-0.017435431 0.028551286 0.15200001 3.3219223e-39
-0.028118165 0.029040569 0.15200001 2.2166538e-39
-0.017231561 0.029040569 0.15200001 3.3219223e-39
-0.016436473 0.029162891 0.15200001 3.2304484e-39
-0.015559837 0.029285213 0.15200001 3.2308085e-39
-0.014907456 0.029285213 0.15200001 3.1386129e-39
-0.014662813 0.030508427 0.15200001 3.0464173e-39
-0.028118165 0.032954853 0.15200001 3.0471361e-39
-0.027465785 0.032873306 0.15200001 3.1393318e-39
-0.012583349 0.03258789 0.15200001 2.8616701e-39
-0.011482456 0.032710209 0.15200001 2.8616701e-39
-0.010626207 0.032832533 0.15200001 2.9538657e-39
-0.02838999 0.033688784 0.15200001 3.1389758e-39
-0.027384236 0.033607233 0.15200001 3.2311715e-39
-0.026568761 0.033851873 0.15200001 3.4155641e-39
-0.0095253149 0.03368878 0.15200001 2.9538657e-39
-0.028362809 0.034178067 0.15200001 3.0467802e-39
-0.027302688 0.034463484 0.15200001 3.2311729e-39
-0.026527988 0.034585804 0.15200001 3.5077597e-39
-0.027286381 0.035645925 0.15200001 3.415927e-39
-0.026475566 0.035541076 0.15200002 5.8126575e-39
-0.028485131 0.036624495 0.15200001 2.6787207e-39
-0.027384236 0.036379848 0.15200001 4.7063113e-39
-0.026405666 0.036379851 0.15200001 1.0423525e-38
-0.025916381 0.036624495 0.15200001 1.291353e-38
-0.028322034 0.037358422 0.15200001 3.5081241e-39
-0.027384236 0.037358422 0.15200001 8.9476732e-39
-0.026405666 0.037358426 0.15200001 1.3005366e-38
-0.025671739 0.037480742 0.15200001 1.5678677e-38
-0.024203882 0.037358422 0.15200001 1.9827852e-38
-0.028485131 0.038092349 0.15200001 4.6144758e-39
-0.026405666 0.038092349 0.15200001 1.4112073e-38
-0.025182452 0.038092349 0.15200001 1.7983218e-38
-0.024619773 0.038410388 0.152 2.0288462e-38
-0.024693167 0.039462347 0.15200001 2.1210409e-38
-0.023531113 0.039743688 0.15200001 2.2958871e-38
-0.024203882 0.040049493 0.15200001 2.2958871e-38
-0.023633048 0.040294133 0.15200001 2.2958871e-38
-0.022980668 0.040049493 0.15200001 2.3050707e-38
-0.022491382 0.042862885 0.15200001 2.2867036e-38
-0.020681027 0.042740561 0.15200001 2.3234378e-38
-0.023225309 0.043229848 0.15200001 2.0659395e-38
-0.022002095 0.043596812 0.15200001 2.2867036e-38
-0.021512812 0.043392945 0.15200001 2.3050707e-38
-0.020615788 0.043311398 0.15200001 2.3234378e-38
-0.022002095 0.044330738 0.15200001 2.2040518e-38
-0.012050504 -0.030115159 0.15300001 1.2726958e-38
-0.015251783 -0.029130151 0.15300001 1.1620604e-38
-0.0143899 -0.029130151 0.15300001 1.1897192e-38
-0.012198254 -0.029425655 0.15300001 1.1805362e-38
-0.011722167 -0.02954057 0.15300001 1.1897198e-38
-0.015374909 -0.02847348 0.15300001 1.1251817e-38
-0.014297557 -0.028483741 0.15300001 1.1251446e-38
-0.012296756 -0.028883899 0.15300001 1.1436938e-38
-0.016236793 -0.027652638 0.15300001 1.1159996e-38
-0.015374909 -0.027898891 0.15300001 1.0975227e-38
-0.014217524 -0.02780039 0.15300001 1.0329474e-38
-0.013281765 -0.027406385 0.15300001 1.0237274e-38
-0.012789261 -0.027775764 0.15300001 1.1160336e-38
0.0005083612 0.0046064034 0.15300001 1.5574491e-38
-0.063763477 0.017904025 0.15300001 5.2605515e-39
-0.051450863 0.018273402 0.15300001 5.3516653e-39
0.037741702 0.020514298 0.15300001 1.7267249e-38
0.038554333 0.020489672 0.15300001 1.6531847e-38
-0.066225998 0.021844059 0.15300001 2.0337045e-39
-0.065487251 0.021696309 0.15300001 2.0337045e-39
-0.064994738 0.021720935 0.15300001 2.0337045e-39
-0.030519424 0.021105302 0.15300001 3.6925055e-39
-0.029165037 0.021720935 0.15300001 3.9683736e-39
-0.028795658 0.021597808 0.15300001 4.1527648e-39
0.037593953 0.021450052 0.15300003 1.7824362e-38
0.038677458 0.021474682 0.15300001 1.7083576e-38
0.039580386 0.021679893 0.15300001 1.6717669e-38
-0.065651409 0.022582816 0.15300001 1.9411487e-39
-0.064933181 0.022644378 0.15300001 2.0329842e-39
-0.030109003 0.022746986 0.15300001 3.3230013e-39
-0.029318944 0.022613598 0.15300001 3.415197e-39
0.03769245 0.022459688 0.15300001 1.8196729e-38
0.038739022 0.022398125 0.15300001 1.7547425e-38
0.039662469 0.022582816 0.15300001 1.6902057e-38
0.040154975 0.022582816 0.15300001 1.6536157e-38
-0.065240994 0.023567826 0.15300001 1.9407886e-39
-0.064830571 0.023485741 0.15300001 1.7563973e-39
-0.030314213 0.023567824 0.15300001 2.954216e-39
-0.029257381 0.023598608 0.15300001 2.954216e-39
-0.025717504 0.023567826 0.15300001 3.1386101e-39
0.039785594 0.023321573 0.15300001 1.7086444e-38
-0.030362718 0.024508059 0.15300001 2.5854335e-39
-0.029288163 0.024470752 0.15300001 2.5854335e-39
-0.028508365 0.024593875 0.15300001 2.6776291e-39
-0.027810648 0.024799086 0.15300001 2.8620204e-39
-0.025643628 0.024503585 0.15300001 2.9542188e-39
-0.030429877 0.025336362 0.15300001 2.216651e-39
-0.029257379 0.02532237 0.15300001 2.3088466e-39
-0.028385239 0.025373673 0.15300001 2.3088466e-39
-0.027400229 0.025373675 0.15300001 2.5850748e-39
-0.026517823 0.025168465 0.15300001 2.6776291e-39
-0.025840631 0.025045339 0.15300001 2.8620204e-39
-0.030362718 0.026321374 0.15300001 1.8478685e-39
-0.029165037 0.026358685 0.15300001 1.9400641e-39
-0.028385235 0.026358685 0.15300001 2.1237351e-39
-0.027400227 0.026030347 0.15300001 2.399966e-39
-0.024527287 0.026604936 0.15300001 2.5847174e-39
-0.023685923 0.026338162 0.15300001 2.6772732e-39
-0.022146847 0.026769102 0.15300001 2.9531398e-39
-0.021490173 0.026522851 0.15300001 3.0453355e-39
-0.020505166 0.026522852 0.15300001 3.0453355e-39
-0.019622762 0.026645977 0.15300001 3.2297267e-39
-0.030026918 0.027261607 0.15300001 1.7556728e-39
-0.028467322 0.027097439 0.15300001 1.9389865e-39
-0.021284964 0.027015354 0.15300001 2.9531398e-39
-0.020423081 0.027113859 0.15300001 2.9531398e-39
-0.019499633 0.027076919 0.15300001 3.1375311e-39
-0.018781399 0.02734369 0.15300001 3.414118e-39
-0.017468054 0.027015354 0.15300001 3.5985092e-39
-0.030026918 0.028123491 0.15300001 1.8478713e-39
-0.029534414 0.028369742 0.15300001 2.0322625e-39
-0.023870612 0.028000364 0.15300001 2.3088494e-39
-0.018637752 0.028061926 0.15300001 3.2297267e-39
-0.017775869 0.028431304 0.15300001 3.5063136e-39
-0.016893467 0.028657036 0.15300001 3.5063136e-39
-0.016236793 0.029231625 0.15300001 3.1386101e-39
-0.015621161 0.029231625 0.15300001 3.3230013e-39
-0.014266775 0.030709138 0.15300001 3.0464173e-39
-0.029041911 0.032925408 0.15300001 2.9549405e-39
-0.028338334 0.032714333 0.15300001 2.9549405e-39
-0.027810648 0.032679155 0.15300001 3.0471361e-39
-0.012789261 0.032925408 0.15300001 2.8616729e-39
-0.011804251 0.032679155 0.15300001 2.8616701e-39
-0.02924712 0.033582076 0.15300001 2.9545832e-39
-0.028795658 0.033171661 0.15300001 3.0471361e-39
-0.029370246 0.034608129 0.15300001 2.8623889e-39
-0.028385237 0.034895424 0.15300001 3.0467802e-39
-0.0084798466 0.034649171 0.15300001 2.7694744e-39
-0.029257381 0.035357147 0.15300001 2.5865223e-39
-0.028385239 0.035387933 0.15300001 2.8631092e-39
-0.027810648 0.03538793 0.15300001 3.1393388e-39
-0.0082335938 0.035264805 0.15300001 2.7698332e-39
-0.029140413 0.036422186 0.15300001 2.4943281e-39
-0.028549409 0.036372937 0.15300001 2.6787193e-39
-0.029041911 0.037111696 0.15300001 2.4943295e-39
-0.028795658 0.037111696 0.15300001 2.4943295e-39
-0.024691453 0.037522115 0.15300001 1.8536752e-38
-0.0083567202 0.037111696 0.15300001 3.0460641e-39
-0.028303152 0.038490705 0.15300001 7.288875e-39
-0.027613645 0.038589209 0.15300001 1.0608279e-38
-0.02641522 0.038671296 0.15300001 1.5125143e-38
-0.025676461 0.038671296 0.15300001 1.7613709e-38
-0.026086884 0.039451092 0.15300001 1.6876502e-38
-0.025717504 0.039492134 0.15300001 1.8166529e-38
-0.025594378 0.040066723 0.15300001 1.8720783e-38
-0.021284964 0.043760505 0.15300001 2.3234378e-38
-0.023131855 0.044499263 0.15300001 1.9183211e-38
-0.021900594 0.044376135 0.15300001 2.2867036e-38
-0.013451196 -0.030394608 0.15400001 1.2450372e-38
-0.01255063 -0.03060942 0.15400003 1.291135e-38
-0.011633541 -0.03043592 0.15400001 1.3095741e-38
-0.014855745 -0.029568404 0.15400001 1.2081583e-38
-0.013520448 -0.029483709 0.15459999 1.1989392e-38
-0.012872851 -0.029444473 0.15400001 1.1805721e-38
-0.01411216 -0.028576957 0.15400001 1.1435837e-38
-0.013702225 -0.028380303 0.15450001 1.1159247e-38
0.00051168381 0.0048843725 0.15400001 1.5573412e-38
0.0010074073 0.0048843725 0.15400001 1.5573412e-38
-0.0002319014 0.0051322342 0.15400001 1.5943992e-38
1.6063974e-05 0.0051655602 0.155 1.5483014e-38
0.017479051 0.017140178 0.155 1.0236247e-38
-0.066163123 0.019508215 0.15400001 3.0467802e-39
-0.066592753 0.02050804 0.155 2.4946826e-39
-0.065915264 0.020003937 0.15400001 2.6790739e-39
-0.032165725 0.020882247 0.155 4.0612881e-39
-0.031462483 0.020747522 0.15400001 3.8768968e-39
0.036699496 0.020747522 0.15400001 1.7822922e-38
0.037195221 0.020747522 0.15400001 1.7637097e-38
-0.032165725 0.02138119 0.155 3.9690924e-39
-0.031338554 0.02161504 0.15400003 3.5999512e-39
-0.030707605 0.021797881 0.15422224 3.599591e-39
-0.029851381 0.0218629 0.15400001 3.7839823e-39
-0.028859934 0.021986831 0.15400001 3.9683736e-39
0.031636544 0.021817762 0.155 1.6906375e-38
0.032411683 0.021701938 0.15499999 1.7735768e-38
0.034873832 0.021868644 0.15433334 1.8936803e-38
0.035584122 0.021862898 0.15400001 1.9210155e-38
0.036534261 0.021615038 0.15400003 1.8656266e-38
0.037195221 0.021986831 0.15400001 1.8657342e-38
-0.031214619 0.022730416 0.15400001 3.415197e-39
-0.030760206 0.022647796 0.15400003 3.415197e-39
-0.028735319 0.022739563 0.15440001 3.5073954e-39
-0.026505247 0.022978278 0.15400001 3.5073926e-39
0.031574175 0.022545388 0.15499999 1.6725219e-38
0.032447323 0.022379076 0.155 1.801415e-38
0.033694681 0.022628546 0.155 1.9215553e-38
0.03457344 0.022654012 0.15475 1.893968e-38
0.035625432 0.022730418 0.15400003 1.9304865e-38
0.036534257 0.022730416 0.15400003 1.9300913e-38
0.037195221 0.022606485 0.15400001 1.9117242e-38
-0.066163123 0.023474002 0.15400001 2.0329842e-39
-0.065791331 0.023474002 0.15400001 1.9407886e-39
-0.034161497 0.023875901 0.155 2.6776291e-39
-0.033662554 0.023875901 0.155 2.7698248e-39
-0.032165725 0.023875901 0.155 2.8620204e-39
-0.031485908 0.023658726 0.15428571 2.7698262e-39
-0.030966759 0.023969725 0.15400001 2.8620204e-39
-0.028701888 0.023613798 0.15418185 3.1386101e-39
-0.027574081 0.023742644 0.15430002 3.2308057e-39
-0.026505247 0.023721864 0.15400001 3.3230027e-39
-0.025414655 0.023771435 0.15400001 3.1386101e-39
0.033694681 0.023127487 0.155 1.9215556e-38
0.034393199 0.023327064 0.155 1.9124437e-38
0.03587329 0.023556622 0.15400001 1.9028997e-38
0.036286395 0.023556622 0.15400001 1.930271e-38
-0.034446605 0.024553034 0.15499999 2.4010422e-39
-0.033496238 0.024457999 0.15499999 2.4010422e-39
-0.032581512 0.024458 0.15499999 2.5854335e-39
-0.031400517 0.024527412 0.15400001 2.5854335e-39
-0.028612072 0.024217587 0.15400001 2.954216e-39
-0.027552614 0.02456104 0.15408336 2.9542174e-39
-0.026505247 0.024651343 0.15400003 2.9542188e-39
-0.025265008 0.024573127 0.15433335 2.9542188e-39
-0.034494124 0.025455885 0.15499999 2.216651e-39
-0.033496242 0.025455883 0.15499999 2.1244554e-39
-0.032581508 0.025455885 0.15499999 2.1244554e-39
-0.031462483 0.025539516 0.15400001 2.216651e-39
-0.025018077 0.025209034 0.15400001 2.8620232e-39
-0.024828883 0.025580067 0.15475 2.8620232e-39
-0.022043735 0.025952619 0.15400001 3.1375311e-39
-0.021399293 0.025754329 0.15400001 2.9542188e-39
-0.020556565 0.025952617 0.15400001 3.0464145e-39
-0.034261283 0.026320716 0.155 2.1244568e-39
-0.033496238 0.026370611 0.15499999 1.9400655e-39
-0.032581508 0.026370611 0.15499999 1.8478685e-39
-0.031400517 0.026634237 0.15400001 1.8478685e-39
-0.024336457 0.026262445 0.15400001 2.6776319e-39
-0.022548752 0.02626821 0.15440002 3.1375311e-39
-0.021465391 0.026200481 0.15400001 3.0453355e-39
-0.020465201 0.026180645 0.15425001 3.2300854e-39
-0.019388074 0.026412934 0.15400003 3.414118e-39
-0.018387776 0.026820134 0.15400001 3.5066737e-39
-0.033288345 0.027119026 0.155 2.2162937e-39
-0.032581512 0.027119026 0.155 1.8478699e-39
-0.031666782 0.02761797 0.15499999 1.8478685e-39
-0.03083073 0.027422771 0.15425001 1.7556742e-39
-0.018294826 0.027408807 0.15400003 3.5985092e-39
-0.017383935 0.027588505 0.15400001 3.5985092e-39
-0.031417314 0.028366381 0.155 2.2166538e-39
-0.030744569 0.028631663 0.15475 2.1244582e-39
-0.018201878 0.028183375 0.15400001 3.5063136e-39
-0.017334362 0.028307306 0.15400003 3.5063136e-39
-0.01651996 0.028608279 0.15400003 3.4144767e-39
-0.031417314 0.029364266 0.155 2.6776319e-39
-0.030918369 0.029364266 0.155 2.4932407e-39
-0.01411216 0.030909853 0.15400001 3.1386129e-39
-0.013616436 0.03078592 0.15400003 2.9542216e-39
-0.01279023 0.030827232 0.15400001 3.0464173e-39
-0.013575126 0.031446885 0.15400003 2.954223e-39
-0.012673533 0.031577829 0.15459999 2.9542216e-39
-0.01183382 0.031858977 0.155 3.2308085e-39
-0.013205912 0.032233186 0.155 2.7701933e-39
-0.012643239 0.032541919 0.15469231 2.7698332e-39
-0.011625927 0.03244108 0.15499999 3.0460585e-39
-0.01096067 0.032856863 0.155 3.0460613e-39
-0.011459613 0.033106335 0.155 2.9538657e-39
-0.01069802 0.033361692 0.15480001 2.9538657e-39
-0.0081634773 0.035123501 0.15400001 2.8616701e-39
-0.007766793 0.035502613 0.15457143 2.8613113e-39
-0.0082164863 0.037596814 0.155 2.9538685e-39
-0.024556853 0.044582009 0.155 1.8352e-38
-0.023778768 0.044294383 0.15400001 1.9274328e-38
0.028272199 0.063627608 0.15400001 3.7850683e-39
0.027832106 0.064040765 0.155 3.7850683e-39
0.031401258 -0.044012927 0.156 1.0053899e-38
0.029141532 -0.043761849 0.156 1.0699268e-38
0.030396935 -0.043636307 0.156 1.0422681e-38
-0.00061153423 0.0055755074 0.156 1.6128025e-38
0.00016681603 0.0055001834 0.156 1.5390099e-38
-0.00048599383 0.0062032095 0.156 1.557521e-38
0.016336415 0.0088395569 0.156 1.6535817e-38
0.016587496 0.0092161773 0.156 1.6261028e-38
0.019851545 0.02026373 0.156 9.2202917e-39
0.02851383 0.020765889 0.156 9.2156071e-39
0.029615797 0.020570606 0.156 1.2327574e-38
0.03061663 0.020546196 0.156 1.497711e-38
0.031150177 0.020765889 0.156 1.580399e-38
-0.034549281 0.021770215 0.156 3.7839823e-39
-0.03362865 0.021560976 0.156 3.5081143e-39
-0.032875407 0.021644672 0.156 3.6003099e-39
0.027635047 0.02143544 0.156 9.0322963e-39
0.028388292 0.02143544 0.156 8.6649529e-39
0.029518152 0.021435438 0.156 1.0587017e-38
0.030576279 0.021375656 0.156 1.4703044e-38
-0.036139458 0.022439763 0.156 3.0464145e-39
-0.035553601 0.022439761 0.156 3.230447e-39
-0.034549281 0.022439761 0.156 3.5073926e-39
-0.03362865 0.022439761 0.156 3.4151984e-39
-0.032624327 0.022397915 0.156 3.4151984e-39
0.027534615 0.022523455 0.156 8.2972494e-39
0.028388288 0.022439761 0.156 8.2054139e-39
0.029518152 0.022439763 0.156 8.9354175e-39
0.030648015 0.022439763 0.156 1.4066668e-38
0.031150177 0.022774536 0.156 1.4799546e-38
-0.036139458 0.023151157 0.156 2.9542174e-39
-0.035553601 0.023360392 0.156 2.7698262e-39
-0.034549281 0.023360392 0.156 2.9542174e-39
-0.033660032 0.023370853 0.156 3.1386087e-39
-0.032624327 0.023360392 0.156 3.0464131e-39
-0.028230414 0.023465008 0.156 3.3230041e-39
-0.027853794 0.023360392 0.156 3.4151998e-39
0.027572276 0.023276698 0.156 7.9302675e-39
0.028388292 0.02336039 0.156 7.8377131e-39
0.029467937 0.023276698 0.156 8.1110602e-39
0.030648015 0.023151159 0.156 1.2509789e-38
0.031150177 0.023025617 0.156 1.4802786e-38
-0.036725312 0.024364712 0.156 2.4010422e-39
-0.035511754 0.024197325 0.156 2.5854335e-39
-0.034884054 0.024155479 0.156 2.5854335e-39
-0.033377569 0.024029939 0.156 2.8620204e-39
-0.032875407 0.024029939 0.156 2.8620204e-39
-0.027853794 0.024029939 0.156 3.3230013e-39
-0.036390539 0.025285343 0.156 2.216651e-39
-0.035637297 0.025285343 0.156 2.216651e-39
-0.035302524 0.026289666 0.156 2.216651e-39
-0.034884054 0.026791828 0.156 2.2166538e-39
-0.022330018 0.026038585 0.156 3.2297267e-39
-0.034256354 0.027482297 0.156 2.4921617e-39
-0.03362865 0.027670609 0.156 2.3088494e-39
-0.032749869 0.027670609 0.156 1.9404256e-39
-0.034130812 0.028800473 0.156 2.6776319e-39
-0.03362865 0.028465696 0.156 2.5850762e-39
-0.032533024 0.02850374 0.156 2.2173727e-39
-0.031620003 0.028800473 0.156 2.3088494e-39
-0.034130812 0.029051553 0.156 2.7698304e-39
-0.033754192 0.029051553 0.156 2.6776347e-39
-0.032415092 0.02921894 0.156 2.6776319e-39
-0.031620003 0.029051553 0.156 2.401045e-39
-0.011031385 0.032441139 0.156 3.3230041e-39
-0.010529223 0.032566682 0.156 3.3230041e-39
-0.010255318 0.033411223 0.156 3.0460613e-39
-0.010027062 0.034324247 0.156 2.9538657e-39
-0.0095249005 0.034575328 0.156 2.9538657e-39
-0.0082694972 0.03507749 0.156 2.9538657e-39
-0.0082694972 0.036709517 0.156 2.7694744e-39
0.027635047 0.064202845 0.156 3.7850683e-39
0.028137209 0.064202845 0.156 3.7850683e-39
0.030339098 -0.045053136 0.15700001 1.0883304e-38
0.029328337 -0.044358239 0.15700001 1.0791464e-38
0.030339098 -0.044295061 0.15700001 1.0699268e-38
0.031097168 -0.044295065 0.15700001 1.0146095e-38
0.015430374 0.0094016008 0.15700001 1.5894046e-38
0.01631479 0.0095279459 0.15700001 1.6077357e-38
0.015514605 0.010370246 0.15700001 1.5436663e-38
0.016441135 0.010349189 0.15700001 1.5619255e-38
0.0065862169 0.011549467 0.15700001 1.4559638e-38
0.01656748 0.011328364 0.15700001 1.5344826e-38
0.0066178031 0.012275952 0.15700001 1.3639491e-38
0.016555993 0.012399424 0.15700002 1.5071475e-38
0.017199205 0.012686573 0.15700001 1.5620331e-38
0.016946515 0.013318299 0.15700001 1.5531369e-38
0.017451895 0.013570989 0.15700001 1.5529568e-38
0.019726109 0.019888245 0.15700001 9.3124873e-39
-0.03738188 0.020899005 0.15700001 3.4159186e-39
-0.036573272 0.020797929 0.15700001 3.8768968e-39
-0.035613049 0.02077266 0.15700001 4.1534837e-39
-0.034570701 0.020741073 0.15700001 3.9690924e-39
-0.033465184 0.020899005 0.15700001 3.7854214e-39
0.024779912 0.020899005 0.15700001 1.2518444e-38
0.025537983 0.02077266 0.15700001 1.2334051e-38
0.026043363 0.020899005 0.15700001 1.1508971e-38
-0.037331339 0.021657076 0.15700001 3.2315246e-39
-0.036623809 0.021572847 0.15700001 3.4155571e-39
-0.035644636 0.021530733 0.15700001 3.784341e-39
-0.034560174 0.021320157 0.15700001 3.7847012e-39
-0.033465184 0.021404386 0.15700001 3.6925055e-39
0.024779912 0.021151695 0.15700001 1.1875955e-38
0.025537983 0.021572847 0.15700001 1.0684612e-38
0.026464513 0.021572849 0.15700001 9.6747804e-39
0.027306812 0.021572845 0.15700001 9.0319347e-39
-0.03738188 0.022583606 0.15700001 3.1386101e-39
-0.0368765 0.022583606 0.15700001 3.0464145e-39
-0.03321249 0.022794181 0.15700001 3.3230013e-39
0.025727499 0.02247832 0.15700001 9.3096034e-39
0.026464513 0.022583608 0.15700001 8.7578674e-39
0.027180469 0.02247832 0.15700001 8.3890849e-39
-0.03738188 0.023510136 0.15700001 2.8620204e-39
-0.036813326 0.023615425 0.15700001 2.7698262e-39
-0.033338837 0.023425907 0.15700001 3.1386087e-39
0.026584843 0.023498105 0.15699999 8.3916072e-39
0.027256275 0.023577521 0.15700001 8.1150203e-39
-0.037508223 0.024436668 0.15700001 2.4010422e-39
-0.036623809 0.024394551 0.15700001 2.4932379e-39
-0.02525275 0.024689358 0.15700001 3.1386101e-39
-0.03712919 0.025447428 0.15700001 2.216651e-39
-0.036587711 0.025447426 0.15699999 2.216651e-39
-0.02525275 0.025194738 0.15700001 3.0464145e-39
-0.036750153 0.026205499 0.15700001 2.1251742e-39
-0.035613049 0.026963567 0.15700001 2.2166538e-39
-0.024241989 0.026710877 0.15700001 2.7698276e-39
-0.036708038 0.027553178 0.15700001 2.4932407e-39
-0.035360359 0.027468948 0.15700001 2.3088494e-39
-0.034854978 0.027721638 0.15700001 2.401045e-39
-0.034602288 0.028479708 0.15700001 2.6765529e-39
-0.03763457 0.029995849 0.15700001 2.6776347e-39
-0.037571397 0.030438058 0.15700001 2.5857992e-39
-0.0368765 0.030374885 0.15700001 2.6776347e-39
-0.03712919 0.03100661 0.15700001 2.6776347e-39
-0.0368765 0.03100661 0.15700001 2.4932435e-39
-0.0098386472 0.03365986 0.15700001 3.0460613e-39
-0.0098386472 0.034291584 0.15700001 2.9538657e-39
-0.0075644357 0.035807725 0.15700001 3.0449823e-39
-0.0076907808 0.036565796 0.15700001 2.7694744e-39
-0.0083225062 0.037450209 0.15700001 2.7694744e-39
0.026548743 0.063856333 0.15700001 3.6928727e-39
0.024577761 0.064513333 0.15700001 3.324093e-39
0.025537983 0.064488061 0.15700001 3.4162886e-39
0.026464513 0.064361721 0.15700001 3.5084828e-39
0.02740789 0.064462796 0.15700001 3.6928727e-39
0.028064886 0.064361714 0.15700001 3.7850683e-39
0.051639218 -0.022198824 0.15800001 5.1718689e-39
0.052274965 -0.022198824 0.15800001 5.5406486e-39
0.051639218 -0.021944525 0.15800001 5.3555371e-39
0.005102369 0.011623031 0.15800001 1.3822789e-38
0.01354512 0.011521311 0.15800001 9.6751559e-39
0.01447967 0.011400518 0.15800001 1.1597582e-38
0.015359123 0.011538264 0.15800001 1.3607511e-38
0.004848069 0.01238593 0.15800001 1.3363633e-38
0.005407529 0.012436789 0.15800001 1.3271433e-38
0.0061195679 0.012640229 0.15800001 1.3271067e-38
0.011968461 0.012894529 0.15800001 8.4859748e-39
0.012646595 0.012611973 0.15800001 8.0260771e-39
0.013494258 0.01251308 0.15800001 8.302308e-39
0.014511459 0.012513079 0.15800001 9.4036123e-39
0.015528657 0.012513079 0.15800001 1.1690496e-38
0.016037257 0.012894529 0.15800001 1.3798743e-38
0.011904886 0.013593854 0.15800001 8.5796124e-39
0.012561828 0.01365743 0.15800001 8.7643652e-39
0.013494259 0.01365743 0.15800001 8.8569224e-39
0.014511458 0.013657431 0.15800001 9.0402332e-39
0.015528657 0.01365743 0.15800001 9.6819985e-39
0.016418705 0.013689218 0.15800001 1.2792881e-38
0.017139221 0.013826963 0.15800001 1.4890321e-38
0.011968461 0.014420328 0.15800001 9.0409479e-39
0.012561828 0.014674627 0.15800001 9.2256993e-39
0.013457931 0.014601971 0.15800001 9.3178991e-39
0.014543246 0.01464284 0.15800001 9.3179005e-39
0.01544389 0.014589861 0.15800001 9.4082927e-39
0.016418707 0.014420328 0.15800001 1.0874063e-38
0.017520672 0.014589861 0.15800001 1.416068e-38
0.018071653 0.014928928 0.15800001 1.6540123e-38
-0.043214574 0.015946126 0.15800001 6.1817875e-39
0.01262964 0.015386666 0.15800001 9.4097304e-39
0.019597452 0.018743422 0.15800001 1.1329994e-38
-0.03838288 0.019760622 0.15800001 3.7854186e-39
-0.037789512 0.019675856 0.15800001 3.9698099e-39
0.019495731 0.019455463 0.15800001 9.4965198e-39
0.020106051 0.019506322 0.15800001 1.0411634e-38
-0.038484599 0.02052352 0.15800001 3.6925027e-39
-0.037619982 0.020438753 0.15800001 3.6925055e-39
-0.036475636 0.02052352 0.15800001 4.1534809e-39
-0.035585586 0.020269221 0.15800001 4.3378749e-39
-0.034186937 0.02065067 0.15800001 3.6932258e-39
0.019343153 0.020014921 0.15800001 9.0369794e-39
0.020572269 0.02052352 0.15800001 9.1273744e-39
0.021600062 0.020491734 0.15800001 1.0410193e-38
0.022394748 0.02077782 0.15800001 1.0867215e-38
-0.03838288 0.021455953 0.15800001 3.4159158e-39
-0.037874281 0.02154072 0.15800001 3.3237202e-39
0.020868951 0.021032119 0.15800001 8.7593135e-39
0.021663636 0.021413568 0.15800001 8.7582317e-39
0.02264905 0.021455953 0.15800001 9.5833106e-39
0.023157649 0.02166787 0.15800001 1.0042127e-38
0.02459868 0.021710252 0.15800001 1.0683174e-38
-0.03838288 0.022388384 0.15800001 3.1386101e-39
0.021801382 0.022134086 0.15800001 8.1143042e-39
0.022680836 0.022335408 0.15800001 8.3905296e-39
0.023157649 0.022049319 0.15800001 9.2163288e-39
0.024734307 0.022303617 0.15800001 9.3989194e-39
0.025276812 0.022642685 0.15800001 8.8482665e-39
-0.03838288 0.023066517 0.15800001 2.9542188e-39
0.022903349 0.023066517 0.15800001 8.2061397e-39
0.025531113 0.023151284 0.15800001 8.4820036e-39
0.026209245 0.023320816 0.15800001 8.6674738e-39
-0.043384109 0.025355214 0.15800001 2.4939595e-39
-0.042705975 0.025609514 0.15800001 2.4932407e-39
-0.037874281 0.025355214 0.15800001 2.3088466e-39
-0.037518263 0.026677573 0.15800001 2.2166524e-39
-0.036602788 0.026699368 0.15800001 2.2170111e-39
-0.024904996 0.026499562 0.15800001 2.7698276e-39
-0.037365682 0.027135313 0.15800001 2.401045e-39
-0.03643325 0.027559144 0.15800001 2.401045e-39
-0.035585586 0.027898211 0.15800001 2.3088494e-39
-0.036348481 0.028152511 0.15800001 2.5854363e-39
-0.035204135 0.02853396 0.15800001 2.6772718e-39
-0.037535217 0.030271674 0.15800001 2.6776347e-39
-0.034314085 0.030568358 0.15800001 2.8616687e-39
0.023920547 0.062737271 0.15800001 3.4173662e-39
0.024460934 0.06261012 0.15800001 3.7854284e-39
0.025446346 0.062788129 0.15800001 3.7850669e-39
0.026209245 0.062991567 0.15800001 3.6928699e-39
0.023818826 0.063551024 0.15800001 3.1407807e-39
0.024513913 0.063500166 0.15800001 3.4173676e-39
0.025531111 0.063500166 0.15800001 3.6928727e-39
0.026209245 0.063500166 0.15800001 3.600677e-39
0.021886149 0.064771667 0.15800001 3.3233727e-39
0.022712626 0.064708091 0.15800001 3.1393416e-39
0.023581482 0.064517371 0.15800001 3.1397017e-39
0.024465475 0.064444713 0.15800001 3.324093e-39
0.025531113 0.06439022 0.15800001 3.4173662e-39
0.026209245 0.064263068 0.15800001 3.5084814e-39
0.014765758 0.065025963 0.15800001 2.2132353e-38
0.015274357 0.065025963 0.15800001 2.2683365e-38
0.021759 0.065025963 0.15800001 3.1397017e-39
0.02264905 0.065025963 0.15800001 3.0475061e-39
0.023581481 0.065025963 0.15800001 3.1397017e-39
-0.055004001 0.012592277 0.15900001 1.0881967e-38
-0.054748092 0.012592277 0.15900001 1.0789771e-38
0.0023196612 0.012208412 0.15900001 1.0420989e-38
-0.049629908 0.013743869 0.15900001 8.3937666e-39
0.011378847 0.013795051 0.15900001 8.8551161e-39
0.016479971 0.014682203 0.15900001 1.0233011e-38
0.017162396 0.014767505 0.15900001 1.3897425e-38
0.011788302 0.015364627 0.15900001 9.4079283e-39
0.012044211 0.015791142 0.15900001 9.2242573e-39
0.014091484 0.015023414 0.15900001 9.5022918e-39
0.016650576 0.015023414 0.15900001 1.0601793e-38
-0.043658692 0.01630296 0.15900001 5.9973935e-39
-0.042208541 0.016558869 0.15900001 5.628611e-39
-0.041952632 0.016558869 0.15900001 5.5364153e-39
0.012044211 0.016047051 0.15900001 9.2242573e-39
0.014091484 0.016047051 0.15900001 9.5944846e-39
-0.043701347 0.017241294 0.15900002 5.5364153e-39
-0.041543178 0.017275413 0.15900001 5.3516653e-39
-0.040928993 0.017070688 0.15900001 5.5356965e-39
0.019209668 0.018862052 0.15900001 9.9567777e-39
-0.041952632 0.019885689 0.15900001 4.0605664e-39
-0.039137628 0.019885689 0.15900001 3.8776143e-39
-0.038369898 0.019459173 0.15900001 4.3378721e-39
-0.037474222 0.019885689 0.15900001 4.2456765e-39
0.018889781 0.019693756 0.15900001 9.2220909e-39
0.019209668 0.019885689 0.15900001 9.129175e-39
-0.042208541 0.020397507 0.15900001 3.2315246e-39
-0.041664734 0.020621426 0.15900002 3.3237202e-39
-0.040673088 0.02078137 0.15900002 3.5081115e-39
-0.039592579 0.020568112 0.15900002 3.7846998e-39
-0.03721831 0.020141598 0.15900001 4.2456765e-39
-0.036578536 0.020141598 0.15900001 4.5222634e-39
0.018825805 0.020568112 0.15900002 8.7611128e-39
0.019209668 0.020781372 0.15900001 8.6689186e-39
-0.042208541 0.021805007 0.15900001 2.4939595e-39
-0.041611422 0.021591751 0.15900002 2.6779921e-39
-0.040673085 0.021591749 0.15900002 3.0467746e-39
-0.039521497 0.021591751 0.15900002 3.3237202e-39
0.018953759 0.021421144 0.15900001 8.3923303e-39
0.019209668 0.021591751 0.15900001 8.3923303e-39
-0.04246445 0.022530084 0.15900002 2.3092081e-39
-0.041611418 0.022530083 0.15900002 2.3088494e-39
-0.040673081 0.022530083 0.15900002 2.5854363e-39
-0.039470315 0.022444781 0.15900002 3.0464145e-39
0.019823851 0.022598326 0.15900001 8.3001346e-39
0.021512851 0.02270069 0.15900001 8.39161e-39
0.022152625 0.022956599 0.15900001 8.1150231e-39
-0.042379145 0.023297811 0.15900001 2.2166538e-39
-0.041568771 0.023436429 0.15900002 2.1244568e-39
-0.040758386 0.023383113 0.15900002 2.2166524e-39
-0.03862581 0.023596372 0.15900001 2.8620218e-39
0.019849442 0.023340464 0.15900001 8.3001332e-39
0.021288931 0.023500407 0.15900002 8.115742e-39
0.022280579 0.023468416 0.15900002 8.2075775e-39
-0.044255815 0.024747962 0.15900001 2.4017639e-39
-0.043743994 0.024747962 0.15900001 2.3092095e-39
-0.041440815 0.024594417 0.15900001 2.1244568e-39
-0.03862581 0.024492053 0.15900001 2.4010422e-39
0.021308124 0.024338508 0.15900001 8.1153818e-39
0.022152625 0.024236144 0.15900001 8.2079376e-39
-0.043360129 0.025387736 0.15900001 2.4936008e-39
-0.041184902 0.025259782 0.15900001 2.2166538e-39
-0.040417176 0.02551569 0.15900001 2.2166538e-39
-0.038369901 0.025771599 0.15900001 2.216651e-39
-0.025318533 0.025771599 0.15900001 2.9542188e-39
-0.043232176 0.026027508 0.15900001 2.6776319e-39
-0.042976268 0.026539326 0.15900001 2.586158e-39
-0.038369901 0.026283417 0.15900001 2.1248169e-39
-0.025318533 0.026027508 0.15900001 2.8620232e-39
-0.024294896 0.026709931 0.15900001 2.9538587e-39
-0.023783078 0.026539326 0.15900001 3.2297267e-39
-0.038199294 0.027648265 0.15900001 2.401045e-39
-0.038241945 0.02807478 0.15900001 2.5854363e-39
-0.037397452 0.028484236 0.15900001 2.6776319e-39
-0.036322631 0.028714554 0.15900001 2.5854363e-39
-0.03581081 0.028842509 0.15900001 2.7698276e-39
-0.03581081 0.029098418 0.15900001 2.7698276e-39
-0.03862581 0.030633872 0.15900001 2.4017667e-39
-0.037090357 0.030633872 0.15900001 2.7698304e-39
-0.034019444 0.030889781 0.15900001 2.8616701e-39
-0.034467287 0.031465575 0.15900001 2.7701905e-39
-0.034787174 0.033192962 0.15900001 2.586158e-39
-0.0095801167 0.034856372 0.15900001 2.9538657e-39
-0.0089403437 0.034984328 0.15900001 2.9538657e-39
-0.0094521623 0.035240237 0.15900001 2.9538657e-39
-0.0087356167 0.035393782 0.15900001 2.8616701e-39
-0.0084285252 0.036007963 0.15900001 2.8616701e-39
-0.0081726164 0.037415467 0.15900001 2.7694744e-39
-0.0076607978 0.037287511 0.15900001 2.7694744e-39
0.02368808 0.061854795 0.15900001 4.3378819e-39
0.022707095 0.062793128 0.15900001 3.2326148e-39
0.023528136 0.062590532 0.15900002 3.6928727e-39
0.024327854 0.062366612 0.15900001 4.1538508e-39
0.022609605 0.06368272 0.15900002 2.9563894e-39
0.023406578 0.063594982 0.15900001 3.1407807e-39
0.022408534 0.064593017 0.15900002 3.1397003e-39
0.023304217 0.064157978 0.15900001 3.0485851e-39
0.015498985 0.065309569 0.15900001 2.2867036e-38
0.016138759 0.065437526 0.15900001 2.3050707e-38
0.021384897 0.065309569 0.15900001 3.5077639e-39
-0.0071939412 0.0024994863 0.16000001 1.0420989e-38
-0.006807663 0.0024994863 0.16000001 1.0605021e-38
-0.0068076635 0.0030145235 0.16000001 1.0512828e-38
-0.054749057 0.012628554 0.16000001 1.0512828e-38
-0.057324246 0.013744469 0.16000001 1.1159273e-38
-0.055435777 0.013229431 0.16000001 1.0605383e-38
-0.050199565 0.014087827 0.16000001 8.0246253e-39
-0.049813285 0.014087827 0.16000001 8.2090166e-39
0.011347405 0.015890457 0.16000001 9.4082843e-39
-0.044276632 0.016534254 0.16000001 5.9051978e-39
-0.04324656 0.016405495 0.16000001 5.9973935e-39
-0.042989042 0.016534254 0.16000001 5.8130022e-39
0.011690763 0.016233817 0.16000001 9.4082857e-39
-0.045177951 0.017693087 0.16000001 5.1669139e-39
-0.044598531 0.01749995 0.16000001 5.3516653e-39
-0.043761596 0.017693087 0.16000001 5.4435008e-39
-0.042628516 0.017487073 0.16000001 5.4442197e-39
-0.041701447 0.017521409 0.16000001 5.2598284e-39
-0.044362474 0.018208126 0.16000001 4.8903271e-39
-0.042621158 0.018723162 0.16000001 4.7988503e-39
-0.041724857 0.018559288 0.16 4.8910459e-39
-0.054834899 0.019495718 0.16000001 4.9832415e-39
-0.042731524 0.019624477 0.16000001 4.152762e-39
-0.04157269 0.019624479 0.16000001 4.4293489e-39
-0.040585533 0.019667396 0.16000001 4.1534809e-39
-0.038096186 0.019624477 0.16000001 4.4300678e-39
-0.037838668 0.019753236 0.16000001 4.5222634e-39
0.015725223 0.019753236 0.16000001 8.8533098e-39
0.018557929 0.019753236 0.16000001 9.2220923e-39
-0.0429032 0.020439953 0.16000001 3.3237202e-39
-0.041517504 0.020231485 0.16000001 3.8765353e-39
-0.040413849 0.02021677 0.16000001 3.969091e-39
-0.039641298 0.020010756 0.16000001 3.8776171e-39
-0.037066109 0.020010756 0.16000001 4.614459e-39
0.014952666 0.020010756 0.16000001 8.7611114e-39
0.015811061 0.020311194 0.16000001 8.5767201e-39
0.01649778 0.020439953 0.16000001 8.6689157e-39
0.017270334 0.020439953 0.16000001 8.6689171e-39
0.018171651 0.020439954 0.16000001 8.7611128e-39
-0.04345258 0.021452859 0.16000001 2.6783508e-39
-0.042886034 0.021298349 0.16000001 2.7705464e-39
0.016626539 0.021298349 0.16000001 8.2082977e-39
0.017270334 0.021384187 0.16000001 8.3004948e-39
0.01826822 0.02142711 0.16000001 8.300136e-39
-0.044019114 0.022585943 0.16000001 2.4017639e-39
-0.043504078 0.022328423 0.16000001 2.4017639e-39
-0.042989042 0.022070905 0.16000001 2.4017639e-39
0.016755298 0.022328423 0.16000001 7.8395152e-39
0.017270334 0.022328425 0.16000001 8.1157434e-39
0.01830041 0.022328423 0.16000001 8.2079404e-39
0.019175973 0.022379927 0.16000001 8.207939e-39
-0.045306709 0.023358498 0.16000001 2.4017639e-39
-0.044019114 0.023229739 0.16000001 2.401045e-39
-0.043504078 0.0233585 0.16000001 2.3088494e-39
-0.042989042 0.023616018 0.16000001 2.3088494e-39
-0.040340278 0.023395287 0.16000001 2.401045e-39
-0.039555456 0.023444338 0.16000001 2.7698276e-39
0.01658362 0.023186818 0.16000001 7.9313507e-39
0.017238146 0.023326308 0.16000001 7.9313507e-39
0.018332601 0.023326308 0.16000001 8.2079376e-39
0.019201726 0.0233585 0.16000001 8.3001332e-39
-0.044791672 0.024646092 0.16000001 2.4017639e-39
-0.04273152 0.02490361 0.16000001 2.2166538e-39
-0.041443929 0.024517333 0.16000001 2.0322597e-39
-0.040619869 0.024440076 0.16000001 2.0322597e-39
0.018557929 0.024131054 0.16000001 8.2994144e-39
0.019201726 0.024131054 0.16000001 8.2075789e-39
-0.04324656 0.025547408 0.16000001 2.4932407e-39
-0.0429032 0.025504487 0.16000001 2.401045e-39
-0.041186411 0.025547408 0.16000001 2.2166538e-39
-0.040478233 0.025611788 0.16000001 2.0322611e-39
-0.039126258 0.025547408 0.16000001 2.3088466e-39
-0.025220251 0.025933685 0.16000001 3.0464145e-39
-0.04324656 0.026191203 0.16000001 2.4932407e-39
-0.042989042 0.026963759 0.16000001 2.6783536e-39
-0.039126258 0.026963759 0.16000001 2.2173727e-39
-0.03886874 0.026963759 0.16000001 2.125177e-39
-0.025220251 0.026191203 0.16000001 2.9542188e-39
-0.024833972 0.026448723 0.16000001 2.9542188e-39
-0.038096186 0.029796464 0.16000001 2.7698304e-39
-0.037495308 0.029538946 0.16000001 2.6776333e-39
-0.036486693 0.029410187 0.16000001 2.6776333e-39
-0.038096186 0.030311503 0.16000001 2.6776347e-39
-0.03736655 0.030483181 0.16000001 2.6776347e-39
-0.035263479 0.031856615 0.16000001 2.7705492e-39
-0.034490924 0.031856615 0.16000001 2.7705492e-39
-0.035263479 0.032886688 0.16000001 2.6783536e-39
-0.034748442 0.032114133 0.16000001 2.7705492e-39
-0.035263479 0.033144206 0.16000001 2.586158e-39
-0.034748442 0.033144206 0.16000001 2.586158e-39
-0.007966497 0.037779544 0.16000001 2.7694744e-39
-0.0082240161 0.038037062 0.16000001 2.7694744e-39
0.021776911 0.062630087 0.16000001 3.2322575e-39
0.022592388 0.062630095 0.16000001 3.4166459e-39
0.023193264 0.062501334 0.16000001 3.6939517e-39
0.020875597 0.063531406 0.16000001 3.0475075e-39
0.021562314 0.06335973 0.16000001 2.9560293e-39
0.022291949 0.063273892 0.16000001 3.1400618e-39
0.020875597 0.064303964 0.16000001 3.2315386e-39
0.021562314 0.064303964 0.16000001 2.9556706e-39
0.02216319 0.064046443 0.16000001 2.8641938e-39
0.014823907 0.065591559 0.16000001 2.2132352e-38
0.015853982 0.065591559 0.16000001 2.3050707e-38
0.01649778 0.065591559 0.16000001 2.3050707e-38
0.017012816 0.065591559 0.16000001 2.3050707e-38
0.020875597 0.065334037 0.16000001 3.5077639e-39
0.02133913 0.065282539 0.16000001 3.3233727e-39
0.01649778 0.066106603 0.16000001 2.3050707e-38
0.017141575 0.066106603 0.16000001 2.3050707e-38
0.019716762 0.066106603 0.16000001 1.3284108e-38
0.020618077 0.066106603 0.16000001 4.7063071e-39
-0.0073684677 0.0031629284 0.16100001 1.0605023e-38
-0.063863948 0.011917285 0.162 1.2819517e-38
-0.064385414 0.012569129 0.162 1.2911351e-38
-0.063863948 0.012569129 0.162 1.2634405e-38
-0.058077872 0.012920234 0.16150001 1.1250749e-38
-0.057866979 0.012960236 0.162 1.0881967e-38
-0.0552596 0.012960236 0.162 1.0328437e-38
-0.058028027 0.01339849 0.16100001 1.1619532e-38
-0.057444386 0.013639724 0.16140001 1.0697936e-38
-0.056907773 0.01369963 0.16150001 1.0052568e-38
-0.055538725 0.013552395 0.16160001 1.0237679e-38
-0.058127716 0.014785399 0.162 1.0237676e-38
-0.057392437 0.014425009 0.16171429 1.0237676e-38
-0.056682002 0.01428551 0.16187501 9.5001127e-39
-0.050599691 0.014780506 0.16100001 7.379972e-39
-0.049889579 0.014479026 0.16150001 7.8402327e-39
-0.050566319 0.015046136 0.162 7.1959395e-39
-0.056432921 0.016610561 0.162 8.2093725e-39
-0.047611292 0.016480193 0.162 6.2739818e-39
-0.046915993 0.016610561 0.162 6.0895891e-39
-0.045677491 0.016415009 0.162 6.1817861e-39
-0.056563288 0.017132036 0.162 7.7476755e-39
-0.048219681 0.017392775 0.162 5.8130022e-39
-0.047579683 0.017487587 0.16199999 5.5360566e-39
-0.046591617 0.017455293 0.16177776 5.5360566e-39
-0.045640808 0.017320663 0.16133334 5.4442197e-39
-0.043646414 0.017501352 0.16100001 5.5364153e-39
-0.041357446 0.017630916 0.16100001 5.2598284e-39
-0.055609263 0.018655639 0.16120002 6.1810673e-39
-0.0473071 0.018631279 0.162 4.8903285e-39
-0.046692502 0.018733712 0.16200002 4.7059372e-39
-0.045404784 0.018581051 0.16100001 4.7059358e-39
-0.044405289 0.01865509 0.16100001 4.7059358e-39
-0.04354924 0.01854866 0.16100001 4.8906858e-39
-0.041280638 0.018642496 0.16125001 4.8903271e-39
-0.055436745 0.019099308 0.16100001 5.904479e-39
-0.05491849 0.019876694 0.16100001 4.7988503e-39
-0.04717673 0.019478675 0.162 4.5215473e-39
-0.046568345 0.019478677 0.162 4.2449604e-39
-0.045201182 0.01953119 0.16100001 3.9683708e-39
-0.044466987 0.019531187 0.16100001 3.9683708e-39
-0.043775979 0.01953119 0.16100001 4.0609265e-39
-0.041443825 0.019099308 0.16100001 4.614459e-39
-0.040472094 0.019617567 0.16100001 4.2456765e-39
-0.039759491 0.019747131 0.16100001 4.1534809e-39
-0.055781078 0.02000015 0.162 4.7981314e-39
-0.046692502 0.020298136 0.16200002 3.8761751e-39
-0.045417126 0.020567702 0.16100001 3.3237202e-39
-0.044466991 0.020567702 0.16100001 3.1389702e-39
-0.043711197 0.020459732 0.16100001 3.3233615e-39
0.015434813 0.020783642 0.16100001 8.3923289e-39
-0.046446662 0.021355987 0.162 3.1393289e-39
-0.045201182 0.021517837 0.16100001 2.7705464e-39
-0.04459038 0.021468481 0.16100001 2.7705464e-39
0.015737129 0.02125871 0.16100001 8.2082977e-39
0.016341763 0.02169059 0.16100001 7.9324297e-39
-0.047403771 0.022467976 0.16100001 2.7705464e-39
-0.046133779 0.022477157 0.162 2.6783508e-39
-0.045201182 0.022467973 0.16100001 2.5861552e-39
-0.044708841 0.02241615 0.16100001 2.4939595e-39
0.011489248 0.022737896 0.162 7.8395152e-39
0.012366274 0.022631234 0.16199999 7.5636472e-39
0.015872646 0.02240698 0.16150001 7.8398753e-39
0.016341763 0.022467976 0.16100001 7.9317094e-39
-0.046133779 0.02338974 0.162 2.4017639e-39
-0.045227095 0.02345266 0.16100001 2.3095683e-39
-0.044747707 0.023569269 0.16100001 2.3095683e-39
0.011489248 0.02338974 0.162 7.9313507e-39
0.012488741 0.023476653 0.162 7.8391551e-39
-0.045341156 0.024617214 0.16150001 2.3095683e-39
-0.044449735 0.024717139 0.16177776 2.3088494e-39
-0.043526404 0.024563059 0.162 2.3088494e-39
-0.042739466 0.024281872 0.16100001 2.1244582e-39
-0.040277749 0.024541 0.16100001 2.1244554e-39
-0.039889056 0.024541 0.16100001 2.4010422e-39
-0.043390855 0.025528185 0.16150001 2.401045e-39
-0.042481493 0.025787316 0.16150001 2.3088494e-39
-0.040247288 0.02548494 0.16140001 2.0322597e-39
-0.039889056 0.025836641 0.16100001 2.1244554e-39
-0.043226149 0.026434347 0.16171429 2.4936008e-39
-0.042353086 0.026388224 0.162 2.401045e-39
-0.041597933 0.02638188 0.1618 2.3088494e-39
-0.040745202 0.02643168 0.162 2.1244582e-39
-0.039759491 0.026441274 0.16100001 2.1244568e-39
-0.043135297 0.027170438 0.162 2.5861566e-39
-0.042222716 0.027300807 0.162 2.5861552e-39
-0.041668646 0.027300805 0.162 2.4939595e-39
-0.040658288 0.02704007 0.162 2.2173727e-39
-0.039745703 0.027561544 0.162 2.3095683e-39
-0.041527409 0.028372725 0.162 2.6776347e-39
-0.040919024 0.028604494 0.162 2.586158e-39
-0.039671045 0.028360268 0.1618 2.4932407e-39
-0.038852543 0.028687051 0.16100001 2.6776319e-39
-0.038766164 0.029464437 0.16100001 2.586158e-39
-0.036779515 0.029982692 0.16100001 2.862026e-39
-0.03911167 0.030500948 0.16100001 2.586158e-39
-0.038852543 0.030500948 0.16100001 2.586158e-39
-0.037138328 0.030690396 0.162 2.862026e-39
-0.034965619 0.030760076 0.16100001 2.7698304e-39
-0.03492206 0.031733345 0.162 2.8616701e-39
-0.035965011 0.033037037 0.162 2.6783536e-39
-0.0083268164 0.039034002 0.162 2.8616701e-39
-0.024492551 0.051810145 0.162 1.2083049e-38
-0.023840707 0.051810145 0.162 1.125365e-38
-0.023971077 0.052461989 0.162 1.0146941e-38
0.019702485 0.060935963 0.162 4.3393211e-39
0.020528153 0.060631767 0.162 5.0768861e-39
0.021223456 0.060675222 0.162 5.44567e-39
0.018789902 0.061544348 0.162 3.4173676e-39
0.019572116 0.061544344 0.162 3.6932342e-39
0.020497262 0.06160092 0.16181818 4.154211e-39
0.021372659 0.061696984 0.16163635 4.4307978e-39
0.022301709 0.061855454 0.16100001 4.2471255e-39
0.018659534 0.062500387 0.162 3.0475103e-39
0.019611137 0.06246607 0.16154546 3.2318973e-39
0.02035825 0.062460084 0.16100001 3.324093e-39
0.021342935 0.062373705 0.16100001 3.6006784e-39
0.022509012 0.062270056 0.16100001 3.7861473e-39
0.017538363 0.063699782 0.162 1.2360348e-38
0.018529164 0.063543342 0.162 3.8761849e-39
0.019577412 0.063454591 0.16133335 3.1393444e-39
0.02035825 0.063410223 0.16100001 3.0475075e-39
0.021092445 0.063237466 0.16100001 3.2318973e-39
0.017486215 0.064499371 0.162 1.7615506e-38
0.018529164 0.064499386 0.162 8.3019423e-39
0.01957741 0.064464279 0.16133335 3.5081255e-39
0.02035825 0.06444674 0.16100001 3.1393458e-39
0.015872646 0.065816179 0.16150001 2.2958871e-38
0.016563026 0.065773316 0.16171429 2.2867034e-38
0.017486215 0.065542325 0.162 2.1763211e-38
0.018529164 0.065542318 0.162 1.7154528e-38
0.019577412 0.065502934 0.16133332 6.18144e-39
0.02035825 0.06548325 0.16100001 3.599961e-39
0.015400313 0.066150717 0.162 2.2499694e-38
0.016964739 0.066150717 0.162 2.2958871e-38
0.017613098 0.066187024 0.16137502 2.2867034e-38
0.01858061 0.066269547 0.16144446 2.0658309e-38
0.019423315 0.066135004 0.16120002 1.4111708e-38
0.02035825 0.066001505 0.16100001 4.7055883e-39
-0.065176383 0.011859676 0.163 1.3188299e-38
-0.06469541 0.01181595 0.163 1.3096104e-38
-0.063943341 0.011518624 0.163 1.291207e-38
-0.059011221 0.011728501 0.163 1.1803923e-38
-0.065482445 0.012690441 0.163 1.3187937e-38
-0.063995816 0.012646716 0.163 1.2542569e-38
-0.065307558 0.013250114 0.163 1.2818797e-38
-0.064651683 0.013302583 0.163 1.254257e-38
-0.063995816 0.013040237 0.163 1.2450016e-38
-0.059273567 0.013827277 0.163 1.1344024e-38
-0.055425812 0.013477482 0.163 9.9610909e-39
-0.054201525 0.01365238 0.163 9.3160802e-39
-0.059098672 0.014439422 0.163 1.0883046e-38
-0.056562643 0.014439422 0.163 9.4079171e-39
-0.050222591 0.014876666 0.163 7.5640031e-39
-0.04982907 0.014876666 0.163 7.5640031e-39
-0.058486525 0.015139014 0.163 1.0053285e-38
-0.057489611 0.015191483 0.163 9.7774171e-39
-0.054026622 0.015532535 0.163 8.1178958e-39
-0.053633101 0.015532534 0.163 7.7491132e-39
-0.052780472 0.01559812 0.163 7.6569176e-39
-0.051446881 0.015488808 0.163 7.0115482e-39
-0.050353762 0.01540136 0.163 7.0115482e-39
-0.04961919 0.01545383 0.163 6.9193526e-39
-0.048254985 0.015663708 0.163 6.7349613e-39
-0.04778276 0.015558769 0.163 6.7349613e-39
-0.063471124 0.01645075 0.163 9.5926699e-39
-0.057305962 0.016581923 0.163 8.578155e-39
-0.056650095 0.01645075 0.163 8.6710695e-39
-0.054026622 0.016450748 0.163 7.4718075e-39
-0.053633105 0.01645075 0.163 7.3796119e-39
-0.052714888 0.01645075 0.163 7.0111867e-39
-0.051534325 0.01645075 0.163 6.549847e-39
-0.050353765 0.01645075 0.163 6.2736202e-39
-0.049391821 0.01645075 0.163 6.1817847e-39
-0.048648506 0.016385162 0.163 6.2739818e-39
-0.047730293 0.016188402 0.163 6.3661788e-39
-0.046812076 0.016581923 0.163 6.1817861e-39
-0.056650095 0.017500138 0.163 7.0108293e-39
-0.054026622 0.017500138 0.163 6.3650998e-39
-0.053659339 0.017447669 0.163 6.3658201e-39
-0.052714884 0.01723779 0.163 6.1817861e-39
-0.051432304 0.017441839 0.163 5.8130022e-39
-0.050353765 0.017500136 0.163 5.4442211e-39
-0.049391821 0.01750014 0.163 5.628611e-39
-0.048779681 0.017500136 0.163 5.7208066e-39
-0.057174791 0.018680699 0.163 6.5498484e-39
-0.056650095 0.018287178 0.163 6.8264367e-39
-0.054026622 0.018287178 0.163 6.181426e-39
-0.053764276 0.018287178 0.163 5.8130036e-39
-0.051140804 0.018462077 0.163 5.1672755e-39
-0.050353765 0.018462079 0.163 4.9825255e-39
-0.049391821 0.018462079 0.163 4.9828842e-39
-0.048517331 0.018462077 0.163 5.0747197e-39
-0.047992639 0.018811874 0.163 4.9825255e-39
-0.041696306 0.018024832 0.163 5.3513052e-39
-0.056125402 0.019861262 0.163 5.0747183e-39
-0.055513259 0.019686366 0.163 5.2594683e-39
-0.051140804 0.01907422 0.163 4.7981342e-39
-0.050353762 0.019424016 0.163 4.4297104e-39
-0.049461782 0.01917916 0.163 4.5219061e-39
