# .PCD v0.7 - Point Cloud Data file format
VERSION 0.7
FIELDS x y z rgb
SIZE 4 4 4 4
TYPE F F F F
COUNT 1 1 1 1
WIDTH 974
HEIGHT 1
VIEWPOINT 0 0 0 1 0 0 0
POINTS 974
DATA ascii
-0.023402562 0.06052639 0.15000001 7.7494888e-39
-0.021833304 0.060284968 0.15000001 5.2594949e-39
-0.020505475 0.060284968 0.15000001 8.5796166e-39
-0.019298356 0.060284968 0.15000001 2.6783704e-39
-0.024368256 0.061733514 0.14999999 1.9736001e-38
-0.023590334 0.061679859 0.14999999 1.853818e-38
-0.022919713 0.061411615 0.15000001 1.6140376e-38
-0.013504185 0.061813984 0.15000001 1.7567672e-39
0.014516636 -0.050460335 0.15100001 8.4877447e-39
0.01527814 -0.050452232 0.15100001 8.2115193e-39
0.015407756 -0.049488202 0.15100001 8.2122396e-39
0.016663428 -0.043331359 0.15100001 9.2245894e-39
0.014597646 -0.042116191 0.15100001 9.8696071e-39
0.015357125 -0.042328849 0.15100001 9.4093478e-39
0.0164447 -0.042456437 0.15100001 8.8568929e-39
0.017271012 -0.042237706 0.15100001 8.6735877e-39
0.014597646 -0.041508608 0.15100001 9.7777744e-39
0.015326745 -0.041387092 0.15100001 9.1338442e-39
0.016420396 -0.041387092 0.15100001 8.3973623e-39
0.017444609 -0.041352373 0.15100001 8.2136955e-39
0.014597646 -0.040414959 0.15100001 9.4107968e-39
0.015326745 -0.040536478 0.15100001 8.7665064e-39
0.016514909 -0.040468968 0.15100001 8.029663e-39
0.017514046 -0.040414963 0.15100001 7.8459948e-39
0.018000113 -0.040414959 0.15100001 7.8456375e-39
0.016784946 -0.03968586 0.15100001 7.9374702e-39
0.017514046 -0.039523844 0.15100001 7.8459948e-39
0.018000113 -0.039928894 0.15100001 7.8459948e-39
0.017635562 -0.038632717 0.15100001 8.1222258e-39
0.016784946 -0.037255526 0.15100001 8.859788e-39
0.017514046 -0.037571471 0.15100001 8.3073373e-39
0.018324157 -0.037336539 0.15100001 8.5842843e-39
0.016784946 -0.036769461 0.15100001 9.2282062e-39
0.017392529 -0.036647946 0.15100001 8.767591e-39
0.018729212 -0.036404911 0.15100001 8.76867e-39
0.019458313 -0.036526427 0.15100001 9.1374581e-39
0.018486179 -0.033123963 0.15100001 1.0146183e-38
0.018405166 -0.032394864 0.15100001 1.0146885e-38
0.02346836 -0.030450597 0.15100001 7.3828559e-39
0.024197461 -0.030450599 0.15100001 7.1984646e-39
0.02346836 -0.029640488 0.15100001 6.3679767e-39
0.024288597 -0.029599983 0.15100001 6.4601709e-39
0.023427853 -0.028506331 0.15100001 5.9981081e-39
0.024318976 -0.028567091 0.15100001 5.907353e-39
0.022617744 -0.0275342 0.15100001 5.9981095e-39
0.023346845 -0.027534198 0.15100001 5.9984725e-39
0.024288598 -0.027534198 0.15100001 6.091387e-39
0.025534144 -0.027291166 0.15100001 6.4601709e-39
0.022617744 -0.026683582 0.15100001 6.3668865e-39
0.023346845 -0.026592445 0.15100001 6.3676109e-39
0.024173155 -0.026610672 0.15100001 6.1843029e-39
0.025777176 -0.026805099 0.15100001 6.6445622e-39
0.023346843 -0.025832964 0.15100001 7.196989e-39
0.050566569 -0.022308983 0.15100001 1.0238767e-38
0.032703623 -0.021215333 0.15100001 6.7360389e-39
0.033311207 -0.021215333 0.15100001 7.1044613e-39
0.049108367 -0.021701399 0.15100001 1.005545e-38
0.032744128 -0.020891288 0.15100001 6.7356774e-39
0.033523861 -0.020759646 0.15100001 7.0122643e-39
0.034477767 -0.020826479 0.15100001 7.9338618e-39
0.035498507 -0.0209723 0.15100001 8.3952029e-39
0.036956705 -0.019028034 0.15100001 6.644188e-39
0.037685804 -0.019222461 0.15100001 7.1040956e-39
0.038374402 -0.019311571 0.15100001 7.1044557e-39
0.041331302 -0.019028034 0.15100001 6.368327e-39
0.042667985 -0.019028034 0.15100001 6.7353102e-39
0.043518607 -0.019271068 0.15100001 7.0115398e-39
0.044004671 -0.019028034 0.15100001 6.7353074e-39
0.036713675 -0.018582473 0.15100001 6.090294e-39
0.037604794 -0.018785 0.15100001 6.6431118e-39
0.038293391 -0.018541967 0.15100001 6.2743279e-39
0.04465276 -0.018785 0.15100001 6.3665249e-39
0.045705903 -0.018724242 0.15100001 6.367248e-39
0.046435006 -0.018359691 0.15100001 6.1828567e-39
0.03685949 -0.017472621 0.15100001 5.3523688e-39
0.037655428 -0.017296422 0.15100001 5.5371202e-39
0.038495913 -0.017448319 0.15100001 5.5371202e-39
0.039144006 -0.017205285 0.15100001 5.4452847e-39
0.040602203 -0.017083768 0.15100001 5.7222317e-39
0.04270849 -0.017650845 0.15100001 5.6300361e-39
0.046678036 -0.017812869 0.15100001 6.367248e-39
0.034769405 -0.016597701 0.15100001 5.4431211e-39
0.036956705 -0.016476184 0.15100001 5.5364027e-39
0.037604798 -0.016354669 0.15100001 5.6296829e-39
0.038495917 -0.016354669 0.15100001 5.5389279e-39
0.039241217 -0.016403276 0.15100001 5.4474553e-39
0.040602203 -0.016597701 0.15100001 5.9995445e-39
0.048622303 -0.016354669 0.15100001 8.1203971e-39
0.037847828 -0.015544557 0.15100001 6.186828e-39
0.038495917 -0.015504052 0.15100001 6.279388e-39
0.039144006 -0.015625568 0.15100001 6.3719409e-39
0.031123906 -0.011494004 0.15100001 1.3091705e-38
0.035012439 -0.011494004 0.15100001 6.644188e-39
0.048500784 -0.011007938 0.15100001 6.5526902e-39
0.051538702 -0.011007938 0.15100001 7.7494776e-39
0.048500784 -0.010643387 0.15100001 7.1973576e-39
0.051457692 -0.010683893 0.15100001 7.9353136e-39
0.052024767 -0.010521871 0.15100001 8.4888461e-39
0.029908741 -0.0085776057 0.15100001 1.2540294e-38
0.030151773 -0.0085776057 0.15100001 1.263249e-38
0.04254647 -0.0083345724 0.15100001 6.3678912e-39
0.043032538 -0.0080915391 0.15100001 6.5522824e-39
0.043761637 -0.007119406 0.15100001 9.2237823e-39
0.061867617 -0.0042030071 0.15100001 4.5233578e-39
0.062718235 -0.0043974337 0.15100001 5.1683629e-39
0.063447334 -0.0043974337 0.15100001 5.8137323e-39
0.064176433 -0.0042030071 0.15100001 7.0133601e-39
0.045705903 -0.0034739072 0.15100001 1.7609615e-38
0.049229883 -0.0034739072 0.15100001 1.9360253e-38
0.059801832 -0.0037169408 0.15100001 4.3400427e-39
0.060449917 -0.0037169408 0.15100001 4.6173499e-39
0.061405849 -0.0037412439 0.15100001 5.3552779e-39
0.048136234 -0.0027448079 0.15100001 1.8163142e-38
0.059801832 -0.0029878409 0.15100001 6.0939219e-39
0.060571436 -0.002825819 0.15100001 6.4630618e-39
0.061138522 -0.0026232912 0.15100001 7.1073494e-39
0.054455101 -0.0015296416 0.15100001 1.8899625e-38
0.067335866 0.0027234401 0.15100001 1.7424116e-38
0.052510835 0.0030879898 0.15100001 9.0420171e-39
0.059801832 0.0038170898 0.15100001 1.2725459e-38
0.060044866 0.0033310233 0.15100001 1.512105e-38
0.058343634 0.0045461892 0.15100001 9.8699771e-39
0.059680313 0.0043031564 0.15100001 1.0974853e-38
0.056156334 0.0055183223 0.15100001 9.8728693e-39
0.058708183 0.0051537724 0.15100001 9.7788646e-39
0.059558798 0.0055183223 0.15100001 9.5029952e-39
0.056156334 0.0061259056 0.15100001 9.965065e-39
-0.014201796 0.0079486547 0.15100001 1.0787155e-38
-0.01408028 0.0086777536 0.15100001 1.1525437e-38
-0.01364282 0.0087263603 0.15100001 1.1615831e-38
-0.01408028 0.0094068535 0.15100001 1.2813657e-38
-0.013594213 0.0094068535 0.15100001 1.2260477e-38
-0.011892981 0.00989292 0.15100001 1.4464913e-38
-0.011892981 0.010135953 0.15100001 1.4007531e-38
-0.010920848 0.01135112 0.15100001 1.4650389e-38
0.063285314 0.012485276 0.15100001 6.4554962e-39
0.062961265 0.013538419 0.15100001 1.0514629e-38
0.063325815 0.013295387 0.15100001 8.4852448e-39
0.067335866 0.013173869 0.15100001 6.0899548e-39
0.062880255 0.014672575 0.15100001 1.2451463e-38
0.063325815 0.014206761 0.15100001 1.1622064e-38
0.061989132 0.015604202 0.15100001 1.0054014e-38
0.062475204 0.015725721 0.15100001 9.9621797e-39
0.063544542 0.01587154 0.15100001 1.0516075e-38
0.064419471 0.015756097 0.15100001 1.0330602e-38
0.065361217 0.015756097 0.15100001 9.6873893e-39
0.066242211 0.015847236 0.15100001 8.8576286e-39
0.062637225 0.016697852 0.15100001 9.2246161e-39
0.063528337 0.016697854 0.15100001 9.7788688e-39
0.064419471 0.01669785 0.15100001 9.132782e-39
0.065391593 0.01669785 0.15100001 9.1324176e-39
0.066333354 0.01672823 0.15100001 9.501919e-39
0.062752947 0.017635267 0.15100001 9.8717861e-39
0.063528337 0.017669983 0.15100001 9.7792318e-39
0.064419471 0.017669983 0.15100001 9.7788717e-39
0.065391593 0.017669983 0.15100001 1.060863e-38
0.066242211 0.017669983 0.15100001 1.0608631e-38
0.062961265 0.018156052 0.15100001 1.0608992e-38
0.063516766 0.018468525 0.15100001 1.0701189e-38
0.064257443 0.018318074 0.15100001 1.0516798e-38
0.066120699 0.018156052 0.15100001 1.0977775e-38
0.063933395 0.019128185 0.15100001 1.0977775e-38
0.04675905 0.022125594 0.15100001 1.1897933e-38
0.047245115 0.022206604 0.15100001 1.1897935e-38
0.026658172 0.024596432 0.15100001 1.497783e-38
0.020673478 0.025447048 0.15100001 1.9016085e-38
0.025485536 0.025641475 0.15100001 1.5899064e-38
0.019944377 0.026783729 0.15100001 2.1316636e-38
0.020187411 0.026783729 0.15100001 2.0681325e-38
0.024805043 0.026176147 0.15100001 1.6631953e-38
0.019944377 0.027391311 0.15100001 2.1315563e-38
0.020187411 0.027391311 0.15100001 2.095504e-38
-0.055152904 0.048656721 0.15100001 4.0609377e-39
-0.054504819 0.048535202 0.15100001 3.9687421e-39
-0.053856727 0.048697222 0.15100001 3.9691008e-39
-0.05166943 0.048373181 0.15100001 4.3371617e-39
-0.050292239 0.048292171 0.15100001 3.8765437e-39
-0.049077071 0.048778236 0.15100001 4.1531306e-39
-0.054369796 0.049588349 0.15100001 3.6928755e-39
-0.053694703 0.049677461 0.15100001 3.7850711e-39
-0.052661814 0.049932647 0.15100001 3.9694624e-39
-0.051944863 0.049555942 0.15100001 4.153132e-39
-0.049077071 0.049264304 0.15100001 4.0616552e-39
-0.04839658 0.049604554 0.15100001 4.1534907e-39
-0.047375839 0.049669355 0.15100001 4.2460465e-39
-0.046889771 0.049264304 0.15100001 3.9694624e-39
-0.032307778 0.049993403 0.15100001 2.8620386e-39
-0.05746172 0.050965536 0.15100001 2.6780005e-39
-0.053451672 0.050479468 0.15100001 3.8765451e-39
-0.052844085 0.050600983 0.15100001 3.9687421e-39
-0.046403706 0.050600983 0.15100001 4.6148332e-39
-0.053208638 0.051208571 0.15100001 3.5084842e-39
-0.032307778 0.052180704 0.15100001 1.4848191e-38
-0.037168443 0.053638905 0.15100001 2.3050707e-38
-0.036925409 0.05388194 0.15100001 2.3050707e-38
-0.023072511 0.055340141 0.15100001 2.4021339e-39
-0.055395938 0.05631227 0.15100001 1.110672e-39
-0.02744711 0.056798335 0.15100001 1.2728423e-38
-0.026766619 0.056506693 0.15100001 1.5769794e-38
-0.02598891 0.05631227 0.15100001 1.724456e-38
-0.023072511 0.056069236 0.15100001 2.4943323e-39
-0.022586444 0.056798335 0.15100001 2.7701989e-39
-0.027568627 0.057284404 0.15100001 7.1948857e-39
-0.026961043 0.057284404 0.15100001 9.6834488e-39
-0.02234341 0.057527434 0.15100001 6.2743559e-39
-0.022246197 0.058402352 0.15100001 1.2729135e-38
-0.021452287 0.058634587 0.15100001 9.4093717e-39
-0.020561166 0.058742601 0.15100001 2.86204e-39
-0.019832067 0.058904622 0.15100001 2.5854517e-39
-0.024044644 0.059957769 0.15100001 4.2471409e-39
-0.021452287 0.059714735 0.15100001 1.254403e-38
-0.020561168 0.059714735 0.15100001 5.5364363e-39
-0.01953117 0.059645295 0.15100001 2.5858133e-39
-0.018859932 0.059876759 0.15100001 2.4939764e-39
-0.024044642 0.060605854 0.15100001 5.7215479e-39
-0.021371279 0.06039523 0.15100001 8.1172035e-39
-0.020763695 0.060200803 0.15100001 9.1320701e-39
-0.019183978 0.060443833 0.15100001 2.5861748e-39
-0.018697912 0.060513269 0.15100001 2.4939792e-39
-0.025637859 0.061523981 0.15100001 1.4756358e-38
-0.024328182 0.061334956 0.15100001 1.3097556e-38
-0.013513203 0.061740011 0.15100001 1.8489629e-39
-0.025502844 0.062266577 0.15100001 2.0842705e-38
0.013960389 -0.050468318 0.15200001 8.4877475e-39
0.014449675 -0.050468318 0.15200001 8.4877475e-39
0.013960389 -0.049856707 0.15200001 8.4888265e-39
0.014400746 -0.049734388 0.15200001 8.4888265e-39
0.013764675 -0.04860903 0.15200001 8.857609e-39
0.014205032 -0.048755817 0.15200001 8.857609e-39
0.01563794 -0.040368069 0.15200002 8.5824767e-39
0.01624372 -0.04027487 0.15200001 8.12186e-39
0.01564231 -0.039489973 0.15200001 8.8587048e-39
0.016437396 -0.039428812 0.15200001 8.3980882e-39
0.017140746 -0.039214753 0.15200001 8.1218614e-39
0.015917532 -0.038970109 0.15200001 8.8587048e-39
0.016529137 -0.038603142 0.15200001 8.6750338e-39
0.017140746 -0.038562369 0.15200001 8.490644e-39
0.016455745 -0.037795823 0.15200001 9.1356532e-39
0.027415743 -0.026411781 0.15200001 7.1059032e-39
0.034314666 -0.020524045 0.15200001 7.3803251e-39
0.035244308 -0.020744225 0.15200001 8.2100886e-39
0.03793538 -0.020132618 0.15200001 8.3022842e-39
0.035978239 -0.019154048 0.15200001 6.4594408e-39
0.036712166 -0.019317143 0.15200001 6.9200588e-39
0.037690736 -0.019806428 0.15200001 7.8413033e-39
0.042338949 -0.019154048 0.15200001 6.5516392e-39
0.043562163 -0.019154048 0.15200001 6.6431146e-39
0.035733595 -0.018634181 0.15200001 5.9977382e-39
0.036467522 -0.018664762 0.15200001 5.9980969e-39
0.03891395 -0.018664762 0.15200001 6.1824924e-39
0.039158594 -0.018420119 0.15200001 5.9980983e-39
0.042653494 -0.01862981 0.15200002 5.9984613e-39
0.043531585 -0.018695341 0.15200001 6.2743279e-39
0.044479571 -0.018725922 0.15200001 6.2743293e-39
0.045519304 -0.018603601 0.15200001 6.0906597e-39
0.046008591 -0.018420119 0.15200001 6.1828567e-39
0.034755025 -0.017196905 0.15200001 5.4431211e-39
0.035663698 -0.017528921 0.15199998 5.5353181e-39
0.036549073 -0.017482324 0.15200001 5.4438427e-39
0.039729428 -0.017441547 0.15200001 5.4452847e-39
0.040381808 -0.017343691 0.15200001 5.5378404e-39
0.041115735 -0.01768619 0.15200001 5.3534492e-39
0.042338949 -0.017930834 0.15200001 5.7222317e-39
0.043317519 -0.01756387 0.15200001 5.8144273e-39
0.046130911 -0.017930834 0.15200001 6.0906611e-39
0.034632705 -0.016462978 0.15200001 5.5353181e-39
0.035611276 -0.016462978 0.152 5.535681e-39
0.036642272 -0.016428027 0.15200002 5.6285983e-39
0.039892521 -0.016462976 0.15200001 5.7240422e-39
0.040381808 -0.016585298 0.15200001 5.8158763e-39
0.035611276 -0.015484407 0.152 6.2757782e-39
0.036712166 -0.015484406 0.15200001 6.6452852e-39
0.037507251 -0.015484407 0.15200001 6.5545315e-39
0.034755025 -0.014261193 0.15200001 7.7523587e-39
0.035576325 -0.014505836 0.15199998 7.4764934e-39
0.036663238 -0.014799407 0.15200001 7.5690492e-39
0.040871095 -0.01401655 0.15200001 8.4949712e-39
0.041197281 -0.014261194 0.15200001 8.6793638e-39
0.030106813 -0.01303798 0.15200001 6.9228628e-39
0.028802052 -0.012222505 0.15200001 6.1856537e-39
0.02912824 -0.012304052 0.15200001 6.1856509e-39
0.03084074 -0.011570124 0.15200001 1.3645585e-38
0.033531811 -0.011080838 0.15200001 1.0787914e-38
0.030596098 -0.0086344108 0.15200001 1.2816881e-38
0.04252243 -0.0082062865 0.15200001 6.4593679e-39
0.042583596 -0.0076558399 0.15200001 6.3675311e-39
0.043439843 -0.0075335186 0.15200001 6.7366737e-39
0.045763947 -0.003007628 0.15200001 1.622668e-38
0.048944306 -0.003007628 0.15200001 1.8992549e-38
0.049311265 -0.003007628 0.15200001 1.8900354e-38
0.041115735 -7.1915318e-05 0.15200001 5.7175346e-39
0.065253824 -0.00056120078 0.15200001 9.0420129e-39
0.051635373 0.0028637974 0.15200001 8.7668749e-39
0.052369304 0.0028637974 0.15200001 8.8587076e-39
0.055794306 0.0028637974 0.15200001 9.9614356e-39
0.056381453 0.0025702263 0.15200001 1.1157787e-38
0.05701752 0.0025376072 0.15200001 1.2447064e-38
0.063622877 0.0028637974 0.15200001 1.8899607e-38
0.064112157 0.0028637974 0.15200001 1.8807411e-38
0.051880017 0.0031084402 0.15200001 8.7668749e-39
0.052613944 0.0033530826 0.15200001 8.858709e-39
0.05616127 0.0031084402 0.15200001 9.6848515e-39
0.059708588 0.0035977254 0.15200001 1.2817289e-38
0.060442518 0.003842368 0.15200001 1.3277175e-38
0.064356804 0.0031084402 0.15200001 1.8807764e-38
0.058485374 0.0042093322 0.15200001 1.0053277e-38
0.059341624 0.0040870109 0.15200001 1.0882663e-38
0.060652208 0.0043316535 0.15200002 1.1803874e-38
0.061584178 0.0044539748 0.15200001 1.2908764e-38
0.062497515 0.0044784388 0.15200001 1.4567893e-38
0.063459776 0.0045762961 0.15200001 1.5950082e-38
0.064112157 0.0045762961 0.15200001 1.6964223e-38
-0.023225309 0.0054325457 0.15200001 8.7620937e-39
-0.022784954 0.0054570101 0.15200001 8.8539306e-39
0.058730017 0.0053102244 0.15200001 1.0055097e-38
0.060722109 0.0053451732 0.15200002 9.778136e-39
0.06158419 0.0053102244 0.15200001 1.0329855e-38
0.062562749 0.0053102244 0.15200001 1.1526934e-38
0.063459776 0.0053102244 0.15200001 1.3093146e-38
0.06423448 0.0053102244 0.15200001 1.4567529e-38
-0.023633048 0.0061257002 0.15200001 8.8542893e-39
-0.022736026 0.0060441527 0.15200001 8.8542879e-39
0.056038946 0.006166474 0.15200001 9.965065e-39
0.059800334 0.006441697 0.15200001 9.226051e-39
0.060687158 0.006411117 0.152 9.2253321e-39
0.061584175 0.006411117 0.152 9.4093577e-39
0.062562756 0.0064111166 0.152 9.6852187e-39
0.063459776 0.006411117 0.152 1.0237304e-38
0.064334564 0.0064222366 0.152 1.0789384e-38
0.059953231 0.0073896875 0.15200001 9.5019232e-39
0.060687158 0.0075120083 0.15200001 1.0885216e-38
0.061525937 0.0074421107 0.15200002 1.1438748e-38
0.062613726 0.0074814283 0.15200001 1.1346555e-38
0.063459776 0.0075120088 0.15200001 1.0885579e-38
0.064326219 0.0074814288 0.15200001 1.0332403e-38
-0.013806563 0.0082459375 0.15200001 1.124705e-38
0.060931802 0.008001294 0.15200001 1.2730571e-38
0.062888943 0.008001294 0.15200001 1.1993369e-38
0.06337823 0.0081236158 0.15200001 1.1533112e-38
0.060809478 0.012894149 0.15200001 7.3799734e-39
0.078301437 0.012160221 0.15200001 1.6037226e-38
0.06087064 0.013322273 0.15200001 8.3948484e-39
0.061176445 0.013383436 0.15200001 8.4870454e-39
0.062888943 0.013628078 0.15200001 1.0606825e-38
0.06313359 0.013383435 0.15200001 9.2231685e-39
0.060717739 0.014606649 0.15200001 1.1898647e-38
0.061700679 0.014606648 0.15200002 1.3004997e-38
0.062533103 0.014450967 0.152 1.2359628e-38
0.063215137 0.014280458 0.15200001 1.2359267e-38
0.05989207 0.015646379 0.15200001 1.1345114e-38
0.060687158 0.015585219 0.15200001 1.2635491e-38
0.061584182 0.015585219 0.15200001 1.272805e-38
0.062155016 0.015340577 0.15200001 1.2175596e-38
0.059830915 0.01656379 0.15200001 1.0608632e-38
0.060687158 0.016563792 0.15200001 1.1069249e-38
0.061584182 0.01656379 0.15200001 1.0607912e-38
0.062155019 0.01656379 0.15200001 9.4093703e-39
0.059830908 0.017460814 0.15200001 1.1070695e-38
0.060687158 0.017460814 0.15200001 1.0701913e-38
0.061584182 0.017460814 0.15200001 9.963986e-39
0.062277339 0.017542362 0.15200001 9.6877578e-39
0.05989207 0.018276289 0.15200001 1.1254729e-38
0.060687158 0.018357836 0.15200001 1.1069615e-38
0.061584182 0.018357836 0.15200001 1.0609355e-38
0.062521979 0.018398611 0.15200001 1.0609713e-38
0.06313359 0.018765574 0.15200001 1.0977775e-38
0.065335371 0.018276289 0.15200001 1.0793384e-38
0.066069297 0.018276289 0.15200001 1.1254362e-38
0.06073609 0.019426111 0.152 1.1161091e-38
0.061584186 0.019499503 0.152 1.1069255e-38
0.062562749 0.019499503 0.152 1.0885223e-38
0.06337823 0.019499503 0.152 1.0793385e-38
0.06423448 0.019377183 0.15200001 1.0885222e-38
0.06087064 0.020478074 0.15200001 1.1069255e-38
0.061584182 0.020559622 0.15200001 1.1069255e-38
0.062562749 0.020559622 0.15200001 1.0977058e-38
0.063194752 0.020661555 0.15200001 1.0792665e-38
0.047476448 0.021701287 0.15200001 1.1714265e-38
0.060833942 0.021505576 0.15200001 1.0792665e-38
0.06158419 0.021456646 0.15200001 1.0977056e-38
0.062562749 0.021456646 0.15200001 1.088486e-38
0.063459784 0.021456644 0.15200001 1.0516078e-38
0.064356804 0.021456646 0.15200001 1.0700469e-38
0.065151893 0.021517806 0.15200001 1.0607913e-38
0.043806806 0.022435216 0.15200001 1.0422803e-38
0.044540733 0.022190573 0.15200001 1.069939e-38
0.045763947 0.022190573 0.15200001 1.1621347e-38
0.046130911 0.022190573 0.15200001 1.1621347e-38
0.047904573 0.022374054 0.15200001 1.1713905e-38
0.062766626 0.022190573 0.15200001 1.0791586e-38
0.063459776 0.022312894 0.15200001 1.0422803e-38
0.064381264 0.022484144 0.152 1.0699029e-38
0.065243632 0.022465797 0.15200001 1.0514636e-38
0.021788958 0.025860215 0.15200001 1.7725349e-38
0.025947886 0.025860215 0.15200001 1.5531719e-38
0.026274076 0.025534024 0.15200001 1.5439882e-38
0.025947886 0.026104856 0.15200001 1.5624991e-38
0.026192527 0.026104856 0.15200001 1.5625344e-38
-0.054784223 0.046777166 0.15200001 3.7839879e-39
-0.057352975 0.047755741 0.15200001 3.8765437e-39
-0.056863688 0.047755737 0.15200001 3.8765437e-39
-0.054661904 0.047633413 0.15200001 3.9687393e-39
-0.057352975 0.048367344 0.15200001 3.8765437e-39
-0.05551815 0.048489667 0.15200001 4.0609363e-39
-0.054458033 0.048530441 0.15200001 4.0609349e-39
-0.052582443 0.048856631 0.15200001 4.2453262e-39
-0.051359229 0.048367344 0.15200001 3.9680204e-39
-0.053561009 0.049835201 0.15200001 3.9694624e-39
-0.052704763 0.049468238 0.15200001 4.0612965e-39
-0.053316366 0.050079845 0.15200001 3.9694624e-39
-0.032521736 0.050569132 0.15200001 2.8624001e-39
-0.032766379 0.051792342 0.15200001 1.0239135e-38
-0.032766379 0.052159309 0.15200001 1.2912447e-38
-0.037659232 0.05350484 0.15200001 2.3050707e-38
-0.036925305 0.05436109 0.15200001 2.3050707e-38
-0.023714596 0.054972697 0.15200001 2.4014136e-39
-0.023714596 0.05546198 0.15200001 2.4014164e-39
-0.022980668 0.055828944 0.15200001 2.3099396e-39
-0.028118165 0.056807518 0.15200001 1.401916e-38
-0.027547332 0.056766745 0.15200001 1.5493207e-38
-0.026527988 0.056440551 0.15200001 1.7336755e-38
-0.022736024 0.056929838 0.15200001 2.6780033e-39
-0.028118165 0.057174481 0.15200001 1.1160741e-38
-0.022002095 0.057908408 0.15200001 2.5865279e-39
-0.021268168 0.057908408 0.15200001 2.5858076e-39
-0.020473078 0.057847247 0.15200001 2.4017751e-39
-0.019311026 0.057908405 0.15200001 2.2177426e-39
-0.018577097 0.057908408 0.15200001 2.4021339e-39
-0.022002095 0.058153052 0.15200001 3.5081283e-39
-0.021431262 0.058316145 0.15200001 3.3233755e-39
-0.02053424 0.058275372 0.15200001 2.5854503e-39
-0.019433348 0.058479235 0.152 2.3095809e-39
-0.018363036 0.058520015 0.15200001 2.3099382e-39
-0.02665031 0.059865549 0.15200001 4.1542236e-39
-0.025182452 0.059376266 0.15200001 4.3393365e-39
-0.024937809 0.059865549 0.15200001 3.971633e-39
-0.019341605 0.059315104 0.15200001 2.3099424e-39
-0.018332455 0.059457812 0.15200001 2.217744e-39
-0.026283344 0.060354833 0.15200001 4.1549424e-39
-0.025508644 0.060354836 0.15200001 3.8787171e-39
-0.024815487 0.060354833 0.15200001 4.0634685e-39
-0.018332455 0.060232509 0.15200001 2.3099424e-39
-0.01784317 0.060354836 0.15200001 2.2177454e-39
-0.026405664 0.061211083 0.15200001 5.8133848e-39
-0.025457677 0.061302826 0.15200001 7.6580134e-39
-0.024839953 0.061284475 0.15200001 7.4732634e-39
-0.014540492 0.06182269 0.15200001 1.9411585e-39
-0.013928885 0.06182269 0.15200001 1.9411585e-39
0.013313478 -0.050061591 0.15300001 8.85653e-39
0.013467385 -0.049538303 0.15300001 8.8565314e-39
0.014615096 -0.049533904 0.15300001 8.5810221e-39
0.015365579 -0.049404919 0.15300001 8.4884663e-39
0.014544738 -0.048830327 0.15300001 8.857609e-39
0.015776001 -0.038610861 0.15300001 9.319683e-39
0.016022252 -0.038487736 0.15300001 9.2274873e-39
0.0078959288 -0.037010223 0.15300001 8.2133326e-39
0.00851156 -0.037010223 0.15300001 8.121137e-39
0.0067262305 -0.036333028 0.15300001 8.1204167e-39
0.0076496764 -0.036394592 0.15300001 8.2126137e-39
0.0083884336 -0.036517717 0.15300001 8.2133326e-39
0.024887333 -0.027160134 0.15300001 6.3686941e-39
0.025297754 -0.027324302 0.15300001 6.4605296e-39
0.026446931 -0.026913881 0.15300001 6.8289548e-39
0.027226729 -0.026421376 0.15300001 7.0140663e-39
0.034737423 -0.020265069 0.15300001 7.0126202e-39
0.037569322 -0.020141944 0.15300001 8.1175314e-39
0.034737423 -0.019033808 0.15300001 6.0899352e-39
0.035558265 -0.019115893 0.15300001 6.3661634e-39
0.036707442 -0.019772565 0.15300001 7.5639975e-39
0.039416216 -0.019033808 0.15300001 6.3665249e-39
0.034983676 -0.018787557 0.15300001 5.905181e-39
0.035229929 -0.018541304 0.15300001 5.6285941e-39
0.039539345 -0.018418178 0.15300001 5.9055454e-39
0.041632488 -0.018048801 0.15300001 5.4456448e-39
0.044382304 -0.018377136 0.15300001 6.090294e-39
0.045572523 -0.018377136 0.15300001 6.1824924e-39
0.039908722 -0.017802548 0.15300001 5.5371202e-39
0.040565394 -0.017802548 0.15300001 5.4456448e-39
0.04409501 -0.017556295 0.15300001 5.8147889e-39
0.03449117 -0.016325034 0.15300001 5.719708e-39
0.040647477 -0.016448161 0.15300001 6.0009934e-39
0.034983676 -0.015463152 0.15300001 6.3676095e-39
0.03449117 -0.014108764 0.15300001 7.7530733e-39
0.029566126 -0.012385 0.15300001 6.3700422e-39
0.030304883 -0.012877504 0.15300001 7.2912824e-39
0.029812379 -0.0089374688 0.15300001 1.2632134e-38
0.030428009 -0.0089374688 0.15300001 1.3462251e-38
0.037815578 -0.0052436851 0.15300001 7.2840741e-39
0.038677461 -0.0052436851 0.15300001 6.4568414e-39
0.03759395 -0.0044720946 0.15300003 5.7174869e-39
0.038677458 -0.0045049284 0.15300001 5.4423462e-39
0.039607745 -0.0043681222 0.15300001 5.0753685e-39
0.040154975 -0.004012424 0.15300001 5.4434392e-39
0.037762813 -0.0034847409 0.15300001 3.9654364e-39
0.038677458 -0.0034378353 0.15300001 3.9665196e-39
0.039662465 -0.0034378355 0.15300001 4.4282167e-39
0.040471584 -0.0033792041 0.15300001 5.626041e-39
0.045572523 -0.0037661719 0.15300001 1.7425223e-38
0.050436005 -0.0033967935 0.15300001 1.9268057e-38
0.051236324 -0.0035199197 0.15300001 1.8898919e-38
0.038923711 -0.0027811627 0.15300001 3.4126368e-39
0.039662469 -0.0025349106 0.15300001 3.6895824e-39
0.040565394 -0.0025349103 0.15300001 5.4409435e-39
0.041139983 -0.0025349106 0.15300001 6.0859583e-39
0.045818776 -0.0027811627 0.15300001 1.4382064e-38
0.049204744 -0.0027195998 0.15300001 1.8347534e-38
0.038923711 -0.0015499017 0.15300001 2.8591099e-39
0.039662473 -0.0015499019 0.15300001 3.3204454e-39
0.040565394 -0.0015499017 0.15300001 5.1643594e-39
0.041201547 -0.0014883387 0.15300001 5.9015783e-39
0.054437604 -0.001796154 0.15300001 1.8807429e-38
0.055176362 -0.0013036495 0.15300001 1.8991823e-38
0.039785594 -0.00081114506 0.15300001 3.320444e-39
0.040688518 -0.00064697693 0.15300001 4.980324e-39
0.041417014 -0.00059567444 0.15300001 5.717543e-39
0.057392631 -7.2388444e-05 0.15300001 1.8991821e-38
0.052221332 0.0026363861 0.15300001 8.6743164e-39
0.055915117 0.0026363861 0.15300001 1.0420969e-38
0.056407623 0.0021438815 0.15300001 1.2263395e-38
0.057885136 0.002759512 0.15300001 1.2447067e-38
0.058316078 0.002821075 0.15300001 1.2723653e-38
0.059239522 0.0028826382 0.15300001 1.4198756e-38
-0.019930577 0.0038676469 0.15300001 9.9595397e-39
0.052549671 0.0032109742 0.15300001 8.8583489e-39
0.053452596 0.0033751423 0.15300001 9.0420171e-39
0.055915117 0.0031288904 0.15300001 9.7774115e-39
0.056592312 0.0033135796 0.15300001 9.4086262e-39
0.057515759 0.0034059242 0.15300001 1.0052187e-38
0.058377638 0.0034572266 0.15300001 1.0881216e-38
0.059390008 0.0033751423 0.15300001 1.2540705e-38
-0.0244452 0.0045243194 0.15300001 9.2227285e-39
-0.023467652 0.0043825377 0.15300001 8.7617392e-39
-0.022475183 0.0044422355 0.15300001 9.222353e-39
-0.021900594 0.0046064034 0.15300001 9.5907726e-39
0.057885136 0.0041138991 0.15300001 9.4086318e-39
0.058213472 0.0041959831 0.15300001 9.4086332e-39
-0.024578588 0.0053759413 0.15300001 9.0386862e-39
-0.023624361 0.0052220337 0.15300001 8.7620979e-39
-0.022393098 0.0052220337 0.15300001 9.2230704e-39
-0.021592779 0.0051604705 0.15300001 9.6836842e-39
0.05616137 0.0053451601 0.15300001 9.5959195e-39
-0.02460937 0.0061454801 0.15300001 8.8542893e-39
0.055915117 0.0064532952 0.15300001 9.8725092e-39
0.056489706 0.0066995476 0.15300001 9.6877592e-39
0.057533346 0.0066467794 0.15300001 9.6870376e-39
0.05834686 0.0066072033 0.15300001 9.5951993e-39
0.05936265 0.0066467794 0.15300001 9.3178921e-39
0.055915117 0.0075614303 0.15300001 9.7785171e-39
0.056489706 0.0075614303 0.15300001 9.5948419e-39
0.057474714 0.0075614303 0.15300001 9.5026449e-39
0.058342461 0.0075614303 0.15300001 9.6873949e-39
0.059485778 0.0075614289 0.15300001 9.6866746e-39
0.060347658 0.0078076823 0.15300001 1.0424598e-38
0.055915117 0.008464355 0.15300001 1.3098637e-38
0.056489706 0.008464355 0.15300001 1.3098995e-38
0.057427805 0.0083705457 0.15300001 1.2638017e-38
0.058377638 0.0080539342 0.15300001 1.0702267e-38
0.059313398 0.0082509359 0.15300001 1.1530589e-38
0.077831566 0.010270204 0.15300001 2.128878e-38
0.078077823 0.010270204 0.15300001 2.1012549e-38
-0.011065494 0.01199397 0.15300001 1.4101528e-38
-0.0093417289 0.012978979 0.15300001 1.3726278e-38
0.059608903 0.012978979 0.15300001 8.5781564e-39
0.060470782 0.012978979 0.15300001 7.0104762e-39
-0.0081104673 0.013225232 0.15300001 1.7006849e-38
0.058562331 0.013533047 0.15300001 1.0606466e-38
0.059485774 0.013471484 0.15300001 9.8692624e-39
0.060563125 0.013502264 0.15300001 7.7487643e-39
0.047788791 0.014948998 0.15300001 1.2548357e-38
0.048035044 0.014948998 0.15300001 1.2365764e-38
0.053945098 0.014333367 0.15300001 1.6047813e-38
0.057638884 0.014825871 0.15300001 1.4387933e-38
0.058377638 0.014579619 0.15300001 1.2543299e-38
0.059485774 0.014579618 0.15300003 1.1806094e-38
0.060488369 0.014456493 0.15300001 1.0700824e-38
0.047788788 0.015687754 0.15300001 1.1995544e-38
0.048158169 0.015687754 0.15300001 1.2180294e-38
0.057638884 0.015687754 0.15300001 1.346814e-38
0.058377642 0.015687754 0.15300001 1.2175962e-38
0.059452198 0.015665367 0.15300001 1.1990126e-38
0.034983676 0.016426511 0.15300001 1.6816359e-38
0.047727227 0.016734326 0.15300001 1.1718234e-38
0.048133545 0.016623512 0.15300001 1.1810788e-38
0.057638884 0.016672762 0.15300001 1.2269961e-38
0.058377642 0.016672764 0.15300001 1.1532035e-38
0.05936265 0.016672764 0.15300001 1.1162528e-38
0.047788791 0.017165268 0.15300001 1.1717152e-38
0.057638884 0.017575689 0.15300001 1.1993374e-38
0.058377638 0.017575689 0.15300001 1.1716788e-38
0.05936265 0.017575689 0.15300001 1.1532035e-38
0.057638884 0.018478611 0.15300001 1.1715706e-38
0.058377642 0.018478611 0.15300001 1.1715707e-38
0.059452198 0.01850846 0.15300001 1.1531317e-38
0.057885136 0.019135285 0.15300001 1.1530593e-38
0.058447994 0.019416718 0.15300001 1.1438399e-38
0.059485778 0.019463619 0.15300001 1.1254007e-38
0.060409218 0.019566227 0.15300001 1.1069615e-38
0.058562331 0.020304983 0.15300001 1.1254006e-38
0.059485774 0.020366548 0.15300001 1.09767e-38
0.060523547 0.020401726 0.15300001 1.0884863e-38
0.047050036 0.021844059 0.15300001 1.162207e-38
0.048035044 0.021597808 0.15300001 1.162207e-38
0.059506297 0.021372078 0.15300001 1.0792666e-38
0.060563125 0.021320775 0.15300001 1.0792665e-38
0.043602504 0.022582816 0.15300001 1.0423882e-38
0.021439802 0.025784096 0.15300001 1.8094135e-38
0.026857352 0.02529159 0.15300001 1.5441318e-38
-0.05551403 0.045976777 0.15300001 3.4151998e-39
-0.054898396 0.045976777 0.15300001 3.5063164e-39
-0.059207812 0.046715528 0.15300001 4.0602147e-39
-0.058592178 0.046961784 0.15300001 3.7843466e-39
-0.05551403 0.046592407 0.15300001 3.5995924e-39
-0.054722495 0.046750706 0.15300001 3.5995952e-39
-0.059084684 0.047208037 0.15300001 3.9687393e-39
-0.058469057 0.047577411 0.15300001 3.8765437e-39
-0.057607174 0.047577415 0.15300001 3.784348e-39
-0.056868415 0.047946792 0.15300001 3.6921524e-39
-0.054487981 0.047563728 0.15300001 3.8765437e-39
-0.053544007 0.047823668 0.15300001 3.9687393e-39
-0.05916677 0.048849721 0.15300001 3.4162858e-39
-0.058521826 0.048650373 0.15300001 3.5084814e-39
-0.057422481 0.048870239 0.15300001 3.6921552e-39
-0.05659138 0.048562422 0.15300001 3.7843494e-39
-0.054405894 0.048603464 0.15300001 4.0609349e-39
-0.053371631 0.048833303 0.15300001 4.0609349e-39
-0.051450863 0.048685551 0.15300001 3.6921524e-39
-0.06019282 0.049916811 0.15300001 3.0467802e-39
-0.059300158 0.049547434 0.15300001 3.3233685e-39
-0.058428008 0.049506392 0.15300001 3.2318945e-39
-0.057525091 0.049506385 0.15300001 3.4159285e-39
-0.056745287 0.049506392 0.15300001 3.5077639e-39
-0.054159641 0.049506392 0.15300001 4.1534907e-39
-0.053544011 0.049506392 0.15300001 4.1531306e-39
-0.050958361 0.049178053 0.15300001 3.8765437e-39
-0.06019282 0.050163064 0.15300001 2.9538657e-39
-0.05933094 0.050163064 0.15300001 3.0460641e-39
-0.058428008 0.050409317 0.15300001 3.046783e-39
-0.057576392 0.050378535 0.15300001 3.2311743e-39
-0.056745291 0.050286189 0.15300001 3.2318945e-39
-0.0582228 0.051148072 0.15300001 2.8623917e-39
-0.057730295 0.051148072 0.15300001 2.9545874e-39
-0.032981947 0.051640578 0.15300001 4.1534977e-39
-0.031504434 0.051230159 0.15300001 2.6783662e-39
-0.057730295 0.05213308 0.15300001 2.585086e-39
-0.023501234 0.055580612 0.15300001 2.4936092e-39
-0.027564395 0.056811873 0.15300001 1.7152008e-38
-0.023685921 0.056504056 0.15300001 2.309941e-39
-0.023131855 0.057058126 0.15300001 2.4943323e-39
-0.022639351 0.057550628 0.15300001 2.5858076e-39
-0.021161838 0.057427503 0.15300001 2.4943323e-39
-0.020505164 0.057427507 0.15300001 2.3099382e-39
-0.019684324 0.057489067 0.15300001 2.4021339e-39
-0.018945567 0.057550628 0.15300001 2.5865251e-39
-0.022393098 0.058043133 0.15300001 2.7701989e-39
-0.021490173 0.058207303 0.15300001 2.5858076e-39
-0.020423079 0.058125217 0.15300001 2.2177454e-39
-0.019602241 0.058043133 0.15300001 2.2177426e-39
-0.018699316 0.058125217 0.15300001 2.4943295e-39
-0.017878473 0.058453556 0.15300001 2.4021339e-39
-0.027195018 0.0597669 0.15300001 4.0620279e-39
-0.025840631 0.0597669 0.15300001 4.1542236e-39
-0.021900594 0.059028141 0.15300001 8.4877713e-39
-0.017714305 0.059397522 0.15300001 2.2177426e-39
-0.026333135 0.060259406 0.15300001 4.0620279e-39
-0.025717504 0.060259406 0.15300001 3.7861599e-39
-0.017714307 0.06038253 0.15300001 2.1255498e-39
-0.01697555 0.06038253 0.15300001 2.309941e-39
-0.014266774 0.061983168 0.15300001 1.9411585e-39
-0.013528018 0.061983168 0.15300001 1.8489629e-39
-0.013281765 0.062672675 0.15300001 1.9411585e-39
0.012594944 -0.050202891 0.15400001 8.9483669e-39
0.015135526 -0.050140925 0.15400001 8.3966308e-39
0.011913325 -0.049893066 0.15400001 8.9483711e-39
0.012594944 -0.049769137 0.15400001 8.8565356e-39
0.0043818103 -0.039240316 0.155 1.0699371e-38
0.0055391546 -0.039437126 0.15459999 1.0423505e-38
0.0065572378 -0.0396928 0.15433335 1.0146917e-38
0.0076403669 -0.03968798 0.15479998 9.6862991e-39
0.0082486151 -0.039489783 0.155 9.1342071e-39
0.0033304673 -0.038777012 0.15499999 1.0331668e-38
0.0043818108 -0.038741376 0.15499999 9.9636076e-39
0.0055926004 -0.038715802 0.1547 9.5948251e-39
0.0066256062 -0.038615357 0.15400003 9.3182396e-39
0.0075621069 -0.038669366 0.15442859 8.8579817e-39
0.0082486151 -0.038741369 0.155 8.3973651e-39
0.0033839254 -0.037743486 0.15499999 9.1334896e-39
0.0043818108 -0.037743483 0.15499999 8.7654274e-39
0.0055044312 -0.037743486 0.15499999 8.5813949e-39
0.0066256067 -0.037499979 0.15400003 8.2133326e-39
0.0074827955 -0.037530966 0.15400003 8.2133326e-39
0.0083193295 -0.037623912 0.15400001 8.121137e-39
0.0035086612 -0.036870338 0.155 8.2118879e-39
0.0043818108 -0.036674328 0.15499999 8.119695e-39
0.0055746776 -0.036791041 0.15466666 8.2126095e-39
0.0064603658 -0.036756393 0.15400001 8.0292987e-39
0.025669649 -0.027089788 0.15400001 6.5523665e-39
0.026289305 -0.026841925 0.15400001 6.6449223e-39
0.034633983 -0.020149659 0.15400001 6.5516406e-39
0.035698846 -0.020277448 0.15450001 7.4725208e-39
0.03743675 -0.020405237 0.155 8.0249757e-39
0.034783736 -0.019655325 0.15466668 6.2746894e-39
0.035460189 -0.019653935 0.15400001 6.643116e-39
0.036327705 -0.019901797 0.15400001 7.4721606e-39
0.040180933 -0.019157881 0.155 6.1828539e-39
0.042661913 -0.019095678 0.15450001 6.0910184e-39
0.039921701 -0.01866249 0.15400001 5.8144273e-39
0.040423915 -0.01847522 0.15450001 5.6300361e-39
0.041303553 -0.018284732 0.155 5.5378404e-39
0.042426173 -0.018783674 0.155 5.906623e-39
0.045374662 -0.018166766 0.15400001 6.1824896e-39
0.044631075 -0.017671043 0.15400001 5.8147889e-39
0.04530656 -0.017874531 0.15433334 5.9984613e-39
0.046118245 -0.017918903 0.15400001 6.4594436e-39
0.034359936 -0.016205804 0.155 5.719345e-39
0.034477659 -0.015550015 0.15459999 6.2739664e-39
0.033632312 -0.014293193 0.155 7.0137034e-39
0.034398008 -0.014448898 0.1548 7.2906504e-39
0.040547848 -0.014247086 0.15450001 8.2191088e-39
0.045653705 -0.0034751061 0.15466668 1.6040853e-38
0.050908197 -0.0030669891 0.155 1.9360253e-38
0.038517151 -0.0025927888 0.15400003 3.0434955e-39
0.039178114 -0.0023036168 0.15400001 3.0438557e-39
0.049712241 -0.0025514786 0.15400001 1.8163142e-38
0.050371379 -0.0028084291 0.15450001 1.8808155e-38
0.039178114 -0.0018078935 0.15400001 2.8591099e-39
0.055273943 -0.0014454264 0.155 1.8899625e-38
0.05552341 -0.00082174834 0.155 1.8715235e-38
0.052903965 0.00092455006 0.155 1.0051814e-38
0.053438544 0.00074635638 0.15499999 1.1894262e-38
0.054369614 0.00070626277 0.15499999 1.3553402e-38
0.05552341 0.00079981447 0.15499999 1.5119981e-38
-0.018199699 0.0018310094 0.15433334 9.683659e-39
-0.017582225 0.0019100321 0.15400001 1.0143911e-38
0.051906079 0.001922435 0.155 8.4881244e-39
0.052476298 0.0017442412 0.15499999 8.763268e-39
0.053340539 0.0014858603 0.155 9.6841229e-39
0.05440079 0.0014234924 0.155 1.1157798e-38
0.055469953 0.0015304087 0.15499999 1.2171208e-38
-0.019267684 0.0028023343 0.15400001 9.8676986e-39
-0.018325809 0.0025709968 0.15400003 9.867693e-39
-0.017458294 0.0025709968 0.15400003 1.0235392e-38
0.047704555 0.0025049003 0.15400001 7.2924721e-39
0.048330326 0.0028371625 0.155 7.4779466e-39
0.051906079 0.0025876916 0.155 8.8583517e-39
0.052405022 0.0022966417 0.155 8.6732346e-39
0.05343017 0.0029014789 0.15400001 9.0420171e-39
0.05440079 0.0029203196 0.155 9.041294e-39
0.055509318 0.002793229 0.154875 9.4089891e-39
0.056646034 0.0021719062 0.155 1.1710597e-38
-0.02410925 0.0037276845 0.15400001 9.3142151e-39
-0.023406975 0.003521133 0.15400003 9.1298224e-39
-0.022787321 0.0038929256 0.15400001 8.9461346e-39
-0.019407386 0.003509867 0.15400003 1.0143565e-38
-0.018325809 0.0034798225 0.15400003 1.0143202e-38
-0.017520258 0.0033972024 0.15400001 1.0051005e-38
0.05184371 0.0034192619 0.155 9.1356602e-39
0.052337401 0.0036646433 0.15480001 8.8587132e-39
0.053229839 0.003905565 0.15450001 8.7661561e-39
0.054431982 0.0035128137 0.15499999 8.9494613e-39
0.05550462 0.0034988765 0.15483333 9.0409353e-39
0.056433506 0.0037753144 0.15425001 9.0409367e-39
0.057148091 0.0038929256 0.15400001 8.9483781e-39
0.063964292 0.0031493406 0.15400001 1.8807411e-38
0.064580798 0.0034846964 0.1547143 1.8346434e-38
0.065128058 0.0034192619 0.155 1.8807767e-38
-0.024398422 0.0041407873 0.15400001 9.2227313e-39
-0.022291597 0.0042647179 0.15400001 9.4063841e-39
-0.021465391 0.0046365107 0.15400003 9.8673566e-39
-0.020525582 0.0045125801 0.15400003 1.0143581e-38
-0.019474987 0.0044337148 0.15400003 1.0143569e-38
-0.018573672 0.0041407873 0.15400001 1.0235403e-38
0.052903965 0.0045003039 0.155 8.5806872e-39
0.053402904 0.0045003039 0.15499999 8.5806858e-39
0.054440059 0.0045387107 0.15489998 8.7650771e-39
0.055548359 0.0044171466 0.15499999 8.7654316e-39
0.056542743 0.0043656835 0.15442859 8.9491054e-39
0.057437565 0.0042742174 0.15433335 8.8569069e-39
0.058015611 0.004388649 0.15400001 9.1334938e-39
-0.021052288 0.0051322342 0.15400001 9.8677126e-39
-0.020680496 0.0051322342 0.15400001 9.8680699e-39
0.052903965 0.0051655602 0.155 8.8565538e-39
0.053402904 0.0054150317 0.15499999 9.0420269e-39
0.054472182 0.0053861472 0.15481816 9.3186124e-39
0.055273943 0.0056645027 0.155 9.8710715e-39
0.056339376 0.0056462302 0.15450001 9.5959223e-39
0.051157668 0.0065376516 0.155 9.411894e-39
0.053486064 0.0064960737 0.15499999 9.8728693e-39
0.05440079 0.0065376512 0.15499999 9.9647062e-39
0.05552341 0.0065376516 0.15499999 9.8721505e-39
0.053527642 0.007660273 0.15499999 1.0147661e-38
0.054400798 0.007660273 0.15499999 1.0055823e-38
0.05548596 0.0076436647 0.15466666 9.7788759e-39
0.05900706 0.0076108514 0.15400001 9.5948405e-39
0.05355259 0.0086082621 0.155 1.1625314e-38
0.054440059 0.0086773578 0.15489998 1.1902621e-38
0.055431377 0.0085947076 0.15427274 1.227104e-38
0.064707875 0.0083544366 0.15400001 1.1257609e-38
-0.013205912 0.0099055134 0.155 1.3088802e-38
-0.013205912 0.010154984 0.155 1.3273193e-38
-0.012624988 0.010833054 0.15400001 1.3918932e-38
0.053402908 0.010903398 0.155 1.2639464e-38
0.077767931 0.010737084 0.155 2.1289866e-38
0.078429401 0.01087995 0.15466668 2.1565385e-38
0.053402908 0.011485497 0.15499999 1.1530233e-38
0.05440079 0.011651811 0.15499999 1.0422803e-38
0.055232365 0.011734969 0.155 9.6845194e-39
0.077601619 0.011277605 0.155 2.1012215e-38
0.078659028 0.011259615 0.15475 2.1288808e-38
-0.011709084 0.012524961 0.155 1.5115317e-38
0.052903965 0.012400225 0.155 1.0607558e-38
0.053402904 0.012400227 0.15499999 1.0331328e-38
0.054400798 0.012400226 0.15499999 9.7774297e-39
0.055327397 0.012435864 0.15499999 9.4082843e-39
0.056652375 0.012568085 0.15400001 8.6710766e-39
0.057024162 0.012568085 0.15400001 8.6707164e-39
0.080345802 0.012524961 0.155 1.5577302e-38
-0.0085446415 0.01365656 0.15416668 1.5738042e-38
0.051906079 0.013772318 0.155 1.2917856e-38
0.052554704 0.01357274 0.15499999 1.2916771e-38
0.053402912 0.013522848 0.15499999 1.3561056e-38
0.054434557 0.013526694 0.15464287 1.3928395e-38
0.055436306 0.013418487 0.15421429 1.2729129e-38
0.056445822 0.013435603 0.15400003 1.2359265e-38
0.057317089 0.013469401 0.15400003 1.2266346e-38
0.058232494 0.013528551 0.15400003 1.1067443e-38
0.080345802 0.013148638 0.155 1.5300718e-38
-0.0094014751 0.014707835 0.155 1.5389395e-38
-0.0086038886 0.014515604 0.15450001 1.4833699e-38
0.047759175 0.014846889 0.15450001 1.1903707e-38
0.048349001 0.014798841 0.15400001 1.2457601e-38
0.049411368 0.014894938 0.155 1.2642354e-38
0.05180629 0.014595573 0.155 1.3471751e-38
0.052488178 0.014645468 0.15499999 1.4116395e-38
0.053639833 0.014512234 0.15425001 1.5680474e-38
0.054616366 0.014586389 0.15400003 1.567903e-38
0.055454373 0.01455098 0.15400003 1.5678309e-38
0.056445822 0.014550979 0.15400003 1.5678667e-38
0.057303004 0.014519999 0.15400003 1.5493916e-38
0.058015611 0.014427049 0.15400001 1.4202817e-38
-0.0096301576 0.015560195 0.15499999 1.6128041e-38
-0.006470188 0.01539388 0.155 1.5006236e-38
-0.0057217744 0.015892822 0.155 1.5081538e-38
0.047491159 0.015476895 0.15416668 1.1810792e-38
0.048782758 0.01535653 0.15400001 1.2457599e-38
0.049498476 0.015649924 0.1547143 1.2365045e-38
0.052737653 0.015477036 0.155 1.3469948e-38
0.053402904 0.015674535 0.15499999 1.3377392e-38
0.054446992 0.015505694 0.15425001 1.3837643e-38
0.05545437 0.015459808 0.15400003 1.4205704e-38
0.056445822 0.015459808 0.15400003 1.4574126e-38
0.057148095 0.015459807 0.15400003 1.4666322e-38
0.047510505 0.016504666 0.15450001 1.1533844e-38
0.048844725 0.016451253 0.15400001 1.2087378e-38
0.049589999 0.016534576 0.15477778 1.2087378e-38
0.050159782 0.016391765 0.155 1.2455081e-38
0.052903965 0.016558079 0.155 1.2638748e-38
0.053475462 0.016576212 0.15481816 1.2730944e-38
0.054506131 0.016420357 0.15410003 1.2823138e-38
0.055454373 0.016451253 0.15400003 1.2730939e-38
0.056445822 0.016451253 0.15400003 1.2638744e-38
0.057148095 0.016451253 0.15400003 1.2546548e-38
0.047525421 0.017423969 0.15475 1.1440564e-38
0.048568781 0.017579112 0.15483333 1.1624953e-38
0.049411368 0.017140178 0.155 1.1994818e-38
0.052779231 0.017576752 0.155 1.254655e-38
0.053475462 0.017414758 0.15481818 1.2546191e-38
0.054506123 0.017412933 0.15410003 1.2546191e-38
0.05545437 0.01736008 0.15400003 1.2269963e-38
0.056445822 0.01736008 0.15400003 1.1993374e-38
0.057148088 0.017360078 0.15400003 1.1993374e-38
0.051906079 0.018886477 0.155 1.1714987e-38
0.05252976 0.018512269 0.15499999 1.2176327e-38
0.053402908 0.018470695 0.15499999 1.208449e-38
0.054464176 0.018360049 0.15441668 1.2085209e-38
0.055454373 0.018268906 0.15400003 1.1993014e-38
0.056445822 0.018268906 0.15400003 1.1808623e-38
0.057148088 0.018268906 0.15400003 1.1900819e-38
0.051906079 0.019135948 0.155 1.1622788e-38
0.052488182 0.01938542 0.15499999 1.1438397e-38
0.053402904 0.01938542 0.15499999 1.1530593e-38
0.054490224 0.019343866 0.15466668 1.1622788e-38
0.05545437 0.019260352 0.15400003 1.1715344e-38
0.056445822 0.019260352 0.15400003 1.1530593e-38
0.057303004 0.019291334 0.15400003 1.1530593e-38
0.05813954 0.019508215 0.15400001 1.1438397e-38
0.065876469 0.019634891 0.155 1.0885579e-38
0.067123823 0.019135948 0.155 1.0977775e-38
0.051856183 0.020532986 0.155 1.1438037e-38
0.052488178 0.020508038 0.15499999 1.1345841e-38
0.053402904 0.020508038 0.15499999 1.1437678e-38
0.054498948 0.020474963 0.15474999 1.1529874e-38
0.055454373 0.02037573 0.15400003 1.1346202e-38
0.056445818 0.02037573 0.15400003 1.1345843e-38
0.057354644 0.020375729 0.15400003 1.116181e-38
0.058213901 0.020425303 0.15400003 1.1254006e-38
0.046737902 0.021986831 0.15400001 1.1437317e-38
0.047624763 0.021786025 0.15433334 1.162207e-38
0.048596863 0.021986831 0.15400001 1.1714265e-38
0.052612919 0.021547504 0.15499999 1.1529874e-38
0.053402904 0.02163066 0.15499999 1.1529874e-38
0.054400794 0.021630662 0.15499999 1.162207e-38
0.055469543 0.021611881 0.15435717 1.1529874e-38
0.056445822 0.021615038 0.15400003 1.1345483e-38
0.057354644 0.021615038 0.15400003 1.1069255e-38
0.058263477 0.021615038 0.15400003 1.1161091e-38
0.059089679 0.021697657 0.15400003 1.1068896e-38
0.046417713 0.022379074 0.155 1.1529151e-38
0.053402912 0.022379076 0.155 1.1529874e-38
0.054483954 0.022545388 0.15499999 1.162207e-38
0.055448677 0.02266559 0.15463637 1.1437678e-38
0.056445822 0.022482553 0.15400001 1.1161091e-38
0.05745792 0.02254452 0.15400001 1.0884505e-38
0.058263473 0.022730416 0.15400003 1.0884505e-38
0.059106201 0.022680843 0.15400001 1.0792309e-38
0.04367353 0.023127487 0.155 1.0331331e-38
0.055398677 0.023127487 0.155 1.1529151e-38
0.020836346 0.025952619 0.15400001 1.9106119e-38
0.026785027 0.025952619 0.15400001 1.5900501e-38
0.021595325 0.026495347 0.155 1.9292672e-38
0.020472705 0.027119026 0.155 2.1224445e-38
-0.060214441 0.043798663 0.15400001 3.5077583e-39
-0.061104391 0.044582009 0.155 3.599954e-39
-0.060522288 0.044706747 0.15499999 3.4155627e-39
-0.059857033 0.044831481 0.155 3.2311715e-39
-0.060705233 0.045330424 0.155 3.5073996e-39
-0.060355976 0.046453044 0.155 3.9680176e-39
-0.059480757 0.04656693 0.15480001 3.6917895e-39
-0.058859147 0.046577778 0.155 3.5077597e-39
-0.05711285 0.046827249 0.155 3.599954e-39
-0.060276408 0.047268726 0.15400001 3.9680204e-39
-0.05951589 0.047122102 0.15433334 3.692151e-39
-0.058780022 0.047142673 0.15440002 3.6921524e-39
-0.057759948 0.047478832 0.1542 3.6921524e-39
-0.056613907 0.047575664 0.155 3.7836264e-39
-0.05426576 0.04776445 0.15400001 3.8765437e-39
-0.059817862 0.048309747 0.15400001 3.6003169e-39
-0.057412218 0.048224289 0.155 3.8765437e-39
-0.056513283 0.048233662 0.15414287 3.9687393e-39
-0.054265764 0.048342794 0.15400001 4.0609349e-39
-0.053309716 0.048330989 0.15400003 3.8765437e-39
-0.05277859 0.048508033 0.15400001 4.1524117e-39
-0.060493283 0.049437515 0.15400003 3.2315344e-39
-0.059966579 0.049003758 0.15400001 3.5999596e-39
-0.05426576 0.049003758 0.15400001 4.1531306e-39
-0.053150378 0.049003758 0.15400001 4.2453262e-39
-0.05277859 0.049003758 0.15400001 4.3368029e-39
-0.051873952 0.049321961 0.155 3.6921524e-39
-0.061852802 0.050694056 0.155 2.6779977e-39
-0.056744378 0.050490927 0.15400001 3.324093e-39
-0.059222993 0.051482376 0.15400001 2.6780005e-39
-0.056496516 0.051234514 0.15400001 3.2318945e-39
-0.032443844 0.05119295 0.15425001 2.6780075e-39
-0.031585447 0.051305361 0.15442859 2.770559e-39
-0.05711285 0.054061919 0.155 2.1248267e-39
-0.028174186 0.054560859 0.155 2.6780033e-39
-0.027612876 0.05449849 0.155 2.5858076e-39
-0.045886643 0.055808216 0.155 2.3050707e-38
-0.037906889 0.055696025 0.15400001 2.3050707e-38
-0.02917207 0.055683479 0.155 1.5677587e-38
-0.02842366 0.055434007 0.15499999 9.2231755e-39
-0.027476838 0.055481136 0.15478572 5.9034126e-39
-0.026541281 0.055468027 0.15499999 2.76948e-39
-0.025679475 0.055745848 0.155 2.4932519e-39
-0.024478041 0.055627648 0.15450001 2.401415e-39
-0.023675684 0.055633605 0.15471427 2.4936092e-39
-0.028340502 0.056473475 0.15499999 1.6876134e-38
-0.027298927 0.056437638 0.15428571 1.4939665e-38
-0.026491744 0.056516092 0.15488888 7.7480441e-39
-0.025596317 0.056556635 0.15499999 3.0460683e-39
-0.024726707 0.056498922 0.15450001 2.5854489e-39
-0.023283044 0.056191746 0.15400001 2.5858048e-39
-0.021548012 0.056687471 0.15400001 2.5865251e-39
-0.028610745 0.057280861 0.15440002 1.5677961e-38
-0.027550507 0.057055574 0.155 1.6967973e-38
