# .PCD v0.7 - Point Cloud Data file format
VERSION 0.7
FIELDS x y z rgb
SIZE 4 4 4 4
TYPE F F F F
COUNT 1 1 1 1
WIDTH 999
HEIGHT 1
VIEWPOINT 0 0 0 1 0 0 0
POINTS 999
DATA ascii
0.043390319 -0.042653382 0.14 8.1150063e-39
0.044516962 -0.042653386 0.14 7.5618325e-39
0.045623776 -0.042564861 0.13950001 7.6547484e-39
0.046659891 -0.042460572 0.13900003 7.8398627e-39
0.047666635 -0.042460579 0.13900003 7.3803293e-39
0.048305832 -0.042412639 0.13900001 7.1033823e-39
-0.026377136 -0.041611243 0.14 1.1801035e-38
-0.025571207 -0.041565653 0.13974999 1.1617002e-38
-0.024460377 -0.041453827 0.13927275 1.0971995e-38
-0.023532057 -0.041537736 0.13900001 1.0972713e-38
-0.02280497 -0.041677561 0.13900001 1.0696127e-38
-0.015758511 -0.041414078 0.14 6.5490525e-39
-0.014690666 -0.041827478 0.13950001 6.9174748e-39
-0.0135616 -0.04166906 0.13955556 7.1007801e-39
0.011551348 -0.041707002 0.14 6.9189826e-39
0.040416621 -0.041592531 0.13957143 8.1150035e-39
0.04147502 -0.041661941 0.14 8.2990374e-39
0.042396825 -0.041670132 0.14 7.7458636e-39
0.043390319 -0.04163941 0.14 8.2072019e-39
0.044516958 -0.041639406 0.14 7.6547512e-39
0.045580361 -0.041628875 0.13985714 7.7465867e-39
0.046609562 -0.041349992 0.13911112 7.9309822e-39
0.047666628 -0.041341979 0.13900003 7.7487531e-39
0.048459817 -0.041311476 0.13900003 7.1959409e-39
-0.027307298 -0.040644549 0.13960001 1.2538597e-38
-0.026591649 -0.040592998 0.13950001 1.226201e-38
-0.025937041 -0.040558964 0.13900001 1.2077619e-38
-0.020265087 -0.040625427 0.14 8.4826734e-39
-0.019182757 -0.040143147 0.13950001 7.469955e-39
-0.015702231 -0.040366866 0.13950001 7.0093159e-39
0.01173161 -0.040850755 0.14 7.1033739e-39
0.040582184 -0.0401861 0.13900001 8.1146462e-39
0.04147502 -0.040850755 0.14 8.4834287e-39
0.042601664 -0.040738091 0.14 7.6547498e-39
0.043390315 -0.040512763 0.14 7.9313367e-39
0.044516955 -0.040512763 0.14 8.0235351e-39
0.045530941 -0.040512767 0.14 7.8387865e-39
0.04656015 -0.040415999 0.139375 7.9313409e-39
0.047666632 -0.040335245 0.13900001 7.9331458e-39
0.048486933 -0.040335245 0.13900001 7.4721732e-39
0.049008947 -0.040335245 0.13900001 7.2881351e-39
-0.018666163 -0.03966409 0.13900001 7.74583e-39
0.0092529925 -0.039273452 0.14 6.1799729e-39
0.043502983 -0.039498784 0.14 7.7465895e-39
0.044516955 -0.03949878 0.14 8.1157308e-39
0.045530941 -0.039498784 0.14 8.2082893e-39
0.046574228 -0.039476257 0.13937502 7.7476699e-39
0.047666632 -0.039440367 0.13900001 7.6565561e-39
0.048486937 -0.039440367 0.13900001 7.6565603e-39
0.049008947 -0.039440367 0.13900001 7.4725264e-39
-0.018462457 -0.038484804 0.14 1.0326614e-38
-0.017883144 -0.03899293 0.13900001 8.7599903e-39
-0.01586967 -0.038209911 0.13900001 9.4053611e-39
0.0094578378 -0.038454074 0.14 5.9041034e-39
0.010444016 -0.038275566 0.14 6.1806917e-39
0.043653201 -0.038559914 0.14 7.6547554e-39
0.044516962 -0.038484804 0.14 7.9320612e-39
0.045530941 -0.038484801 0.14 8.2093697e-39
0.046604499 -0.038497608 0.13952382 7.748393e-39
0.047666628 -0.038489562 0.13900003 7.7487517e-39
0.048486933 -0.038489565 0.13900003 7.3806951e-39
0.049232669 -0.03835373 0.13900001 7.2884952e-39
-0.018106863 -0.037874334 0.13900001 1.0879789e-38
-0.01609339 -0.037501466 0.13900001 1.0326611e-38
-0.015898213 -0.037381142 0.13925001 1.0142579e-38
-0.012333564 -0.037448861 0.13950001 5.9018796e-39
0.0094578378 -0.037429854 0.14 5.8115477e-39
0.010538239 -0.037330348 0.13968751 6.0881374e-39
0.01137638 -0.037216745 0.13933335 6.4569185e-39
0.043728311 -0.037696153 0.14 7.5629185e-39
0.044516958 -0.037358157 0.14 7.8398655e-39
0.045530945 -0.037358154 0.14 8.1175342e-39
0.046612732 -0.037378617 0.13970003 7.9331472e-39
0.047666632 -0.037501469 0.13900001 7.8413089e-39
0.048486937 -0.037501469 0.13900001 7.288498e-39
0.049512316 -0.037501466 0.13900003 7.4728907e-39
0.050127544 -0.037203174 0.13900001 7.7494776e-39
-0.017110484 -0.03611885 0.14 1.143261e-38
-0.016431822 -0.036413543 0.13953848 1.0971627e-38
-0.015806582 -0.036467124 0.13985714 1.041881e-38
0.0088886069 -0.036420159 0.13900001 6.0866954e-39
0.0095355138 -0.036388282 0.13942857 5.9944998e-39
0.010454024 -0.03655076 0.13950001 6.1792512e-39
0.011424094 -0.036979456 0.13900001 6.4572786e-39
0.044547688 -0.03636466 0.14 8.1160965e-39
0.045530941 -0.036344178 0.14 8.1175356e-39
0.046609282 -0.036418952 0.13985714 7.9335059e-39
0.04760002 -0.036494449 0.13920002 8.0253428e-39
0.048486937 -0.036532018 0.13900003 7.4721704e-39
0.049512316 -0.036532018 0.13900003 7.473611e-39
0.050379228 -0.036420159 0.13900001 7.565808e-39
-0.017110484 -0.035668191 0.14 1.1708837e-38
-0.016498877 -0.035507243 0.14 1.1248216e-38
-0.015871175 -0.035668191 0.14 1.0418811e-38
0.0086835315 -0.035441384 0.13900001 6.1781694e-39
0.0094361715 -0.035470199 0.13966668 6.0863353e-39
0.044657793 -0.03547103 0.14 8.0249813e-39
0.045530941 -0.035442863 0.14 8.2093725e-39
0.046544921 -0.035442863 0.14 7.8409501e-39
0.047599334 -0.035495844 0.13946155 7.9335059e-39
0.048486937 -0.035487998 0.13900001 7.3806937e-39
0.049512323 -0.035487991 0.13900003 7.3817769e-39
0.050500412 -0.035487995 0.13900001 7.4739753e-39
-0.016406331 -0.034485213 0.14 1.1432608e-38
-0.015927508 -0.034485217 0.14 1.0879791e-38
0.0086648883 -0.034543402 0.13900001 6.1778093e-39
0.0095646782 -0.034548782 0.13930002 6.270365e-39
0.010439729 -0.034250081 0.13900001 6.547312e-39
0.044809889 -0.034586612 0.14 8.1171769e-39
0.045530941 -0.03448521 0.14 8.3937638e-39
0.046544921 -0.034485221 0.14 7.7483944e-39
0.047643229 -0.034521338 0.13970588 7.6569204e-39
0.048450213 -0.034485653 0.13907695 7.4725334e-39
0.049512319 -0.03451854 0.13900003 7.3817783e-39
0.050500412 -0.034518544 0.13900003 7.5661709e-39
0.051022422 -0.034071106 0.13900001 7.4739753e-39
-0.017110484 -0.03386556 0.14 1.2446762e-38
-0.016317109 -0.033623666 0.13900001 1.1893588e-38
-0.015780183 -0.033489436 0.13900001 1.1893587e-38
0.0078728013 -0.033518478 0.13950001 6.2696447e-39
0.0085648615 -0.03351574 0.13928573 6.1778093e-39
0.009573671 -0.03351314 0.13910002 6.2703636e-39
0.010476118 -0.033625804 0.13914286 6.5476708e-39
0.045530941 -0.033490017 0.14 8.3015696e-39
0.046544924 -0.03349001 0.14 7.4725306e-39
0.0475589 -0.033490017 0.14 7.5647262e-39
0.048367586 -0.033534329 0.13925003 7.4728935e-39
0.049512316 -0.033549096 0.13900003 7.4743326e-39
0.050500412 -0.033549096 0.13900001 7.6587253e-39
0.051022422 -0.033549093 0.13900001 7.474334e-39
-0.018237129 -0.032363366 0.14 1.410593e-38
-0.017659424 -0.032728788 0.13900001 1.3553112e-38
0.0077548572 -0.032692149 0.1398 6.2696447e-39
0.0083516771 -0.032513585 0.14 6.1778093e-39
0.0094598876 -0.032534115 0.13935295 6.2700049e-39
0.010529215 -0.032561 0.13900003 6.8231801e-39
0.045615442 -0.032626253 0.14 8.0253428e-39
0.046544917 -0.032513585 0.14 7.4728921e-39
0.0475589 -0.032513589 0.14 7.3806951e-39
0.048373036 -0.032520544 0.13929413 7.4732536e-39
0.049512319 -0.032561 0.13900003 7.474334e-39
0.050500408 -0.032561 0.13900003 7.4739753e-39
0.051022422 -0.032560997 0.13900001 7.289584e-39
-0.017659424 -0.031610191 0.13900001 1.4290323e-38
0.0082953451 -0.031724937 0.14 6.2700049e-39
0.0094432635 -0.031835757 0.13950001 6.3622005e-39
0.010417357 -0.031833913 0.13900001 6.9153743e-39
0.045756269 -0.031837601 0.14 8.0253442e-39
0.046575643 -0.031489365 0.14 7.6569246e-39
0.0475589 -0.031462058 0.14 7.3810566e-39
0.048454132 -0.031498834 0.13950001 7.6576463e-39
0.049512316 -0.031535622 0.13900003 7.8431166e-39
0.050500412 -0.031535618 0.13900001 7.474334e-39
0.051022422 -0.031833913 0.13900001 7.4739753e-39
0.0075446507 -0.030570954 0.13907145 6.2700049e-39
0.0082920222 -0.030491596 0.13900001 6.3622005e-39
0.046657581 -0.030485624 0.14 7.5661695e-39
0.0475589 -0.03048563 0.14 7.3817783e-39
0.048454124 -0.030516578 0.13950001 7.6583652e-39
0.049512316 -0.030547529 0.13900003 8.7643568e-39
0.050500412 -0.030547529 0.13900003 8.211183e-39
-0.017435705 -0.029372999 0.13900001 1.5211919e-38
0.046612523 -0.029471651 0.14 7.7505608e-39
0.0475589 -0.029509204 0.14 7.5661709e-39
0.048454132 -0.029552964 0.13950001 7.7505622e-39
0.049512312 -0.029596718 0.13900003 9.1324204e-39
0.050500408 -0.02959672 0.13900001 9.6863145e-39
-0.016936712 -0.028355232 0.13950001 1.5119723e-38
0.046622913 -0.028492335 0.14 7.8427564e-39
0.0475589 -0.028457671 0.14 7.9349534e-39
0.048513036 -0.028475599 0.13972223 7.8427578e-39
0.049512319 -0.028534051 0.13900003 8.7639981e-39
0.050500412 -0.028534049 0.13900003 1.0423882e-38
0.051078353 -0.028310332 0.13900001 9.5948447e-39
-0.017110484 -0.027105696 0.14 1.3736064e-38
0.046685755 -0.027528185 0.14 8.0260701e-39
0.0475589 -0.027481241 0.14 8.303736e-39
0.048516545 -0.027481245 0.14 8.0271491e-39
0.049512316 -0.027583247 0.13900003 8.2111844e-39
0.050500412 -0.027583243 0.13900001 9.4108094e-39
0.051214181 -0.027551288 0.13900001 9.2271398e-39
0.046882913 -0.026767705 0.14 7.9338716e-39
0.0475589 -0.026655041 0.14 8.487407e-39
0.048516545 -0.026655039 0.14 8.1193447e-39
0.049536172 -0.026612205 0.13918751 8.0275092e-39
0.050500412 -0.026576504 0.13900003 8.3962945e-39
0.051469859 -0.026576508 0.13900003 8.4892132e-39
0.052141018 -0.026240926 0.13900001 7.7523699e-39
0.047603969 -0.025686124 0.14 8.5792411e-39
0.048516553 -0.025641058 0.14 8.1197034e-39
0.049544137 -0.025503697 0.13925003 7.9353136e-39
0.050500408 -0.025457913 0.13900003 7.7509237e-39
0.051469859 -0.025457911 0.13900003 7.8431236e-39
0.052290168 -0.025383338 0.13900001 7.5668968e-39
0.0056073898 -0.024227453 0.13900001 6.8231815e-39
0.04767156 -0.02462708 0.14 8.0267889e-39
0.048516553 -0.02462708 0.14 7.9353164e-39
0.049555004 -0.024509674 0.13933335 7.7509251e-39
0.050500408 -0.024451174 0.13900001 7.7509251e-39
0.051469862 -0.024451172 0.13900003 7.5665367e-39
0.052364737 -0.024451172 0.13900001 7.2899498e-39
0.0056424867 -0.023591716 0.13987499 7.4681907e-39
0.0062930682 -0.023238845 0.13933335 7.8369761e-39
0.047687661 -0.023661384 0.14 7.8427578e-39
0.048516549 -0.023613101 0.14 7.8427606e-39
0.049593262 -0.02354965 0.13962501 7.7509251e-39
0.050500412 -0.023444436 0.13900003 7.6587295e-39
0.051469866 -0.023444436 0.13900003 7.5665339e-39
0.052454222 -0.023399692 0.13900003 7.1977513e-39
0.0049717445 -0.022148462 0.14 6.7309886e-39
0.0055199298 -0.022374077 0.13936365 7.6525876e-39
0.0063904077 -0.022437699 0.13900001 8.2975969e-39
0.047784228 -0.022599122 0.14 7.8427578e-39
0.048516549 -0.022486456 0.14 7.8427578e-39
0.049511749 -0.022486456 0.14 8.1200664e-39
0.050367285 -0.022430966 0.13935716 7.7520041e-39
0.051469862 -0.022437697 0.13900003 7.3825041e-39
0.052513883 -0.022437699 0.13900001 7.1059158e-39
0.0057499078 -0.021601923 0.13975 7.8376991e-39
0.0062469244 -0.021485899 0.1398 8.2064831e-39
0.048516549 -0.021359812 0.14 7.8424019e-39
0.049511746 -0.021359811 0.14 8.1193475e-39
0.05050518 -0.021417681 0.13964708 8.3966561e-39
0.051469862 -0.02148689 0.13900003 7.1988345e-39
0.052513883 -0.021486888 0.13900003 7.0144419e-39
0.0056927968 -0.020390896 0.14 7.8391425e-39
0.0062930682 -0.02039863 0.13933335 8.3001206e-39
0.048516545 -0.020345831 0.14 7.8427578e-39
0.049511749 -0.020345829 0.14 8.0271505e-39
0.050564058 -0.020386279 0.13992307 8.7647183e-39
0.051469862 -0.020498797 0.13900003 7.2906728e-39
0.052513883 -0.020498799 0.13900001 7.2910316e-39
0.053035893 -0.020312365 0.13900001 7.2913917e-39
0.048516545 -0.019444518 0.14 7.8427592e-39
0.049511749 -0.019444518 0.14 7.8424005e-39
0.050544504 -0.019444516 0.14 8.5799669e-39
0.051469859 -0.019473417 0.13900003 7.5672555e-39
0.052513879 -0.019473417 0.13900003 7.5672597e-39
0.053035893 -0.019473417 0.13900001 7.7523699e-39
0.0047464157 -0.018148875 0.14 9.1273674e-39
0.0054224022 -0.018227739 0.14 9.8645723e-39
0.048647989 -0.018561978 0.14 7.7505636e-39
0.049511749 -0.018486867 0.14 7.750565e-39
0.050544504 -0.018486869 0.14 7.8427606e-39
0.051468156 -0.018475361 0.13923079 7.6587323e-39
0.052513883 -0.018485324 0.13900001 7.5672583e-39
0.053147748 -0.018485323 0.13900001 7.8445641e-39
0.0046713059 -0.017491665 0.14 9.3121202e-39
0.0055737831 -0.017463867 0.13930002 1.032555e-38
0.048798203 -0.017491667 0.14 7.9349548e-39
0.049511749 -0.017491668 0.14 7.8427606e-39
0.050544512 -0.017491668 0.14 7.6587295e-39
0.051528037 -0.017511033 0.13920002 7.7509251e-39
0.052513883 -0.017515872 0.13900003 7.7505664e-39
0.053209893 -0.017466158 0.13900001 7.7512867e-39
0.0047054458 -0.016412819 0.14 1.0049322e-38
0.005485564 -0.016440844 0.13954546 1.0510303e-38
0.048865803 -0.016560307 0.14 7.8424019e-39
0.049511749 -0.016458908 0.14 7.7502063e-39
0.050544504 -0.01645891 0.14 7.8424019e-39
0.051541418 -0.016455797 0.13950001 7.6580106e-39
0.052513883 -0.01647185 0.13900001 8.1189888e-39
0.053334188 -0.01647185 0.13900001 7.7505664e-39
0.0048966347 -0.015689036 0.14 1.0695048e-38
0.005333846 -0.015651323 0.13966668 1.0786889e-38
0.048910871 -0.015463707 0.14 7.8420404e-39
0.049511746 -0.015463708 0.14 7.7498433e-39
0.050544504 -0.015463706 0.14 7.8424019e-39
0.051627178 -0.015485817 0.13942859 7.565815e-39
0.052513883 -0.015502398 0.13900003 8.1193489e-39
0.053453501 -0.015472572 0.13900003 7.5665339e-39
0.0045103221 -0.014578508 0.13966666 1.1431173e-38
0.0051599513 -0.014160083 0.13900001 1.1616641e-38
0.048910871 -0.014487283 0.14 7.9338744e-39
0.049511749 -0.014487284 0.14 7.8416788e-39
0.050544504 -0.014487283 0.14 7.8416816e-39
0.051515091 -0.014491955 0.13942859 7.6576505e-39
0.052513883 -0.014532947 0.13900001 7.842762e-39
0.053483333 -0.014532947 0.13900003 7.4743382e-39
-0.0069208941 -0.013041486 0.13900001 1.5299368e-38
0.048910871 -0.013510858 0.14 7.7494804e-39
0.049511749 -0.013510857 0.14 8.0260687e-39
0.050544504 -0.013510856 0.14 7.7494846e-39
0.051627178 -0.013530284 0.13942859 7.7491273e-39
0.052513883 -0.013544854 0.13900003 7.6580106e-39
0.053483333 -0.013544854 0.13900003 7.5661737e-39
-0.0073948381 -0.012528295 0.13950001 1.4470304e-38
0.0045210868 -0.012233994 0.14 1.059993e-38
0.0051970733 -0.012233994 0.14 1.0047112e-38
0.049511749 -0.012459323 0.14 8.0260687e-39
0.050544504 -0.012459323 0.14 7.933873e-39
0.051563419 -0.012472832 0.13976923 7.8413215e-39
0.052513883 -0.012519474 0.13900001 7.5658136e-39
0.053483333 -0.012519472 0.13900003 7.5665339e-39
0.054154489 -0.012146609 0.13900001 7.7509251e-39
0.049699519 -0.011482898 0.14 7.4736166e-39
0.050544512 -0.011482898 0.14 8.0264288e-39
0.051577471 -0.011526896 0.1399 7.8416788e-39
0.052444171 -0.011532477 0.13933334 7.5661709e-39
0.053483333 -0.011531383 0.13900003 7.5665311e-39
0.05419923 -0.011430708 0.13900001 7.6583666e-39
0.049812187 -0.010656692 0.14 7.4732578e-39
0.050544512 -0.010656692 0.14 8.1182671e-39
0.051539712 -0.010656692 0.14 7.8416788e-39
0.052439228 -0.010618634 0.13950001 7.7498419e-39
0.053483326 -0.010580573 0.13900003 7.6576477e-39
0.054346252 -0.010548614 0.13900001 7.4736166e-39
0.049812187 -0.0098680407 0.14 7.1970311e-39
0.050544508 -0.0095863808 0.14 7.5658122e-39
0.051539704 -0.0095863799 0.14 7.5650919e-39
0.052467916 -0.0095648058 0.13968751 7.7498419e-39
0.053483333 -0.0095179044 0.13900003 7.9342346e-39
0.054452788 -0.0095179062 0.13900003 7.3810608e-39
0.055049371 -0.0093874037 0.13900001 8.302657e-39
0.050741676 -0.0086568994 0.14 7.0129971e-39
0.051539708 -0.0086287325 0.14 7.104834e-39
0.052516133 -0.0086287335 0.14 7.5658108e-39
0.053483333 -0.0085670995 0.13900003 8.118986e-39
0.054452784 -0.0085670995 0.13900001 7.4728977e-39
0.055105299 -0.0085111689 0.13900001 8.2101012e-39
0.050882503 -0.0077837496 0.14 7.1041138e-39
0.051539704 -0.0076147527 0.14 7.1963094e-39
0.052516133 -0.0076147523 0.14 7.5650919e-39
0.053522393 -0.007573959 0.13925003 8.0264316e-39
0.054452788 -0.0075603612 0.13900003 8.026433e-39
0.055145241 -0.0076083019 0.13900001 7.7494846e-39
0.051539708 -0.0064881095 0.14 7.1963094e-39
0.052516136 -0.0064881104 0.14 7.4728963e-39
0.053570285 -0.0064589437 0.13937503 7.6576477e-39
0.054452788 -0.0064417659 0.13900003 7.7502049e-39
0.055049371 -0.0064044795 0.13900001 7.2895882e-39
0.057062842 -0.0065536257 0.13900001 7.8409586e-39
0.0098580578 -0.0052113095 0.13900001 6.9160301e-39
0.010529216 -0.00521131 0.13900001 8.3897238e-39
0.014886213 -0.0056994585 0.14 8.2989828e-39
0.015584392 -0.0054666311 0.1398 8.3915245e-39
0.016463516 -0.0052488009 0.14 8.7595896e-39
0.051647011 -0.0055063195 0.14 7.1963066e-39
0.052516136 -0.0054741292 0.14 7.4728949e-39
0.053522389 -0.0054448037 0.13925003 7.3807007e-39
0.054452784 -0.005435029 0.13900001 7.4732578e-39
0.055161223 -0.0054350286 0.13900001 7.2892281e-39
-0.0032295252 -0.0040927129 0.13900001 1.1795934e-38
-0.0024599442 -0.0041162679 0.1398 1.262571e-38
-0.0013279105 -0.0040927129 0.13900001 1.3918289e-38
0.051727489 -0.0044601494 0.14 7.2881421e-39
0.052496806 -0.0044563692 0.13987501 7.2885022e-39
0.053483333 -0.0044282917 0.13900003 7.2885022e-39
0.054452788 -0.0044282917 0.13900003 7.1966681e-39
0.055324715 -0.0044024778 0.13900003 7.3810608e-39
-0.0033654235 -0.0036714992 0.14 1.2072524e-38
-0.0013374636 -0.0035963897 0.14 1.3641702e-38
-0.00049873302 -0.0034993107 0.13957143 1.3549511e-38
8.9013425e-05 -0.0034292236 0.13933335 1.336512e-38
0.007173426 -0.0031978353 0.13900001 1.4833316e-38
0.051783815 -0.0035025026 0.14 7.3799776e-39
0.052516133 -0.0034461704 0.14 7.3799762e-39
0.053645026 -0.0034378311 0.13966666 7.3803377e-39
0.054452781 -0.003421555 0.13900001 6.8282444e-39
0.055440873 -0.0034215546 0.13900003 7.1966667e-39
0.056223895 -0.0033656252 0.13900001 7.3806993e-39
-0.0041528703 -0.0025309564 0.1392 1.1519345e-38
-0.0037318857 -0.0021643208 0.13966668 1.1702665e-38
-0.00043614829 -0.002444709 0.14 1.3179644e-38
0.00014869958 -0.0024036742 0.13960001 1.3455153e-38
0.0021397397 -0.0020792386 0.13900001 1.7320137e-38
0.0076847845 -0.0025266774 0.13900001 1.6216965e-38
0.0082920222 -0.0020792386 0.13900001 1.677014e-38
0.052546177 -0.0025148115 0.14 7.3796161e-39
0.053619545 -0.0025259333 0.13985714 7.4721704e-39
0.05440145 -0.0024330497 0.13914289 7.2877792e-39
0.055440873 -0.0024707473 0.13900003 7.2885008e-39
0.056279823 -0.0024707476 0.13900001 7.3806979e-39
-0.0032372698 -0.0015238534 0.13933334 1.2163648e-38
-0.0024232175 -0.0013792358 0.13983333 1.2621383e-38
-0.0013374637 -0.0012830135 0.14 1.3450442e-38
-0.0005970975 -0.0014504006 0.14 1.3544818e-38
0.00044150639 -0.0014487569 0.13900003 1.5292216e-38
0.0014737216 -0.0014680972 0.13941668 1.7225068e-38
0.0024234254 -0.0014168757 0.1399 1.851651e-38
0.0033747233 -0.0013202971 0.1392 2.0177454e-38
0.0043098172 -0.0012291053 0.13900001 2.1375267e-38
0.0055701039 -0.0012589345 0.13900001 2.082317e-38
0.0065022674 -0.0012962212 0.13900001 1.9903725e-38
0.0075395121 -0.0014487569 0.13900003 1.8705898e-38
0.0085560102 -0.0015224966 0.13930002 1.7692104e-38
0.0090276636 -0.001192882 0.14 1.824564e-38
0.052773654 -0.0014504006 0.14 7.2877792e-39
0.053567667 -0.0014182107 0.14 7.4721704e-39
0.054376636 -0.0014672531 0.13933335 7.4721704e-39
0.055440873 -0.0014826538 0.13900003 7.4721704e-39
0.056359727 -0.0014400405 0.13900001 7.4728907e-39
-0.0031176654 -0.00045727351 0.13900001 1.2161488e-38
-0.0025508688 -0.00049652578 0.13907695 1.2252239e-38
-0.0014957926 -0.00042583625 0.13940002 1.4274792e-38
-0.00059121492 -0.00040309509 0.13930002 1.5470833e-38
0.00040591467 -0.00045727353 0.13900003 1.6944884e-38
0.0013921389 -0.00049652584 0.13907695 1.8419635e-38
0.0024553461 -0.00045969355 0.1394375 2.0356083e-38
0.0033727114 -0.00043939814 0.13911112 2.1739726e-38
0.0043769334 -0.00058777648 0.13900003 2.2385814e-38
0.0055274898 -0.00051320338 0.13900003 2.266276e-38
0.006502267 -0.00045727348 0.13900003 2.2019187e-38
0.0075090048 -0.00045727356 0.13900003 2.0914998e-38
0.0082671791 -0.00046056323 0.14 1.9903004e-38
0.052854132 -0.00046056323 0.14 7.5643661e-39
0.053567674 -0.00046056323 0.14 7.5643661e-39
0.054404013 -0.0004589184 0.13950001 7.5643661e-39
0.055440877 -0.00045727356 0.13900003 7.5643661e-39
0.056466255 -0.00045727353 0.13900003 7.6565617e-39
-0.0023719345 0.00030710088 0.13900001 1.243519e-38
-0.0015835898 0.0003497141 0.13900001 1.4824363e-38
-0.00058217923 0.00038167401 0.13900001 1.6848357e-38
0.00051777432 0.00026981434 0.13900001 1.8323845e-38
0.0013846869 0.00049353368 0.13900001 2.0720551e-38
0.0024193889 0.00053082022 0.13900003 2.2380055e-38
0.0031464768 0.00015795467 0.13900001 2.2565884e-38
0.0057192496 0.00053082017 0.13900001 2.3398876e-38
0.0064743022 0.00049353362 0.13900001 2.339924e-38
0.0075395112 0.00050370267 0.13900003 2.2294332e-38
0.0083041796 0.00053364498 0.13983333 2.1098304e-38
0.0095416112 0.00064657751 0.13983333 2.1007553e-38
0.010305497 0.00082911266 0.13900001 2.0546941e-38
0.052966792 0.00053463905 0.14 7.6565617e-39
0.053567667 0.000534639 0.14 7.6565617e-39
0.054469217 0.00053358963 0.13966668 7.5643661e-39
0.055440873 0.00053082022 0.13900003 7.4721704e-39
0.056466255 0.00053082017 0.13900001 7.5643661e-39
0.057062846 0.00053082017 0.13900001 7.8409529e-39
-0.0052936641 0.0015773686 0.13933335 1.3088873e-38
0.0015804414 0.001052832 0.13900001 2.2745962e-38
0.0021397397 0.001052832 0.13900001 2.3114742e-38
0.0057192491 0.0011646916 0.13900001 2.3305234e-38
0.0078445841 0.0015002707 0.13900001 2.2937901e-38
0.0083066104 0.001511064 0.14 2.2568758e-38
0.009523388 0.0015110641 0.14 2.2017382e-38
0.010305497 0.0015002707 0.13900001 2.1281263e-38
0.052966792 0.0015110639 0.14 7.4721676e-39
0.053567674 0.0015110639 0.14 7.7487545e-39
0.054501817 0.0015083656 0.13975 7.7487531e-39
0.05544088 0.0015002708 0.13900003 7.1955793e-39
0.056466252 0.0015002707 0.13900003 7.5643605e-39
0.057062842 0.0015002707 0.13900001 7.933143e-39
-0.0052530332 0.0026239799 0.13925001 1.3826093e-38
0.007788654 0.0025629376 0.13900001 2.3398161e-38
0.0083516771 0.0025625983 0.14 2.3121219e-38
0.0093785245 0.0025612966 0.13991666 2.2566959e-38
0.010255101 0.0025511112 0.13933335 2.1645361e-38
0.052966792 0.0025625986 0.14 7.5640003e-39
0.053567667 0.0025625986 0.14 7.6561973e-39
0.054544091 0.0025625986 0.14 8.209011e-39
0.055440873 0.0025442943 0.13900003 7.5632786e-39
0.056466248 0.0025442943 0.13900001 7.3799594e-39
0.057152323 0.0026188674 0.13900001 8.0256861e-39
-0.0063581751 0.0036804597 0.13940001 1.4194521e-38
-0.0054719364 0.0034046425 0.139125 1.3918293e-38
0.0078869108 0.0035335084 0.13975 2.3302732e-38
0.0083516771 0.0035390237 0.14 2.3303095e-38
0.0093656573 0.0035390239 0.14 2.321018e-38
0.010192106 0.0035318988 0.13975 2.2749199e-38
0.011424094 0.0033645984 0.13900001 2.1550296e-38
0.041249692 0.0039896811 0.14 6.7342425e-39
0.052921731 0.003629155 0.14 7.9331304e-39
0.053567667 0.0035390237 0.14 7.7483804e-39
0.054544095 0.0035390237 0.14 8.2090026e-39
0.055440877 0.003513745 0.13900003 8.577055e-39
0.056466252 0.0035137448 0.13900003 7.655442e-39
0.057174701 0.0035137446 0.13900001 7.9323877e-39
-0.0066545946 0.0044544046 0.13942857 1.4286718e-38
0.0079010194 0.0045154486 0.14 2.3022195e-38
0.0083516771 0.0045154486 0.14 2.311403e-38
0.0093656583 0.0045154481 0.14 2.3392781e-38
0.010305497 0.004483195 0.13900001 2.3301668e-38
0.05176504 0.0045905579 0.14 7.7480076e-39
0.052583735 0.0045755357 0.14 7.9331065e-39
0.053567667 0.0045154486 0.14 8.3018863e-39
0.054544095 0.0045154486 0.14 8.39337e-39
0.05548355 0.0044912579 0.13925003 9.1305665e-39
0.056466255 0.004483195 0.13900001 8.2078703e-39
0.057174701 0.004483195 0.13900001 8.1163894e-39
-0.0064672604 0.0055181137 0.13925003 1.4286718e-38
-0.0053828242 0.005639079 0.13900001 1.4102327e-38
-0.0047582742 0.0058255107 0.13900001 1.3917936e-38
0.0076208645 0.0050797798 0.13900001 2.2653066e-38
0.0083516762 0.0053416537 0.14 2.2923168e-38
0.0093785245 0.0053386078 0.13991667 2.3386665e-38
0.010305497 0.0054712892 0.13900001 2.3481746e-38
0.012182267 0.0055669826 0.14 2.3022927e-38
0.052580517 0.0052128951 0.14 8.1160432e-39
0.053567667 0.0053416542 0.14 8.8543089e-39
0.054544095 0.0053416532 0.14 8.9457913e-39
0.055501118 0.0054453625 0.13920002 9.1305371e-39
0.056466252 0.0054712892 0.13900003 8.9457647e-39
0.057361137 0.0055645057 0.13900003 9.0383022e-39
-0.0064715673 0.0064706062 0.13930771 1.4194523e-38
-0.0054294327 0.0064966693 0.13900001 1.4102327e-38
-0.0049074204 0.0064966693 0.13900001 1.4010132e-38
0.0076208645 0.0063102362 0.13900001 2.2736274e-38
0.0083516771 0.0064119655 0.14 2.2824866e-38
0.0093849581 0.0064059896 0.13987501 2.2455357e-38
0.010305497 0.0064966693 0.13900001 2.3196162e-38
0.012407596 0.0066936268 0.14 2.3017538e-38
0.053614613 0.0062148026 0.14 9.2226949e-39
0.054544095 0.0062429686 0.14 9.4070861e-39
0.055423893 0.0064598205 0.13907695 9.2219746e-39
0.056466255 0.0064966688 0.13900001 9.406705e-39
0.057454348 0.0064966683 0.13900003 9.5910892e-39
0.058181439 0.006869535 0.13900001 9.9602235e-39
-0.0063939262 0.0074617337 0.13920002 1.4010132e-38
-0.0054294323 0.0074847639 0.13900003 1.4010132e-38
-0.0047156615 0.0074128537 0.13900001 1.4010132e-38
0.0083516771 0.0073696142 0.14 2.281983e-38
0.0094751706 0.0073928977 0.13946155 2.0794042e-38
0.010473287 0.0078203427 0.13900001 2.0886955e-38
0.01254269 0.0076152659 0.13900001 2.2089468e-38
0.055571381 0.0074847639 0.13900003 9.4059735e-39
0.056466252 0.0074847639 0.13900003 9.4063308e-39
0.057454351 0.0074847643 0.13900003 9.6832751e-39
0.058226179 0.007585437 0.13900001 9.9602193e-39
-0.0063957851 0.0083588585 0.139125 1.4010488e-38
-0.0053548589 0.0082118511 0.13900001 1.4010488e-38
0.0083311917 0.0083528655 0.14 2.3182135e-38
0.0094032129 0.0083460389 0.14 2.0791162e-38
0.010520477 0.0083991624 0.13922223 2.0146511e-38
0.011647813 0.0084728571 0.13900001 2.1433655e-38
0.012254996 0.008439377 0.1398 2.2818034e-38
0.029545363 0.0086592892 0.13900001 4.8856369e-39
0.055437025 0.0084103644 0.13915387 9.4981579e-39
0.056466248 0.0084355697 0.13900001 9.4981579e-39
0.057454348 0.0084355697 0.13900003 9.6836282e-39
0.058341239 0.0084675299 0.13900001 9.8683782e-39
-0.0062788348 0.0094241509 0.13918184 1.3733901e-38
-0.0054294327 0.0095541673 0.13900001 1.3733543e-38
-0.0047284449 0.0095989108 0.13900001 1.3733905e-38
0.0082872966 0.0093975728 0.14 2.1795604e-38
0.0094783213 0.0094539048 0.14 2.1613728e-38
0.010454644 0.0094795944 0.13900001 1.9219164e-38
0.011647813 0.009442308 0.13900001 1.9680859e-38
0.012182267 0.009172244 0.14 2.087904e-38
0.054994751 0.0095102377 0.14 9.3141282e-39
0.055529721 0.0094136614 0.13928573 9.4059637e-39
0.056466252 0.0094423071 0.13900003 9.4981579e-39
0.057454348 0.009442308 0.13900003 9.6829093e-39
0.058405165 0.009442308 0.13900003 9.7754665e-39
-0.0063704029 0.010407525 0.13944444 1.2258031e-38
-0.0054294327 0.010449044 0.13900001 1.2350596e-38
-0.0045345551 0.010449045 0.13900001 1.2627909e-38
0.0082671782 0.010327054 0.14 1.9397805e-38
0.0094783222 0.010360342 0.14 2.0870057e-38
0.010558842 0.01043403 0.13910002 1.9124812e-38
0.011638459 0.010287133 0.13933334 1.8758185e-38
0.012182267 0.010186223 0.14 1.9311359e-38
0.054819498 0.010449108 0.14 8.8535158e-39
0.055527456 0.010433106 0.13964285 8.94571e-39
0.056466255 0.010449044 0.13900001 9.1297398e-39
0.057454348 0.010449044 0.13900003 9.5910724e-39
0.058405161 0.010449044 0.13900001 9.6832695e-39
0.059076317 0.010672764 0.13900001 1.0052051e-38
-0.0062838597 0.011349199 0.13975 1.3085587e-38
-0.0054562171 0.011514097 0.13938463 1.2624976e-38
-0.0043876548 0.011439065 0.1390667 1.179668e-38
-0.0037888235 0.0116795 0.13900001 1.124423e-38
-0.00020931361 0.011791361 0.13900001 1.6734225e-38
0.0083258804 0.011550357 0.13957143 1.8102037e-38
0.0097036501 0.011312868 0.14 1.9208379e-38
0.010513967 0.011466698 0.13940001 1.9397446e-38
0.01173161 0.011200204 0.14 1.8664194e-38
0.053792998 0.011801082 0.14 8.5772918e-39
0.054574139 0.011560729 0.14 8.5772918e-39
0.055622432 0.011430841 0.13983333 8.7613216e-39
0.056489136 0.01143284 0.13909093 9.0375455e-39
0.057454351 0.011455781 0.13900003 9.5910752e-39
0.058405161 0.011455781 0.13900003 9.9598536e-39
-0.0051680543 0.012326848 0.14 1.4927674e-38
-0.0043685781 0.012490388 0.139625 1.419083e-38
-0.0036396773 0.012648951 0.13900001 1.3730219e-38
-0.00020931361 0.012238799 0.13900001 1.6094972e-38
0.0083479518 0.012406589 0.13900001 1.8007684e-38
0.010879082 0.012522827 0.13966668 1.8380417e-38
0.053868107 0.012439512 0.14 8.5772918e-39
0.054453962 0.012416979 0.14 8.5772918e-39
0.055896066 0.012326848 0.14 8.7616803e-39
0.056839123 0.012238799 0.13900001 8.8538745e-39
0.057606161 0.012366639 0.13900001 9.5910738e-39
0.058405157 0.012574377 0.13900003 1.0236436e-38
0.05907632 0.012686238 0.13900001 1.0328628e-38
-0.0065844068 0.01367882 0.14 1.4744401e-38
-0.005768931 0.01382904 0.14 1.5295767e-38
-0.0042667389 0.013002834 0.14 1.5665592e-38
-0.0035155865 0.013550013 0.13925001 1.6217688e-38
0.0015804414 0.013804834 0.13900001 1.6541552e-38
0.0022236344 0.013609079 0.13900001 1.6815262e-38
0.0078445841 0.013581115 0.13900001 1.7087529e-38
0.0081263483 0.013509824 0.14 1.7455591e-38
0.010830294 0.013002834 0.14 1.7734332e-38
0.011553459 0.01349657 0.13966668 1.709076e-38
-0.0063698082 0.014429917 0.14 1.2441344e-38
-0.0057313764 0.014580137 0.14 1.3361852e-38
-0.0034161485 0.0145541 0.13975 1.5480506e-38
-0.0025210804 0.014774285 0.13900001 1.557234e-38
-0.0015516297 0.014587852 0.13900003 1.5848908e-38
-0.00057461642 0.014500502 0.13950001 1.520282e-38
0.00040634294 0.014530396 0.13925001 1.3990987e-38
0.00137706 0.014557346 0.13900003 1.571467e-38
0.0024193891 0.014587851 0.13900003 1.6446838e-38
0.0032210499 0.014848858 0.13900001 1.6352125e-38
0.0057192491 0.014811572 0.13900001 1.5894385e-38
0.0063531213 0.014848858 0.13900001 1.6353564e-38
0.0077998401 0.014520736 0.13900001 1.6168093e-38
0.0081263483 0.014580137 0.14 1.6352485e-38
-0.0031400947 0.015594116 0.14 1.2533169e-38
-0.002449709 0.015613556 0.13916667 1.3177452e-38
-0.0015959264 0.015594856 0.13936365 1.4466726e-38
-0.00088680605 0.015030794 0.14 1.5848907e-38
0.00084071519 0.015181012 0.14 1.4353294e-38
0.0015636452 0.015678614 0.14 1.5532072e-38
0.0024650905 0.01569614 0.1397 1.6078777e-38
0.0033981611 0.015566624 0.13900001 1.6535796e-38
0.004339647 0.015669163 0.13900001 1.6352123e-38
0.0054891747 0.015584596 0.13909093 1.6261367e-38
0.0063904077 0.01559459 0.13900001 1.5894382e-38
0.0078445841 0.01559459 0.13900001 1.5340132e-38
0.0081263483 0.015537784 0.14 1.5432328e-38
-0.0022387791 0.016157437 0.14 1.1888169e-38
0.0018171403 0.016157437 0.14 1.5348757e-38
0.0029437845 0.016157437 0.14 1.6352845e-38
0.0035071066 0.016495431 0.14 1.6260288e-38
0.0045210863 0.016532984 0.14 1.6167732e-38
0.0055087432 0.016494159 0.13966668 1.5985138e-38
0.0064743026 0.016461501 0.13900001 1.5525241e-38
0.0075090826 0.016559469 0.13915387 1.5158257e-38
0.0081263483 0.016532985 0.14 1.4973866e-38
0.0046337512 0.017208971 0.14 1.5984062e-38
0.0054505682 0.017396744 0.14 1.5616719e-38
0.0065114913 0.017546969 0.14 1.5433048e-38
0.0075348602 0.017593909 0.14 1.5157899e-38
0.0067743752 0.018185398 0.14 1.5249376e-38
0.012858254 0.021790659 0.14 1.0391072e-38
0.014735994 0.023443067 0.14 8.1985181e-39
0.015517135 0.023458093 0.14 8.6602011e-39
0.0095129963 0.024258673 0.13957143 1.0402236e-38
0.010516375 0.024302853 0.13933334 1.0864987e-38
0.011650351 0.024302676 0.13933334 1.058983e-38
0.012401358 0.024516739 0.13953847 9.3945249e-39
0.013639028 0.024554426 0.13942857 8.5690914e-39
0.014570079 0.024433948 0.13946155 8.8478293e-39
0.015336871 0.024043947 0.14 8.3864939e-39
0.011871533 0.025885679 0.13900001 9.1240771e-39
0.012520318 0.025482986 0.13900003 9.122624e-39
0.014668022 0.025512815 0.13900001 1.0600232e-38
0.015336871 0.025508584 0.14 1.0876457e-38
0.061754618 0.025621248 0.14 9.4988754e-39
0.0624808 0.02561865 0.13944446 1.0144235e-38
0.007661581 0.026475202 0.13975 7.9277396e-39
0.0081263483 0.026071906 0.14 7.9270207e-39
0.012542691 0.026258545 0.13900001 9.3102578e-39
0.014668024 0.026333116 0.13900001 1.1522177e-38
0.015476231 0.026382634 0.13953847 1.2074989e-38
0.016196772 0.026407689 0.13900001 1.2351572e-38
0.017911954 0.026556835 0.13900001 1.096899e-38
0.018247534 0.026556835 0.13900001 1.0877511e-38
0.061679509 0.026409902 0.14 9.4059637e-39
0.062472902 0.026357526 0.13950002 9.9591291e-39
0.063326985 0.026109397 0.13900001 1.023607e-38
0.0053097378 0.027761873 0.14 7.7429938e-39
0.0061884681 0.027213272 0.13950001 8.1117735e-39
0.011424094 0.027675431 0.13900001 9.8630883e-39
0.012363361 0.027416239 0.13914286 1.0415529e-38
0.014779883 0.027339851 0.13900001 1.253633e-38
0.015451042 0.027339853 0.13900003 1.2997298e-38
0.0161222 0.027227992 0.13900001 1.3181687e-38
0.017911954 0.027339853 0.13900001 1.0693484e-38
0.018400067 0.027370358 0.13900003 1.0050278e-38
0.019198341 0.027619503 0.13900001 1.0050648e-38
0.062317941 0.027198551 0.14 8.94571e-39
0.0028686747 0.028475413 0.14 8.1128553e-39
0.0034102842 0.028447954 0.13950001 7.928464e-39
0.0043984619 0.028332325 0.13966666 8.3898023e-39
0.01173161 0.028325194 0.14 1.0323696e-38
0.012732234 0.028229382 0.13925001 1.1061595e-38
0.013362993 0.028421164 0.13900001 1.1799133e-38
0.015600189 0.02812287 0.13900001 1.3366075e-38
0.017911954 0.02823473 0.13900001 1.0509809e-38
0.018433966 0.02823473 0.13900001 9.3134332e-39
0.019303987 0.028371446 0.13900001 8.7617111e-39
0.020372868 0.028570309 0.13900001 1.0420153e-38
0.010567091 0.029233988 0.13950001 8.5730809e-39
0.013661287 0.029688906 0.13900001 1.0879687e-38
0.019730784 0.02922651 0.14 8.0255852e-39
0.020609567 0.029271577 0.14 9.4989188e-39
0.021195421 0.02922651 0.14 1.0604183e-38
-0.0015627926 0.036211703 0.14 6.9146722e-39
-0.005410789 0.03785466 0.13900001 6.730281e-39
-0.0042667389 0.037563674 0.14 6.6384455e-39
-0.0035867458 0.037631083 0.13983333 6.7306411e-39
-0.0028939461 0.037519082 0.13900001 6.8235556e-39
-0.0058440408 0.038014334 0.14 6.8224766e-39
-0.0051311399 0.042440906 0.13900001 6.9150268e-39
-0.0055060475 0.043422226 0.14 6.4536913e-39
-0.047190379 0.044901822 0.13900001 3.5977932e-39
-0.047191583 0.045430321 0.1398 3.5981533e-39
-0.046572402 0.04564289 0.1399 6.5480617e-39
-0.045877468 0.045825735 0.14 1.4660921e-38
-0.04707922 0.046576828 0.14 3.6903517e-39
-0.046553452 0.046576828 0.14 7.930636e-39
-0.045862444 0.046531763 0.14 1.512226e-38
-0.046459567 0.047252815 0.14 1.0326645e-38
-0.045351699 0.047778588 0.14 1.7979245e-38
-0.044559635 0.047580566 0.14 2.0377417e-38
-0.043586623 0.047748543 0.14 2.286596e-38
-0.042527579 0.047838677 0.14 2.3234378e-38
-0.041783996 0.047534477 0.14 2.3234378e-38
-0.045051262 0.048379458 0.14 1.8994479e-38
-0.044412833 0.048567235 0.14 2.1116059e-38
-0.043530289 0.04860479 0.14 2.2866677e-38
-0.042426821 0.048557494 0.13945454 2.3142542e-38
-0.041671325 0.048604786 0.14 2.3234378e-38
-0.040995341 0.048830118 0.14 2.3234378e-38
-0.043497313 0.049334239 0.13983333 2.2958513e-38
-0.042354602 0.049513876 0.13900003 2.3142542e-38
-0.041680813 0.049585793 0.13975 2.3142542e-38
-0.040845118 0.049556181 0.14 2.3142542e-38
-0.042156693 0.050271083 0.13900001 2.3234378e-38
-0.041435074 0.050391097 0.13933334 2.3234378e-38
-0.040882677 0.050407417 0.14 2.3234378e-38
-0.037301984 0.050763268 0.13900001 1.9730593e-38
-0.041446 0.051083405 0.14 2.3234378e-38
-0.038404059 0.051684286 0.14 2.3234378e-38
-0.037345964 0.05165353 0.13971429 1.8256184e-38
-0.035587449 0.05198472 0.14 4.6105102e-39
-0.039305374 0.052886035 0.14 2.3234378e-38
-0.038291395 0.052585598 0.14 2.277376e-38
-0.037502747 0.052585591 0.14 1.7703013e-38
-0.036413655 0.052810926 0.14 9.9589371e-39
-0.035317056 0.052390315 0.14 4.057335e-39
-0.039389871 0.053364862 0.14 2.3049988e-38
-0.038446363 0.053471245 0.13981818 2.2404265e-38
-0.037502747 0.0534118 0.14 1.6780698e-38
-0.036463726 0.05348691 0.14 9.4050459e-39
-0.03543723 0.053261582 0.14 3.9651408e-39
-0.038291395 0.054012679 0.14 2.1481237e-38
-0.037483353 0.054238986 0.13973334 1.6134968e-38
-0.036378276 0.05445113 0.13950004 8.0217471e-39
-0.035476424 0.054662894 0.13972726 3.7803894e-39
-0.034629799 0.05480133 0.14 3.4119656e-39
-0.036004413 0.055192914 0.13900001 4.7938224e-39
-0.035352364 0.055363473 0.13966666 3.5041612e-39
-0.034492083 0.055527948 0.13964707 3.1364549e-39
-0.033674538 0.055617962 0.13944446 3.1364563e-39
-0.034361377 0.056600291 0.13960001 2.9524238e-39
-0.033484992 0.056435484 0.13969231 3.1364549e-39
-0.032366872 0.056497108 0.13985714 3.2290107e-39
-0.031599127 0.056626491 0.14 3.5052374e-39
-0.034160364 0.05724239 0.14 3.0446194e-39
-0.033373155 0.057182927 0.13960001 3.1368136e-39
-0.032475047 0.05733674 0.1397 3.2290092e-39
-0.031554073 0.05730639 0.1399 3.4134019e-39
-0.030766075 0.057400435 0.1398 3.6896301e-39
0.037610736 -0.050333548 0.14100002 4.4307194e-39
0.038442843 -0.050333548 0.14100002 5.3512393e-39
0.039048012 -0.050333552 0.141 5.9044173e-39
0.013177037 -0.04908539 0.141 6.4554751e-39
0.037837673 -0.049425799 0.14100002 4.7069461e-39
0.038442843 -0.049425799 0.14100002 5.1672096e-39
0.039048012 -0.049539268 0.141 5.7196701e-39
0.013177037 -0.048404574 0.141 6.5480323e-39
0.037610736 -0.048404574 0.14100002 5.1668551e-39
0.038442843 -0.048404578 0.14100002 5.5349215e-39
0.039237127 -0.048328932 0.14100002 5.995548e-39
0.011452305 -0.047179103 0.141 6.6398692e-39
0.012465963 -0.047406044 0.14100002 6.6398706e-39
0.013328329 -0.047496814 0.14100002 6.8249807e-39
0.03775122 -0.047594078 0.14100002 5.8115154e-39
0.038442843 -0.047440082 0.14100002 6.2714202e-39
0.039501887 -0.047440082 0.14100002 6.6405727e-39
0.040182702 -0.047042944 0.141 7.1930402e-39
0.010907654 -0.046362132 0.141 6.6398692e-39
0.011361529 -0.046589065 0.141 6.5476736e-39
0.01260969 -0.046475604 0.14100002 6.6413111e-39
0.013375607 -0.046333764 0.14100002 7.1941248e-39
0.038442839 -0.046362132 0.14100002 7.0090006e-39
0.039501887 -0.046362132 0.14100002 7.561101e-39
0.040438008 -0.046333764 0.14100002 7.4692669e-39
0.0079574548 -0.045908254 0.141 6.9175379e-39
0.0084113311 -0.04511397 0.141 6.3643613e-39
0.01060507 -0.045605671 0.141 6.5480337e-39
0.011248061 -0.045340907 0.141 6.3650816e-39
0.012950099 -0.045681313 0.141 7.0104538e-39
0.013403975 -0.045681316 0.14100002 7.3788776e-39
0.038503356 -0.045454375 0.14100002 7.6540169e-39
0.039501887 -0.045397643 0.14100002 7.8376907e-39
0.040485289 -0.045397639 0.14100002 7.653661e-39
0.041187715 -0.045324694 0.14100002 7.6540225e-39
0.0086382702 -0.04477356 0.141 6.1799701e-39
0.010529422 -0.044319686 0.141 6.2728874e-39
0.011134592 -0.04477356 0.141 6.2739664e-39
0.038821071 -0.044546623 0.141 8.0228037e-39
0.039501887 -0.044395328 0.14100002 7.8384124e-39
0.040485289 -0.044395331 0.14100002 7.7462168e-39
0.041289028 -0.04434805 0.14100002 7.8391341e-39
0.039700456 -0.043525402 0.14100002 7.8384152e-39
0.040485289 -0.043487575 0.14100002 7.8384152e-39
0.041385479 -0.043457318 0.14100002 8.2071977e-39
-0.028125741 -0.042050302 0.141 1.226201e-38
-0.027419709 -0.042378101 0.14100002 1.1617001e-38
-0.015190257 -0.042050302 0.141 6.6412439e-39
-0.01473638 -0.042050302 0.141 6.9178308e-39
0.0099999001 -0.042731117 0.141 6.2736104e-39
0.010529422 -0.042579826 0.141 6.5502001e-39
0.011134592 -0.042050302 0.141 6.9189826e-39
0.039880116 -0.042655468 0.141 7.9306108e-39
0.040409639 -0.042674381 0.14100002 7.9306108e-39
0.041544329 -0.042731114 0.14100002 8.3912302e-39
-0.028125741 -0.041709892 0.141 1.226201e-38
-0.027490314 -0.041732587 0.141 1.1985784e-38
-0.026991049 -0.041823361 0.141 1.1893588e-38
-0.015190257 -0.041823361 0.141 6.6412439e-39
-0.014395973 -0.041823361 0.141 6.8252708e-39
-0.013715157 -0.041596424 0.141 6.8241876e-39
0.011285883 -0.041747715 0.141 6.9189826e-39
0.039955765 -0.041823361 0.141 8.0228065e-39
0.041998208 -0.041823361 0.141 8.1146462e-39
0.042300794 -0.041293841 0.141 7.930615e-39
-0.021771468 -0.040461734 0.141 1.0879792e-38
-0.019502085 -0.040234797 0.141 8.3912064e-39
-0.018707801 -0.040007856 0.141 8.0224211e-39
-0.015644133 -0.040234797 0.141 7.4699452e-39
0.041564964 -0.040379211 0.14100002 8.1150077e-39
0.042493347 -0.040482365 0.14100002 7.746944e-39
0.043132901 -0.040007856 0.141 7.7469454e-39
-0.02237664 -0.039251395 0.141 1.2262373e-38
-0.018707801 -0.039440513 0.141 9.1287785e-39
-0.013601689 -0.039100103 0.141 6.5472476e-39
0.0097275749 -0.039463207 0.141 6.1803316e-39
0.041523702 -0.039512716 0.14100002 8.2079278e-39
0.042527732 -0.039478336 0.14100002 7.7469468e-39
0.043189637 -0.039383776 0.141 7.8391439e-39
-0.022754868 -0.038797516 0.141 1.253896e-38
-0.019048208 -0.038873166 0.141 1.0511007e-38
-0.013526042 -0.038646225 0.141 6.6394432e-39
0.0099999001 -0.038873166 0.141 6.0884961e-39
0.010226838 -0.038873166 0.141 6.1806917e-39
0.041619983 -0.038646225 0.14100002 8.3004836e-39
0.042527735 -0.038646229 0.14100002 7.7473098e-39
0.043331474 -0.038617861 0.14100002 7.8395054e-39
-0.018821271 -0.037965413 0.141 1.1893591e-38
-0.015719781 -0.037435889 0.14100002 1.0142221e-38
0.041680496 -0.037670393 0.14100002 8.3926792e-39
0.042527735 -0.037625004 0.14100002 7.8395054e-39
0.043359842 -0.037625004 0.14100002 7.8395054e-39
0.044040654 -0.037511535 0.141 7.5629185e-39
-0.015445563 -0.036575414 0.14100002 9.7734346e-39
0.041846916 -0.036755074 0.141 8.392682e-39
0.042527735 -0.036603782 0.14100002 8.0238995e-39
0.043359842 -0.036603782 0.14100002 7.7476727e-39
0.044097386 -0.036547046 0.141 7.6554771e-39
-0.016324949 -0.035469089 0.141 1.0971988e-38
-0.015708972 -0.035631187 0.14100002 1.014222e-38
0.042628594 -0.035620384 0.14100002 8.116814e-39
0.043359846 -0.035582554 0.14100002 7.9324227e-39
0.044222202 -0.035537172 0.14100002 7.6561973e-39
-0.015719779 -0.034523513 0.14100002 1.0787592e-38
0.042905964 -0.034447867 0.141 8.4848804e-39
0.043359842 -0.034447867 0.14100002 8.0246225e-39
0.044381063 -0.034447867 0.14100002 7.84059e-39
0.045175347 -0.034107462 0.141 8.1171769e-39
-0.018480863 -0.033313178 0.141 1.3645308e-38
-0.017913517 -0.033653583 0.141 1.3183969e-38
-0.015644133 -0.033540115 0.141 1.272335e-38
0.04338821 -0.033455014 0.14100002 8.2093725e-39
0.044381056 -0.033426646 0.14100002 8.0249813e-39
0.045175347 -0.033426646 0.141 8.1171769e-39
-0.0191995 -0.032443244 0.141 1.4198127e-38
-0.018764535 -0.032462157 0.141 1.4198126e-38
0.043511134 -0.032556716 0.14100002 8.4859608e-39
0.04438106 -0.032462157 0.14100002 8.4856007e-39
0.045356899 -0.032405421 0.14100002 8.0249827e-39
0.043586779 -0.0313842 0.141 8.3012122e-39
0.044381063 -0.0313842 0.14100002 8.854386e-39
0.045515757 -0.031384204 0.14100002 8.1175398e-39
0.046310037 -0.031270731 0.141 7.9338702e-39
0.043586779 -0.030419713 0.141 8.1171811e-39
0.044381063 -0.030419711 0.14100002 8.8547461e-39
0.045515757 -0.030419711 0.14100002 8.3944883e-39
0.046310037 -0.030419711 0.141 7.8423949e-39
0.043586779 -0.029417401 0.141 7.9331486e-39
0.044381063 -0.029417401 0.14100002 8.4863224e-39
0.045515757 -0.029417401 0.14100002 8.4870426e-39
0.046310037 -0.029795632 0.141 7.8427522e-39
-0.020863716 -0.028207064 0.141 1.6501933e-38
-0.017005764 -0.028887879 0.141 1.5304114e-38
-0.016703179 -0.028282709 0.141 1.4750941e-38
0.043586779 -0.028509649 0.141 8.3019311e-39
0.044381067 -0.028509649 0.14100002 8.0253442e-39
0.04551575 -0.028509649 0.14100002 8.6710751e-39
0.046310037 -0.028509647 0.141 8.0257071e-39
-0.021090655 -0.027526248 0.141 1.6686324e-38
-0.020750247 -0.02752625 0.14100002 1.6594129e-38
-0.016627533 -0.027904479 0.141 1.4289957e-38
0.043586779 -0.027677542 0.141 8.7629106e-39
0.044381067 -0.027526248 0.14100002 7.9335115e-39
0.045515757 -0.027526245 0.14100002 8.6710766e-39
0.046439715 -0.02736415 0.14100002 7.9335143e-39
0.044381063 -0.026542848 0.14100002 8.1182643e-39
0.045515761 -0.026542848 0.14100002 8.3026542e-39
0.046536978 -0.02654285 0.14100002 7.841676e-39
0.04721779 -0.026391556 0.141 7.841676e-39
0.044539921 -0.025597271 0.14100002 8.3030171e-39
0.045515757 -0.025540534 0.14100002 8.3019367e-39
0.046536982 -0.025540536 0.14100002 8.1182643e-39
0.04731505 -0.025483802 0.14100002 8.0260673e-39
0.0050072568 -0.024122173 0.141 6.7309858e-39
0.044608001 -0.024500402 0.14100002 8.4874056e-39
0.045515757 -0.024500402 0.14100002 7.933873e-39
0.046536975 -0.024500405 0.14100002 8.2104599e-39
0.047331259 -0.024500402 0.14100002 8.0260701e-39
0.0050072568 -0.023895234 0.141 6.7309858e-39
0.044608001 -0.023668295 0.14100002 8.6714367e-39
0.045515757 -0.023668295 0.14100002 7.9338716e-39
0.046536978 -0.023668297 0.14100002 8.3948498e-39
0.047379889 -0.023635875 0.14100002 8.1182657e-39
0.044721469 -0.022647073 0.141 8.4870468e-39
0.045515757 -0.022647072 0.14100002 8.1182629e-39
0.046536978 -0.022647073 0.14100002 8.1182629e-39
0.047479644 -0.022620888 0.14100002 7.8427578e-39
0.0047803186 -0.021625852 0.141 6.1785379e-39
0.0053314539 -0.021561012 0.14100002 7.1004956e-39
0.044721469 -0.021625852 0.141 8.4870454e-39
0.045515757 -0.021625852 0.14100002 8.4870482e-39
0.046536975 -0.02162585 0.14100002 8.0267889e-39
0.0475582 -0.021625852 0.14100002 7.750565e-39
0.0047803186 -0.020604629 0.141 6.9161058e-39
0.0051585492 -0.020604629 0.14100002 7.2848883e-39
0.045515761 -0.020604629 0.14100002 8.5792439e-39
0.046536978 -0.020604629 0.14100002 8.302657e-39
0.047558196 -0.020604627 0.14100002 7.8423991e-39
0.0047803186 -0.019469935 0.141 8.3897953e-39
0.0053579798 -0.019500883 0.14100002 8.6667437e-39
0.045538452 -0.019492628 0.14100002 8.3952113e-39
0.046536978 -0.019469937 0.14100002 8.2115403e-39
0.0475582 -0.019469935 0.14100002 7.8427578e-39
0.0044966456 -0.018562183 0.141 8.5741908e-39
0.0052341949 -0.018675653 0.141 9.4043088e-39
0.045657594 -0.018477082 0.14100002 8.2108201e-39
0.046536978 -0.018448714 0.14100002 8.1186258e-39
0.0475582 -0.018448716 0.14100002 7.8427578e-39
0.048409216 -0.01839198 0.141 8.2115403e-39
0.0040995036 -0.017087085 0.141 9.3117586e-39
0.045758903 -0.017540962 0.14100002 8.1182657e-39
0.046536978 -0.017484225 0.14100002 8.0260701e-39
0.047558196 -0.017484227 0.14100002 7.8423991e-39
0.048465952 -0.017484227 0.14100002 8.0271505e-39
0.045856163 -0.016406268 0.141 7.7505622e-39
0.046536975 -0.01640627 0.14100002 7.6583666e-39
0.0475582 -0.016406268 0.14100002 7.7505622e-39
0.048579421 -0.01640627 0.14100002 7.8424005e-39
0.003872565 -0.015574162 0.141 1.0694687e-38
0.0043912814 -0.015401257 0.14100002 1.0879079e-38
0.045856163 -0.015952393 0.141 7.6583666e-39
0.046536971 -0.01544178 0.14100002 7.6583666e-39
0.0475582 -0.015441782 0.14100002 7.8427578e-39
0.048579421 -0.015441784 0.14100002 7.9342346e-39
0.046650451 -0.014439471 0.14100002 7.6583666e-39
0.047558192 -0.01443947 0.14100002 7.7505622e-39
0.048579421 -0.01443947 0.14100002 7.7502035e-39
0.046557605 -0.013414809 0.14100002 7.6576463e-39
0.047558196 -0.013456071 0.14100002 7.8420376e-39
0.048579425 -0.013456072 0.14100002 7.9342346e-39
0.049033299 -0.013002194 0.141 7.4728963e-39
-0.009214214 -0.012170088 0.141 1.5301914e-38
-0.0084388405 -0.012207911 0.141 1.4562871e-38
-0.0079282299 -0.012775256 0.141 1.419371e-38
0.0037590959 -0.012094442 0.141 1.0692855e-38
0.0044777337 -0.012094442 0.141 1.0415535e-38
0.0050072568 -0.012094442 0.141 1.0415169e-38
0.046536982 -0.012397026 0.14100002 7.4732536e-39
0.0475582 -0.012397026 0.14100002 7.842039e-39
0.048579421 -0.012397027 0.14100002 8.0260701e-39
0.049033299 -0.012397026 0.141 7.6572876e-39
-0.0091385683 -0.011791858 0.141 1.520863e-38
-0.0088359825 -0.011867503 0.141 1.5025301e-38
0.0037590957 -0.011564918 0.14100002 1.0232228e-38
0.0044777337 -0.011564918 0.14100002 9.7708744e-39
0.0050072568 -0.011754034 0.141 1.00471e-38
0.046650451 -0.011564919 0.14100002 7.1973884e-39
0.0475582 -0.011564918 0.14100002 7.6583666e-39
0.048579421 -0.011564919 0.14100002 7.7502021e-39
0.04926024 -0.011564918 0.14100002 7.5654507e-39
-0.0092898607 -0.010430227 0.14100002 1.3919641e-38
0.0036739942 -0.010619342 0.14100002 9.2191412e-39
0.0043642647 -0.010808457 0.14100002 8.7588721e-39
0.04668827 -0.010657165 0.14100002 7.1973884e-39
0.0475582 -0.010562609 0.14100002 7.6580078e-39
0.048579421 -0.010562609 0.14100002 7.6580078e-39
0.049411524 -0.010562609 0.14100002 7.3814209e-39
-0.0091385674 -0.0097494125 0.141 1.3366435e-38
0.046763916 -0.0098250583 0.141 7.4728935e-39
0.047589146 -0.0095155975 0.14100002 7.5650919e-39
0.048579421 -0.0095224744 0.14100002 7.6576463e-39
