# .PCD v0.7 - Point Cloud Data file format
VERSION 0.7
FIELDS x y z rgb
SIZE 4 4 4 4
TYPE F F F F
COUNT 1 1 1 1
WIDTH 993
HEIGHT 1
VIEWPOINT 0 0 0 1 0 0 0
POINTS 993
DATA ascii
-0.018547505 0.056252625 0.15800001 2.3996101e-39
-0.017368479 0.056356657 0.15800001 2.2155776e-39
-0.016428342 0.056549311 0.15800001 2.2155776e-39
-0.015495908 0.056634076 0.15800001 2.2155748e-39
-0.014224409 0.056506924 0.15800001 2.399966e-39
-0.013788467 0.05634344 0.15800001 2.4914428e-39
-0.012952911 0.056125473 0.15800001 2.5836384e-39
-0.024396397 0.057396974 0.15800001 2.341769e-38
-0.017021706 0.057269827 0.15800001 2.0311863e-39
-0.016385958 0.057269827 0.15800001 2.2155776e-39
-0.015326374 0.057227444 0.15800001 2.0311835e-39
-0.014669434 0.057269827 0.15800001 2.2155748e-39
-0.013652235 0.057333402 0.15800001 2.3074117e-39
-0.01346151 0.058414172 0.15800001 2.3077704e-39
-0.012698611 0.058922771 0.15800001 2.3077676e-39
-0.011596645 0.059346605 0.15800001 2.3996045e-39
-0.010579447 0.059855204 0.15800001 2.4918001e-39
-0.0093927151 0.059939969 0.15800001 2.5843545e-39
-0.010282763 0.060194269 0.15800001 2.5836356e-39
-0.0094653722 0.06063021 0.15800001 2.4921589e-39
-0.0095622474 0.061381001 0.15800001 2.5836356e-39
-0.021599101 0.062228668 0.15800001 2.2772684e-38
-0.019691853 0.062991567 0.15800001 1.5950936e-38
-0.0058325185 0.06261012 0.15800001 3.0446138e-39
-0.019691853 0.063245863 0.15800001 1.6043131e-38
0.032325014 -0.052280698 0.15900001 7.1015634e-39
0.032005128 -0.05176888 0.15900001 7.1019235e-39
0.026119217 -0.03999706 0.15900001 5.8101057e-39
0.026247172 -0.037182059 0.15900001 6.1778093e-39
0.02579933 -0.036350351 0.15900001 6.0856136e-39
0.026407115 -0.03638234 0.15900002 6.1778093e-39
0.027142854 -0.03615842 0.15900001 6.2700049e-39
0.025735354 -0.035475999 0.15900002 5.9019426e-39
0.02646043 -0.035475995 0.15900002 6.0863325e-39
0.027245218 -0.035390694 0.15900001 6.2707251e-39
0.025760943 -0.034520604 0.15900001 5.9023014e-39
0.02646043 -0.03445236 0.15900002 5.994497e-39
0.027362203 -0.034403615 0.15900002 6.3632795e-39
0.025650049 -0.03338607 0.15900002 5.994497e-39
0.02646043 -0.033514027 0.15900002 6.0866926e-39
0.027484067 -0.033514023 0.15900002 6.4554751e-39
0.025575411 -0.032607682 0.15900002 6.2700063e-39
0.026460432 -0.032575693 0.15900002 6.4543975e-39
0.027484067 -0.032575697 0.15900002 6.547312e-39
0.025863308 -0.03168001 0.15900001 6.4543989e-39
0.02646043 -0.031552058 0.15900002 6.4547591e-39
0.027484065 -0.031552054 0.15900002 6.6398692e-39
0.026528671 -0.030451646 0.15900002 6.547675e-39
0.027484067 -0.030400468 0.15900002 6.9164575e-39
0.026631035 -0.029376827 0.15900001 6.639872e-39
0.027484067 -0.029376827 0.15900002 7.0086545e-39
0.020489216 -0.028225236 0.15900001 5.9934194e-39
0.021128988 -0.028225236 0.15900001 6.0863353e-39
0.025863308 -0.028225236 0.15900001 6.4554807e-39
0.026503081 -0.028609099 0.15900002 6.639872e-39
0.027484067 -0.028651753 0.15900002 7.1008516e-39
0.02061717 -0.027713418 0.15900001 5.993418e-39
0.021128986 -0.027841374 0.15900001 6.0859752e-39
0.025643956 -0.027567187 0.15900002 6.2721713e-39
0.026460432 -0.027628116 0.15900002 6.5483994e-39
0.027484065 -0.027628114 0.15900002 7.1015732e-39
0.028166493 -0.027628114 0.15900001 7.3781601e-39
0.025522096 -0.026689781 0.15900002 6.548761e-39
0.02646043 -0.026689781 0.15900002 6.8253479e-39
0.027484065 -0.026689781 0.15900002 7.1937703e-39
0.028166492 -0.026817735 0.15900001 7.5625528e-39
0.025735354 -0.025538189 0.15900002 6.9182666e-39
0.026375126 -0.025637709 0.15900002 7.1026578e-39
0.027398763 -0.025858076 0.15900001 7.3785231e-39
0.0256074 -0.024578528 0.15900001 7.5629185e-39
0.026183195 -0.02432262 0.15900001 7.7473098e-39
0.026247172 -0.023362959 0.15900002 8.1160951e-39
0.026221583 -0.022492869 0.15900001 8.392682e-39
0.025863308 -0.021571597 0.15900001 8.5770732e-39
0.026119217 -0.021827506 0.15900001 8.7614645e-39
0.026119217 -0.019780232 0.15900001 8.6703479e-39
0.018441942 -0.01722114 0.15900001 6.1799841e-39
0.020233305 -0.016197504 0.15900001 7.3803307e-39
0.019849442 -0.015621709 0.15900001 7.8402285e-39
0.020489216 -0.015813641 0.15900001 7.7483944e-39
0.019849442 -0.01466205 0.15900001 8.7607456e-39
0.021001033 -0.014917959 0.15900001 8.7614645e-39
0.019977396 -0.013382503 0.15900001 9.3139222e-39
0.020574519 -0.013723716 0.15900001 9.3146411e-39
0.019977396 -0.012870685 0.15900001 9.9582126e-39
0.020745125 -0.012358868 0.15900001 1.0050405e-38
0.021001033 -0.012358868 0.15900001 1.0050405e-38
0.019209668 -0.010055684 0.15900001 1.1616289e-38
0.029190127 -0.0086481841 0.15900001 8.7614014e-39
0.052989684 0.0055547743 0.15900001 4.8885026e-39
0.05375741 0.0055547743 0.15900001 5.2572851e-39
0.051710136 0.019885689 0.15900001 5.1622238e-39
0.051710136 0.020141598 0.15900001 5.1622238e-39
0.022152625 0.02270069 0.15900001 1.4798477e-38
0.05094241 0.026283417 0.15900001 5.5324426e-39
0.051624835 0.026454022 0.15900001 5.6249998e-39
0.052221958 0.027051143 0.15900001 5.3491332e-39
0.047444984 0.028671904 0.15900001 7.1893954e-39
0.051710136 0.028330689 0.15900001 5.2558586e-39
0.052221958 0.02807478 0.15900001 5.3480542e-39
0.047615591 0.029098418 0.15900001 7.1904716e-39
0.030725583 0.031785466 0.15900001 1.3606048e-38
-0.042208541 0.043685239 0.15900001 2.2680131e-38
-0.041952632 0.043685239 0.15900001 2.2772326e-38
-0.042208541 0.044836834 0.15900001 2.3142182e-38
-0.041952632 0.044708878 0.15900001 2.2957791e-38
-0.042720359 0.045732513 0.15900001 2.3234378e-38
-0.038369901 0.047523879 0.15900001 1.4107742e-38
-0.038267534 0.048240423 0.15900001 1.3646764e-38
-0.030180808 0.049827058 0.15900001 1.355241e-38
-0.029566625 0.049571145 0.15900001 1.5304127e-38
-0.028499121 0.049498033 0.15900002 1.7609737e-38
-0.027658274 0.049644265 0.15900002 1.7702648e-38
-0.026853988 0.049827058 0.15900001 1.7332784e-38
-0.029924897 0.050594788 0.15900001 1.4658758e-38
-0.02749376 0.050594788 0.15900001 1.8346581e-38
-0.026683383 0.05068009 0.15900002 1.8162547e-38
-0.030180806 0.051533122 0.15900001 1.3645327e-38
-0.029796943 0.051106606 0.15900001 1.502754e-38
-0.02639335 0.051490467 0.15900002 1.8623166e-38
-0.025574442 0.051746376 0.15900001 1.8439133e-38
-0.02608626 0.05238615 0.15900001 1.8991949e-38
-0.025510464 0.052642062 0.15900001 1.8899754e-38
-0.021671828 0.052833997 0.15900001 3.0439005e-39
-0.020776145 0.052833997 0.15900001 2.7680325e-39
-0.030351415 0.053239185 0.15900001 1.2999235e-38
-0.025420899 0.053409792 0.15900001 1.9176343e-38
-0.023079328 0.053601723 0.15900001 1.6871449e-38
-0.022631487 0.053495094 0.15900002 1.2630811e-38
-0.021703815 0.053441774 0.15900002 3.6889112e-39
-0.020619109 0.053526115 0.15900002 2.7676724e-39
-0.019560575 0.05392161 0.15900001 2.6758369e-39
-0.030948535 0.054433428 0.15900001 1.0786538e-38
-0.025318533 0.054506544 0.15900002 1.9544766e-38
-0.023399215 0.054497406 0.15900001 1.8439497e-38
-0.021735804 0.054177519 0.15900001 1.0050408e-38
-0.020328304 0.054177519 0.15900001 2.6758341e-39
-0.019432621 0.054433431 0.15900002 2.5836398e-39
-0.01853694 0.054465417 0.15900002 2.4914442e-39
-0.017458465 0.054506548 0.15900002 2.39925e-39
-0.016745575 0.05456138 0.15900001 2.39925e-39
-0.025190579 0.055201154 0.15900001 2.0097942e-38
-0.023271259 0.055201154 0.15900001 1.8715365e-38
-0.019381439 0.055303514 0.15900001 2.4914442e-39
-0.018494286 0.055457059 0.15900002 2.39925e-39
-0.01747065 0.055457059 0.15900002 2.3070544e-39
-0.016873529 0.055329107 0.15900001 2.39925e-39
-0.015402052 0.055393085 0.15900001 2.39925e-39
-0.014826255 0.055585019 0.15900001 2.5836384e-39
-0.017257392 0.056224793 0.15900001 2.3070544e-39
-0.016873529 0.056480702 0.15900001 2.2155776e-39
-0.015568392 0.056531888 0.15900002 2.3074131e-39
-0.014723891 0.056531884 0.15900001 2.3996059e-39
-0.0132908 0.056864571 0.15900002 2.4914428e-39
-0.012523073 0.056480702 0.15900001 2.6758341e-39
-0.013239619 0.057606705 0.15900001 2.4914428e-39
-0.013188437 0.058425613 0.15900001 2.3077704e-39
-0.012395117 0.058783885 0.15900001 2.399966e-39
-0.013162846 0.059039794 0.15900001 2.215572e-39
-0.012267164 0.059167754 0.15900002 2.3077676e-39
-0.011499436 0.059381004 0.15900002 2.3999632e-39
-0.010603754 0.059487633 0.15900001 2.4921589e-39
-0.0099639809 0.05980752 0.15900001 2.4921589e-39
-0.01021989 0.060319338 0.15900001 2.5836356e-39
-0.0099639809 0.060319338 0.15900001 2.4921589e-39
-0.022503531 0.062622525 0.15900001 2.341769e-38
-0.020328304 0.06287843 0.15900001 1.7518264e-38
-0.020200349 0.063902065 0.15900001 1.7794488e-38
-0.020200349 0.06441389 0.15900001 1.7886684e-38
-0.0040780688 0.0649257 0.15900001 3.3212007e-39
0.032721456 -0.052266151 0.16000001 7.1937562e-39
0.033494014 -0.052609511 0.16000001 7.5610968e-39
0.024738377 -0.036128312 0.16000001 5.9023014e-39
0.025317796 -0.036450207 0.16000001 5.993418e-39
0.024738377 -0.035355754 0.16000001 5.9023014e-39
0.025253415 -0.035355754 0.16000001 5.8101057e-39
0.024673996 -0.034261301 0.16000001 5.994497e-39
0.025356423 -0.034274179 0.16000001 5.9023014e-39
0.024513047 -0.033327796 0.16000001 6.1778093e-39
0.025253415 -0.033810645 0.16000001 5.994497e-39
0.024554435 -0.032486264 0.16000001 6.1778107e-39
0.025339255 -0.032179695 0.16000001 6.2700077e-39
0.024532363 -0.031595983 0.16000001 6.1778121e-39
0.025459429 -0.031595983 0.16000001 6.3622033e-39
0.0043085604 -0.030548742 0.16000001 8.5741067e-39
0.023965821 -0.03072042 0.16000001 5.9944998e-39
0.024480857 -0.030591659 0.16 5.9023042e-39
0.025510935 -0.030591659 0.16 6.0866954e-39
0.02628349 -0.030334141 0.16000001 6.4554779e-39
0.0043943999 -0.029690346 0.16000001 8.3897126e-39
0.024673998 -0.029497206 0.16000001 5.9944998e-39
0.025510933 -0.029432826 0.16000001 6.1788911e-39
0.02628349 -0.029432828 0.16000001 6.5476736e-39
0.019845521 -0.028145233 0.16000001 5.6246355e-39
0.025425097 -0.02861735 0.16000001 6.087057e-39
0.011862442 -0.027115159 0.16000001 1.0324712e-38
0.012377479 -0.027115159 0.16000001 1.0048127e-38
0.020360559 -0.027887715 0.16000001 5.717187e-39
0.024738377 -0.027243918 0.16000001 6.2721713e-39
0.025253415 -0.027887715 0.16000001 5.9952257e-39
0.024738377 -0.026857641 0.16000001 6.4569227e-39
0.025253415 -0.026085084 0.16000001 6.825708e-39
0.025253415 -0.025570048 0.16000001 7.0101049e-39
0.025510933 -0.024539972 0.16000001 7.6551141e-39
0.036069199 -0.022994861 0.16000001 1.1800269e-38
0.025768451 -0.021964785 0.16000001 8.4848776e-39
0.018557929 -0.018230766 0.16000001 5.6264459e-39
0.012119961 -0.01720069 0.16000001 1.38224e-38
0.012119961 -0.016428135 0.16000001 1.336215e-38
0.019588003 -0.016127696 0.16000001 7.3796119e-39
0.020746838 -0.016299374 0.16000001 7.564722e-39
0.019227479 -0.015423812 0.16000001 7.9313437e-39
0.019459244 -0.014625504 0.16000001 8.5763544e-39
0.019845521 -0.013724188 0.16000001 9.129531e-39
0.021133116 -0.013724188 0.16000001 9.4990323e-39
0.036069199 -0.01346667 0.16000001 1.1708073e-38
0.051455941 0.026899379 0.16000001 5.4402456e-39
0.051434483 0.027221279 0.16000001 5.34805e-39
0.052164115 0.027478797 0.16000001 5.3480542e-39
0.046884984 0.028508872 0.16000001 6.9135316e-39
0.047142502 0.028508872 0.16000001 7.0971998e-39
0.051649079 0.028380113 0.16000001 5.2558572e-39
0.052035358 0.028251354 0.16000001 5.2558586e-39
0.047271263 0.029152669 0.16000001 7.0975585e-39
0.031433862 0.030569021 0.16000001 1.4519009e-38
0.031305104 0.031599097 0.16000001 1.4063787e-38
0.031176344 0.032114133 0.16000001 1.3607127e-38
0.030403789 0.033401728 0.16000001 1.3064037e-38
0.026541008 0.036234431 0.16000001 8.0206625e-39
-0.043761596 0.038680859 0.16000001 1.7333867e-38
-0.042783026 0.04282691 0.16000001 2.2404623e-38
-0.042680018 0.043547966 0.16000001 2.2587934e-38
-0.041958965 0.043831229 0.16000001 2.2680132e-38
-0.03938378 0.043573711 0.16000001 1.6136407e-38
-0.041958965 0.044475026 0.16000001 2.2772685e-38
-0.0429032 0.045590941 0.16000001 2.3234378e-38
-0.039126258 0.047565252 0.16000001 1.6503749e-38
-0.038353704 0.04766826 0.16000001 1.2172352e-38
-0.037495308 0.04782277 0.16000001 5.5335483e-39
-0.039126258 0.048852846 0.16000001 1.632044e-38
-0.038160566 0.048659708 0.16000001 1.1157482e-38
-0.037495304 0.048595328 0.16000001 5.6257439e-39
-0.036514282 0.04866891 0.16000001 3.4130474e-39
-0.035778515 0.048724085 0.16000001 3.3208504e-39
-0.039126258 0.0496254 0.16000001 1.632044e-38
-0.038482461 0.049539555 0.16000001 1.3001756e-38
-0.037066109 0.0496254 0.16000001 4.0576993e-39
-0.036465231 0.0496254 0.16000001 3.505243e-39
-0.035649758 0.049625397 0.16000001 3.2286547e-39
-0.030628143 0.049882919 0.16000001 1.2722649e-38
-0.029598067 0.04945372 0.16000001 1.5764745e-38
-0.028439233 0.049367882 0.16000001 1.751826e-38
-0.027537918 0.0496254 0.16000001 1.7057273e-38
-0.039212096 0.050483797 0.16000001 1.6597027e-38
-0.03886874 0.05014044 0.16000001 1.5307007e-38
-0.036465235 0.05014044 0.16000001 3.7811082e-39
-0.035649754 0.05014044 0.16000001 3.3208504e-39
-0.030628143 0.050912995 0.16000001 1.2907041e-38
-0.026507843 0.050784238 0.16000001 1.7793762e-38
-0.025992807 0.050912995 0.16000001 1.7057273e-38
-0.030628143 0.051170513 0.16000001 1.2814845e-38
-0.026250325 0.051170513 0.16000001 1.8070349e-38
-0.025735289 0.051428031 0.16000001 1.7517175e-38
-0.021099951 0.051943071 0.16000001 2.9524238e-39
-0.020456156 0.05164263 0.16000001 2.8602281e-39
-0.031143179 0.05297314 0.16000001 1.0233367e-38
-0.030885661 0.052543942 0.16000001 1.1616663e-38
-0.025220251 0.052543949 0.16000001 1.8346579e-38
-0.024962731 0.05297314 0.16000001 1.8530971e-38
-0.021185791 0.052372266 0.16000001 2.9524238e-39
-0.020413235 0.052543949 0.16000001 2.7680325e-39
-0.019640679 0.05280146 0.16000001 2.6758355e-39
-0.025220251 0.05348818 0.16000001 1.8899755e-38
-0.024962731 0.05348818 0.16000001 1.880756e-38
-0.02341762 0.053230658 0.16000001 1.6226081e-38
-0.020172885 0.053436674 0.16000001 2.6758369e-39
-0.019254399 0.053531099 0.16000001 2.6758355e-39
-0.018524764 0.053681318 0.16000001 2.5836384e-39
-0.030885661 0.054260734 0.16000001 1.1616299e-38
-0.025220251 0.054389492 0.16000001 1.9268179e-38
-0.024791053 0.054561172 0.16000001 1.9175983e-38
-0.023932656 0.054775771 0.16000001 1.8807561e-38
-0.019168559 0.054260734 0.16000001 2.5836412e-39
-0.018331625 0.054325115 0.16000001 2.4914456e-39
-0.017365929 0.054389492 0.16000001 2.4914456e-39
-0.016722133 0.054518253 0.16000001 2.4914428e-39
-0.024447694 0.055290811 0.16000001 1.9175983e-38
-0.015177021 0.05683592 0.16000001 2.3077704e-39
-0.012644753 0.057565559 0.16000001 2.5836384e-39
-0.013116871 0.058381032 0.16000001 2.399966e-39
-0.012515995 0.05846687 0.16000001 2.399966e-39
-0.011608548 0.058564968 0.16000001 2.4921617e-39
-0.0092540905 0.058896068 0.16000001 2.9531398e-39
-0.012086797 0.05915359 0.16000001 2.4921617e-39
-0.011571758 0.05915359 0.16000001 2.399966e-39
-0.010799203 0.059411108 0.16000001 2.4921603e-39
-0.0082240161 0.059539869 0.16000001 3.0449725e-39
-0.010670444 0.06031242 0.16000001 2.4921589e-39
-0.007966497 0.060183663 0.16000001 3.0446138e-39
-0.022516303 0.063273884 0.16000001 2.341769e-38
-0.02142185 0.063402645 0.16000001 2.1206447e-38
-0.005648829 0.063531406 0.16000001 3.1368094e-39
-0.005648829 0.064175203 0.16000001 3.0446138e-39
-0.0047475137 0.064561479 0.16000001 3.229005e-39
-0.0053913104 0.065076515 0.16000001 2.9524182e-39
-0.0047045941 0.065162353 0.16000001 3.1368094e-39
0.033185095 -0.052420061 0.16100001 7.2855917e-39
0.034739863 -0.044905346 0.16100001 7.5629073e-39
0.024786869 -0.037101392 0.162 6.0856136e-39
0.024617847 -0.036523066 0.16175 5.9937781e-39
0.024391236 -0.035493091 0.1618 5.994497e-39
0.023657007 -0.034320191 0.162 6.2700049e-39
0.024352867 -0.034479477 0.16120002 6.1781694e-39
0.022961706 -0.033451065 0.162 6.6387832e-39
0.02347873 -0.033431835 0.16174999 6.3618404e-39
0.020615065 -0.032147374 0.162 7.0075657e-39
0.023520702 -0.032543335 0.16166666 6.2700049e-39
0.024115607 -0.032467194 0.16100001 6.1778107e-39
0.019969556 -0.031171553 0.16100001 7.0075657e-39
0.020597117 -0.031523746 0.16185714 6.9153701e-39
0.021223454 -0.031538989 0.162 6.8231745e-39
0.023534866 -0.031593051 0.16116668 6.1778093e-39
0.024115607 -0.031948935 0.16100001 6.1778121e-39
0.0041627367 -0.030912424 0.16100001 8.5741067e-39
0.019969556 -0.030912424 0.16100001 6.9153701e-39
0.02035825 -0.03078286 0.16100001 6.8231745e-39
0.021265198 -0.03078286 0.16100001 6.7309788e-39
0.023412259 -0.03061628 0.16100001 5.9941383e-39
0.0044218651 -0.029616784 0.16100001 8.3897126e-39
0.024547487 -0.029530406 0.16100001 5.9023056e-39
0.019832853 -0.028236311 0.162 5.5331489e-39
0.024822243 -0.02843895 0.16166668 5.9030272e-39
0.019832853 -0.027584467 0.162 5.3487576e-39
0.020467192 -0.02733095 0.16171429 5.441319e-39
0.021564651 -0.027429659 0.16185714 5.9019426e-39
0.022179492 -0.02732373 0.162 6.0866954e-39
0.021744929 -0.026584974 0.162 5.9023014e-39
0.022179492 -0.026932623 0.162 6.0866954e-39
0.024892991 -0.026766373 0.16100001 6.5491211e-39
0.024892991 -0.024952477 0.16100001 7.4707229e-39
0.025929505 -0.02443422 0.16100001 7.8395054e-39
0.025929505 -0.023527272 0.16100001 8.1160951e-39
0.025411248 -0.02184294 0.16100001 8.3004864e-39
0.019506931 -0.020218631 0.162 5.3502164e-39
0.020528153 -0.020153446 0.162 5.8112015e-39
0.021484191 -0.020283815 0.162 6.4565738e-39
0.022503519 -0.020262813 0.16183333 7.1941388e-39
0.023309356 -0.020240359 0.162 7.7473126e-39
0.025776135 -0.020459091 0.16166668 8.3934009e-39
0.018789902 -0.019110495 0.162 5.5331685e-39
0.019572116 -0.019545056 0.162 5.5346105e-39
0.020528154 -0.01954506 0.162 5.9959543e-39
0.021484191 -0.019545056 0.162 6.733518e-39
0.022527141 -0.01954506 0.162 7.5629213e-39
0.023352811 -0.019545058 0.162 8.0238995e-39
0.02582982 -0.019892707 0.162 8.6703479e-39
0.018885329 -0.018513059 0.16133334 5.6264488e-39
0.019615574 -0.018632477 0.162 5.6278893e-39
0.020528154 -0.01858902 0.162 6.2732643e-39
0.021484191 -0.01858902 0.162 7.0108279e-39
0.022527141 -0.01858902 0.162 7.6561987e-39
0.023352811 -0.01858902 0.162 8.2093711e-39
0.012817618 -0.017385934 0.16100001 1.2993718e-38
0.018789902 -0.017285332 0.162 6.3643753e-39
0.019604707 -0.017513478 0.162 6.2732643e-39
0.020485677 -0.017551987 0.16175 6.8264381e-39
0.021469694 -0.017534215 0.1618889 7.4714502e-39
0.022527141 -0.017546069 0.162 8.116821e-39
0.023352811 -0.017546071 0.162 8.4859608e-39
0.012713967 -0.016660376 0.16100001 1.2994085e-38
0.018731372 -0.01645272 0.16150001 6.6413238e-39
0.019475142 -0.016577419 0.16120002 6.9186323e-39
0.02035825 -0.016660376 0.16100001 7.287775e-39
0.021496808 -0.016424064 0.16122222 7.9331472e-39
0.022527141 -0.016503118 0.162 8.4856035e-39
0.023483181 -0.016503118 0.162 8.9465816e-39
0.024265394 -0.01637275 0.162 9.2231685e-39
0.018702511 -0.015388191 0.16125001 7.8380663e-39
0.021556716 -0.015494299 0.16100001 8.485242e-39
0.022621583 -0.015442884 0.16142859 9.0384143e-39
0.02348318 -0.01554708 0.162 9.222807e-39
0.024265394 -0.015547081 0.162 9.4071997e-39
0.01862411 -0.014441292 0.16185714 8.943695e-39
0.019192172 -0.014198659 0.16100001 9.2206448e-39
0.021524325 -0.014414598 0.16100001 9.0380542e-39
0.022861488 -0.014589718 0.16175 9.4983121e-39
0.023309356 -0.014764868 0.162 9.5897874e-39
0.017642656 -0.013478562 0.162 9.4039486e-39
0.018496571 -0.013602412 0.162 9.8649296e-39
0.019278549 -0.013723589 0.16100001 9.5890686e-39
0.021589108 -0.013550837 0.16100001 9.6827033e-39
0.022694459 -0.013535973 0.16133334 9.8652911e-39
0.023222441 -0.013548092 0.162 9.9571238e-39
0.022690402 -0.012773453 0.16100001 1.0049678e-38
0.034739863 -0.011477812 0.16100001 1.1338934e-38
0.018659534 0.00057519751 0.162 1.2164697e-38
0.053915348 0.0056246459 0.16100001 5.1650894e-39
0.051583197 0.027909666 0.16100001 5.1636615e-39
0.052360579 0.027909666 0.16100001 5.2558586e-39
0.051531367 0.028272446 0.16100001 5.2558544e-39
0.052490145 0.028168794 0.16100001 5.2558586e-39
0.031826787 0.031994086 0.162 1.4247461e-38
0.031588547 0.032534495 0.16166668 1.3423454e-38
0.032087523 0.032254823 0.162 1.3881553e-38
0.031414721 0.033142347 0.16166668 1.2782404e-38
0.030665522 0.034435764 0.16183333 1.1411721e-38
0.031396873 0.03448052 0.16179998 1.1686863e-38
0.032087523 0.034862198 0.162 1.1044014e-38
0.030654583 0.035729852 0.16171429 7.9241354e-39
0.031457573 0.035553947 0.16100001 8.565179e-39
0.032420896 0.035629138 0.16118182 8.8406841e-39
0.033185095 0.035813075 0.16100001 8.5655392e-39
0.025670376 0.036460895 0.16100001 7.9284668e-39
0.029740885 0.036165886 0.162 7.6522317e-39
0.030546134 0.036481235 0.16166668 7.4663971e-39
0.031457573 0.036590457 0.16100001 7.1890899e-39
0.032342926 0.036525678 0.16100001 7.3727595e-39
0.030783836 0.039685845 0.162 7.3756476e-39
0.031435683 0.039588068 0.162 7.3760049e-39
-0.049001895 0.040728793 0.162 1.7149119e-38
-0.048480418 0.040728793 0.162 1.8439857e-38
0.030783836 0.040337689 0.162 7.467846e-39
0.031479139 0.040337689 0.162 7.3756504e-39
-0.049001895 0.04138064 0.162 1.7610097e-38
-0.048480418 0.041511007 0.162 1.8716444e-38
-0.042739466 0.0429391 0.16100001 2.2219875e-38
-0.042481378 0.04363424 0.16133334 2.2495742e-38
-0.04157339 0.043846048 0.16100001 2.1942574e-38
-0.039434183 0.043500476 0.16171429 1.456908e-38
-0.042221963 0.044500872 0.16150001 2.2680491e-38
-0.041702952 0.044493869 0.16100001 2.2403551e-38
-0.040658288 0.044509493 0.162 1.8164352e-38
-0.03954355 0.044234738 0.16100001 1.6043853e-38
-0.038852543 0.044493869 0.16100001 1.3554571e-38
-0.04235233 0.045542218 0.16150001 2.2957791e-38
-0.040136814 0.04542207 0.162 1.733351e-38
-0.03955825 0.045281075 0.16150001 1.5951656e-38
-0.038807813 0.045414399 0.161625 1.2540776e-38
-0.034400582 0.045291703 0.162 3.136815e-39
-0.040136814 0.046334654 0.162 1.7334592e-38
-0.039370801 0.046437327 0.16100001 1.6134967e-38
-0.038496017 0.046461713 0.16121428 1.1156403e-38
-0.037597422 0.046786241 0.16140001 4.610513e-39
-0.033879109 0.046334654 0.162 3.136815e-39
-0.039370798 0.047473844 0.16100001 1.6134967e-38
-0.038445342 0.04752937 0.16100001 1.0880896e-38
-0.037412699 0.04757189 0.16149999 4.0580595e-39
-0.036399569 0.047812164 0.162 3.413046e-39
-0.031219587 0.047794785 0.162 1.2169476e-38
-0.030437371 0.047638342 0.162 1.4291413e-38
-0.029863749 0.047638338 0.162 1.3462371e-38
-0.028794724 0.047899079 0.162 4.5175915e-39
-0.027623653 0.047862533 0.16100001 3.597433e-39
-0.026932646 0.047862533 0.16100001 3.2297295e-39
-0.039794024 0.048840791 0.16166668 1.6965808e-38
-0.037191477 0.048233476 0.16166668 3.5056045e-39
-0.03639356 0.048480242 0.16133335 3.3208518e-39
-0.032184314 0.048811659 0.162 6.0852787e-39
-0.031258877 0.048594635 0.1618 1.1340434e-38
-0.030466061 0.048716243 0.16159999 1.4105584e-38
-0.029531496 0.048670545 0.16174997 1.6319357e-38
-0.028682977 0.048671741 0.16177776 1.2631886e-38
-0.027516868 0.048678085 0.16122223 5.3484311e-39
-0.026491543 0.048855115 0.162 3.3212063e-39
-0.038075157 0.049676429 0.16100001 7.9306346e-39
-0.037729654 0.049849182 0.16100001 5.0722114e-39
-0.035483874 0.049590055 0.16100001 3.2286547e-39
-0.032053944 0.04933314 0.162 7.5596913e-39
-0.031402707 0.04969183 0.16133334 1.0511033e-38
-0.030531649 0.049503677 0.16100001 1.3460214e-38
-0.0292648 0.049158175 0.16100001 1.6964367e-38
-0.028487414 0.049158175 0.16100001 1.7057638e-38
-0.027461987 0.049522288 0.16153845 1.0050048e-38
-0.026379207 0.049588941 0.1619 4.4271937e-39
-0.025448591 0.049811155 0.162 3.3212063e-39
-0.040148184 0.050972071 0.16100001 1.8163996e-38
-0.03911167 0.050583377 0.16100001 1.5214452e-38
-0.038625818 0.050523058 0.16150001 1.143443e-38
-0.037556902 0.050712943 0.16100001 4.7945427e-39
-0.035483874 0.050540194 0.16100001 3.3204902e-39
-0.03153247 0.050506458 0.162 1.0603229e-38
-0.030819569 0.050972071 0.16100001 1.2907041e-38
-0.027191773 0.050194688 0.16100001 1.6872885e-38
-0.026511863 0.050433092 0.16159999 9.4972331e-39
-0.025326913 0.050402164 0.162 3.5048787e-39
-0.040399503 0.051381469 0.1618 1.8348752e-38
-0.039579444 0.051520675 0.16150001 1.6228246e-38
-0.038728829 0.051392965 0.162 1.1250759e-38
-0.036225747 0.051288668 0.162 3.5963582e-39
-0.031435147 0.051259533 0.16150001 1.0694346e-38
-0.026317716 0.051158298 0.162 1.4291407e-38
-0.025345022 0.051410716 0.16185713 7.3760147e-39
-0.024529802 0.051363163 0.16200002 3.5967156e-39
-0.023971077 0.051419038 0.162 3.3204874e-39
-0.019936185 0.051490329 0.16100001 2.860947e-39
-0.040136814 0.052331619 0.162 1.7518627e-38
-0.032053944 0.052331619 0.162 7.5596941e-39
-0.031337824 0.05213815 0.16100001 1.060251e-38
-0.025399361 0.052423459 0.1618 1.7332784e-38
-0.022009211 0.052656405 0.16100001 2.9524238e-39
-0.021685299 0.052202929 0.16100001 2.9524238e-39
-0.02045444 0.052008584 0.16100001 2.9524238e-39
-0.019547492 0.052397277 0.16100001 2.6758369e-39
-0.018698433 0.052819535 0.16150001 2.7680297e-39
-0.032053944 0.053896047 0.162 7.5596941e-39
-0.03153247 0.053896047 0.162 1.0233365e-38
-0.024157025 0.053859264 0.16150001 1.7609734e-38
-0.019677058 0.053628135 0.16100001 2.6758369e-39
-0.018406428 0.053637106 0.16122223 2.5836384e-39
-0.017686035 0.053877652 0.16175 2.5836384e-39
-0.016931159 0.05363531 0.162 2.7680297e-39
-0.015366733 0.053765673 0.162 2.8602253e-39
-0.014584521 0.053765677 0.162 3.0446166e-39
-0.025014028 0.054417521 0.162 1.880756e-38
-0.024521859 0.054539084 0.16133334 1.8715364e-38
-0.017439822 0.054319628 0.16140001 2.5836384e-39
-0.016931159 0.054938998 0.162 2.4914428e-39
-0.015366733 0.054417521 0.162 2.7680297e-39
-0.014584521 0.054417521 0.162 2.952421e-39
-0.032053944 0.055199735 0.162 8.1128651e-39
-0.0054250062 0.063669354 0.16100001 3.229005e-39
-0.0052306596 0.064381957 0.16100001 3.229005e-39
-0.0049067498 0.064705864 0.16100001 3.229005e-39
-0.021624438 0.065629236 0.162 2.1296493e-38
0.025539523 -0.041340578 0.163 5.9934152e-39
0.02633906 -0.041615415 0.163 5.9015811e-39
0.023890486 -0.037068065 0.163 6.2700049e-39
0.024240283 -0.037242964 0.163 6.0856136e-39
0.023759313 -0.036368471 0.163 6.1785281e-39
0.024152834 -0.036543369 0.163 5.994497e-39
0.023628138 -0.035441514 0.163 6.3625592e-39
0.022753648 -0.034532044 0.163 6.6387832e-39
0.023409516 -0.034794394 0.163 6.3621991e-39
0.023890486 -0.03024704 0.163 5.9944998e-39
0.024284007 -0.029853519 0.163 5.9944998e-39
0.019543018 -0.027398696 0.163 5.1647237e-39
0.020479972 -0.027098874 0.163 5.3494807e-39
0.021354461 -0.027186325 0.163 5.7179101e-39
0.02441518 -0.02762357 0.163 6.3640082e-39
0.019955277 -0.026574181 0.163 5.0721708e-39
0.020512767 -0.026344625 0.163 5.4405959e-39
0.021267014 -0.026443008 0.163 5.718266e-39
0.024939874 -0.026574181 0.163 6.6413167e-39
0.024939874 -0.025787139 0.163 6.8264325e-39
0.017856501 -0.02027785 0.163 4.8870732e-39
0.01851237 -0.020310644 0.163 4.7963181e-39
0.02074232 -0.020540196 0.163 5.7190059e-39
0.018905889 -0.019753156 0.163 5.3491332e-39
0.018381195 -0.018966114 0.163 5.5335244e-39
0.018381195 -0.017392032 0.163 5.9952285e-39
0.018118849 -0.016473817 0.163 6.732076e-39
0.018118849 -0.015555602 0.163 7.9291787e-39
0.023890486 -0.015030907 0.163 9.5905091e-39
0.024152834 -0.015030907 0.163 9.5905091e-39
0.023715587 -0.014418763 0.163 9.957128e-39
0.017594153 -0.013981518 0.163 9.0351661e-39
0.023628138 -0.013850344 0.163 1.0049321e-38
0.032416768 0.031929228 0.163 1.4061628e-38
0.032495476 0.032401454 0.163 1.3696443e-38
0.024729995 0.033450842 0.163 8.297248e-39
0.025464568 0.033503313 0.163 8.0206611e-39
0.026481166 0.033536106 0.163 8.1124938e-39
0.031498555 0.033765659 0.163 1.2785285e-38
0.033859678 0.033503313 0.163 1.2509401e-38
0.02546457 0.034290355 0.163 8.2972494e-39
0.026382785 0.034290355 0.163 7.8359097e-39
0.030361718 0.035514642 0.163 8.5680657e-39
0.029924471 0.036126785 0.163 7.7433455e-39
-0.040122222 0.042160768 0.163 1.3463094e-38
-0.043008044 0.043997198 0.163 2.2312071e-38
-0.042745695 0.043997198 0.163 2.2312074e-38
-0.039466359 0.043603677 0.163 1.3002116e-38
-0.039335184 0.044390716 0.163 1.3186507e-38
-0.036449362 0.044521887 0.163 3.2290107e-39
-0.035727911 0.044718653 0.163 3.136815e-39
-0.034744106 0.04478424 0.163 3.1368122e-39
-0.040909264 0.045308933 0.163 1.85317e-38
-0.038023446 0.045833629 0.163 4.610513e-39
-0.036449362 0.045308933 0.163 3.3212063e-39
-0.035587367 0.045533802 0.163 3.2286505e-39
-0.034875281 0.045571283 0.163 3.0446194e-39
-0.04327039 0.046620671 0.163 2.3234378e-38
-0.038198341 0.046402048 0.163 5.348078e-39
-0.037498754 0.046533216 0.163 3.7814712e-39
-0.036842883 0.046751842 0.163 3.5052416e-39
-0.034700383 0.046270873 0.163 3.136815e-39
-0.031639665 0.046883017 0.163 1.2448219e-38
-0.0308089 0.046883017 0.163 8.7607526e-39
-0.037236404 0.047145363 0.163 3.7807523e-39
-0.036842883 0.047407709 0.163 3.5967184e-39
-0.032426704 0.047844958 0.163 6.4533452e-39
-0.031689636 0.047482669 0.163 1.143299e-38
-0.030743312 0.047276538 0.163 1.1618098e-38
-0.029497163 0.047866818 0.163 6.2696714e-39
-0.032514155 0.048325926 0.163 5.5324665e-39
-0.029628336 0.048194751 0.163 1.3554565e-38
-0.028578948 0.048194751 0.163 3.6899888e-39
-0.02752956 0.048194751 0.163 3.3219251e-39
-0.026217824 0.048981793 0.163 3.2290107e-39
-0.025955476 0.048981793 0.163 3.2290107e-39
-0.024512567 0.048981793 0.163 3.2297295e-39
-0.023856699 0.048981793 0.163 3.3219251e-39
-0.026217824 0.049244139 0.163 3.3212063e-39
-0.025655653 0.049431533 0.163 3.2290107e-39
-0.02464374 0.049506489 0.163 3.0453383e-39
-0.023669306 0.049469005 0.163 3.2297295e-39
-0.040734366 0.050730776 0.163 1.8532782e-38
-0.032251809 0.050555874 0.163 7.468216e-39
-0.024643742 0.050555881 0.163 3.0453383e-39
-0.023856699 0.050293528 0.163 3.0453383e-39
-0.038548142 0.051474094 0.163 7.6540478e-39
-0.037586201 0.051692713 0.163 4.3332044e-39
-0.036711708 0.051736437 0.163 3.6885539e-39
-0.035924669 0.051605266 0.163 3.411967e-39
-0.032251809 0.051605266 0.163 7.5596941e-39
-0.040122222 0.052654654 0.163 1.6689585e-38
-0.039466359 0.052654654 0.163 1.4108464e-38
-0.035924669 0.052129958 0.163 3.5963582e-39
-0.032251809 0.052523479 0.163 7.6518898e-39
-0.032514155 0.05317935 0.163 5.8079758e-39
-0.025430782 0.0534417 0.163 1.7978153e-38
-0.02490609 0.053529147 0.163 1.7424624e-38
-0.024906088 0.054228738 0.163 1.834658e-38
0.023377161 -0.030432604 0.164 6.0863339e-39
0.024564967 -0.027265124 0.164 6.4569227e-39
0.024828924 -0.026341278 0.164 6.8257108e-39
0.021925401 -0.024361603 0.164 5.902307e-39
0.017702093 -0.020138297 0.164 4.7948776e-39
0.018230006 -0.020138297 0.164 4.7959566e-39
0.025620794 -0.02066621 0.164 8.4848776e-39
0.018405979 -0.019698368 0.164 5.0725449e-39
0.017702093 -0.016178947 0.164 7.2838093e-39
0.018230006 -0.015255099 0.164 8.2068446e-39
0.017702093 -0.014331251 0.164 8.851135e-39
0.018230006 -0.014595208 0.164 8.9433306e-39
0.024037054 -0.014331251 0.164 1.0049318e-38
0.017702093 0.00071427703 0.164 1.1704428e-38
0.018295996 0.00078026624 0.164 1.1888465e-38
0.016382311 0.0032218653 0.164 1.0414419e-38
0.024037054 0.030013463 0.164 8.7567814e-39
0.02356193 0.031491619 0.164 8.3894422e-39
0.024037054 0.031465225 0.164 8.3894422e-39
0.023685111 0.032213103 0.164 8.2054111e-39
0.024037054 0.032125115 0.164 8.2054111e-39
0.033011582 0.032257095 0.164 1.3693924e-38
0.023773097 0.033708856 0.164 8.389445e-39
0.024037054 0.033708856 0.164 8.6660319e-39
0.031955753 0.033972811 0.164 1.2416502e-38
-0.063332602 0.034764681 0.164 3.7811026e-39
0.024828924 0.034500726 0.164 8.4816406e-39
0.025532806 0.034764681 0.164 8.389445e-39
0.026280686 0.034764681 0.164 7.9284668e-39
-0.063200623 0.035160616 0.164 3.7811026e-39
-0.062408753 0.035292596 0.164 3.7811026e-39
0.025752772 0.03502864 0.164 8.4816406e-39
0.026148707 0.035160616 0.164 8.2972494e-39
0.0298441 0.036084466 0.164 7.9270179e-39
0.026676621 0.03740425 0.164 7.9288242e-39
-0.050134771 0.03898799 0.164 1.5119736e-38
-0.049518868 0.03898799 0.164 1.6134967e-38
-0.048814986 0.03898799 0.164 1.751898e-38
-0.049518868 0.039515901 0.164 1.6688499e-38
-0.048814986 0.039515901 0.164 1.8163271e-38
-0.056425739 0.041583564 0.16400002 3.5967114e-39
-0.055721853 0.041583564 0.16400002 3.688907e-39
-0.040236395 0.041451585 0.16400002 7.100874e-39
-0.039463375 0.041552138 0.16400002 4.6115892e-39
-0.038696647 0.041715544 0.164 3.8740241e-39
-0.037992761 0.041891512 0.164 3.7821844e-39
-0.03416539 0.041891512 0.164 4.426472e-39
-0.056432027 0.042381715 0.16400002 3.5967114e-39
-0.055677861 0.042261053 0.164 3.7811026e-39
-0.040210001 0.042419422 0.164 1.2818083e-38
-0.039400533 0.04241943 0.16400002 7.1937871e-39
-0.038652655 0.042419422 0.16400002 3.8740241e-39
-0.037816789 0.042507414 0.16400002 3.5977946e-39
-0.036804959 0.042683382 0.164 3.5055975e-39
-0.034297369 0.042313844 0.164 4.149525e-39
-0.044063766 0.043475252 0.164 2.2312071e-38
-0.041160241 0.043739207 0.164 1.7611179e-38
-0.040368371 0.043409266 0.164 1.5305926e-38
-0.039444525 0.043409262 0.164 1.0605027e-38
-0.038626257 0.043528043 0.164 4.4271979e-39
-0.037728809 0.043475248 0.16400002 3.6885511e-39
-0.03667298 0.043475252 0.16400002 3.3212063e-39
-0.04129222 0.044267122 0.164 1.8256911e-38
-0.039180566 0.044531077 0.16400002 1.0512831e-38
-0.038652655 0.044531077 0.16400002 5.7179395e-39
-0.037728809 0.044531077 0.16400002 3.7807495e-39
-0.036573995 0.044432092 0.16400002 3.2290107e-39
-0.035617154 0.044795033 0.164 3.1368122e-39
-0.0414242 0.045850862 0.164 1.9269265e-38
-0.039136577 0.045498919 0.164 1.0880895e-38
-0.038652655 0.045498922 0.16400002 6.6388168e-39
-0.037728805 0.045498922 0.16400002 3.8729465e-39
-0.036778562 0.045639694 0.164 3.4126844e-39
-0.032449674 0.045850862 0.164 9.4986764e-39
-0.045119591 0.046906687 0.164 2.3234378e-38
-0.0414242 0.046246797 0.164 1.9085953e-38
-0.03904859 0.046114817 0.164 1.0512112e-38
-0.038784631 0.046114817 0.164 8.0217513e-39
-0.037728805 0.046114817 0.164 3.8729479e-39
-0.036541 0.046457954 0.16400002 3.4126844e-39
-0.035485175 0.046642728 0.164 3.2286505e-39
-0.032713629 0.046466753 0.16400002 8.7593135e-39
-0.031561822 0.046498749 0.16400002 7.3767364e-39
-0.030601976 0.046906687 0.164 3.8743801e-39
-0.041160241 0.047170643 0.164 1.8440583e-38
-0.03667298 0.047522586 0.164 3.596717e-39
-0.032872003 0.047434602 0.164 5.1626007e-39
-0.030469999 0.047302622 0.164 4.2417262e-39
-0.029546149 0.047962513 0.164 4.3328443e-39
-0.025058886 0.047962513 0.164 3.5977932e-39
-0.024530973 0.047962513 0.164 3.5977904e-39
-0.03667298 0.048226472 0.164 3.5974372e-39
-0.033241544 0.048490424 0.164 3.4134005e-39
-0.025322841 0.048622403 0.16400002 3.2293708e-39
-0.024342433 0.048528135 0.16400002 3.413762e-39
-0.036409024 0.049810212 0.164 3.3208504e-39
-0.032977585 0.049810212 0.164 4.1488089e-39
-0.025586799 0.049282297 0.164 3.1375339e-39
-0.041160241 0.050470099 0.164 1.9177797e-38
-0.032977585 0.050602078 0.164 3.9647806e-39
-0.04221607 0.051921863 0.164 2.3049986e-38
-0.038520675 0.051921863 0.164 5.349157e-39
-0.032977585 0.05156992 0.164 4.2402885e-39
-0.039136574 0.052537758 0.164 1.0144772e-38
-0.038652651 0.052185819 0.164 6.4555046e-39
-0.03667298 0.052713729 0.164 3.5967184e-39
-0.033241544 0.052977685 0.164 3.4134019e-39
-0.032977585 0.052537758 0.164 4.0566175e-39
-0.040368371 0.053241644 0.164 1.6781422e-38
-0.03746485 0.053505599 0.164 3.9651408e-39
-0.036559854 0.053392474 0.16400002 3.5052416e-39
-0.033241544 0.05337362 0.164 3.4134019e-39
-0.032977585 0.053241644 0.164 4.148453e-39
-0.03746485 0.054033514 0.164 3.8740269e-39
-0.036760967 0.054385457 0.16400002 3.6896329e-39
-0.032845609 0.05429747 0.164 4.7945441e-39
-0.03667298 0.055353295 0.164 3.6896329e-39
-0.032713629 0.055353295 0.164 6.0845612e-39
0.024449186 -0.029378861 0.16500001 5.9948613e-39
0.024449186 -0.028759208 0.16500001 5.9952257e-39
0.023918055 -0.027564161 0.16500001 6.2718126e-39
0.024183622 -0.027696943 0.16500001 6.3640082e-39
0.024396073 -0.026581567 0.16500001 6.7331522e-39
0.025511451 -0.025041282 0.16500001 7.5629185e-39
0.025511451 -0.024377367 0.16500001 7.6551141e-39
0.025511451 -0.022783969 0.16500001 8.2079278e-39
0.025511451 -0.020526657 0.16500001 8.392682e-39
0.0180756 -0.019464394 0.16500001 5.1647391e-39
0.013560975 -0.010169579 0.16500001 1.3366468e-38
0.014092107 -0.010169579 0.16500001 1.2905114e-38
0.013454748 -0.0094259931 0.16500001 1.3643417e-38
0.014324478 -0.0093396837 0.16500001 1.3182054e-38
0.014534716 -0.008664703 0.16500001 1.3366797e-38
0.016747769 0.00071863242 0.16500001 1.0782822e-38
0.017810034 0.00098419853 0.16500001 1.1519681e-38
0.018407557 0.0015817223 0.16500001 1.1335291e-38
0.016659247 0.0027546391 0.16500001 1.0414051e-38
0.017332014 0.0025775952 0.16500001 1.0690275e-38
0.0180756 0.0028431613 0.16500001 1.0874667e-38
0.016747769 0.0031087273 0.16500001 1.0782116e-38
0.017345292 0.0034406851 0.16500001 1.1333493e-38
0.0180756 0.0031087273 0.16500001 1.1149819e-38
0.020996828 0.027806375 0.16500001 9.3110271e-39
0.021660741 0.027806375 0.16500001 9.4954128e-39
0.022236137 0.027717853 0.16500001 1.00457e-38
0.020996828 0.028071942 0.16500001 9.2184756e-39
0.021660743 0.028514555 0.16500001 9.0344445e-39
0.022324659 0.028514551 0.16500001 9.2177539e-39
0.021660741 0.029134206 0.16500001 8.7585792e-39
0.022501701 0.029134206 0.16500001 8.9418915e-39
0.032947306 0.031657085 0.16500001 1.387472e-38
0.032681737 0.033383265 0.16500001 1.3332695e-38
0.032681737 0.034976661 0.16500001 1.1959847e-38
0.032814521 0.03537501 0.16500001 1.1226605e-38
0.030291643 0.036038924 0.16500001 8.0181345e-39
0.033744004 0.036304493 0.16500001 9.2073044e-39
-0.048581507 0.037897889 0.16500001 1.5213008e-38
0.025511453 0.037632324 0.16500001 7.7444329e-39
0.026308151 0.037632324 0.16500001 7.9288242e-39
-0.048581507 0.038732525 0.16500001 1.770337e-38
-0.048647895 0.039358504 0.16500001 1.8348381e-38
-0.048847072 0.040022418 0.16500001 1.880864e-38
-0.046456978 0.041084681 0.16500001 2.0560728e-38
-0.040348954 0.041084681 0.16500001 4.3342834e-39
-0.039729301 0.041261729 0.16500001 3.9662198e-39
-0.038755558 0.041615814 0.16500001 3.7825474e-39
-0.046368454 0.042589556 0.16500001 2.2588661e-38
-0.04566028 0.04257185 0.16500001 2.2771972e-38
-0.044598013 0.042678077 0.16500001 2.1667066e-38
-0.037494116 0.042611688 0.16500001 3.5977932e-39
-0.035196971 0.042359401 0.16500001 3.9654939e-39
-0.046191409 0.04320921 0.16500001 2.314075e-38
-0.045571756 0.043341994 0.16500001 2.3141107e-38
-0.044598013 0.043341994 0.16500001 2.2403905e-38
-0.041145653 0.043607559 0.16500001 1.6964727e-38
-0.039021123 0.043474775 0.16500001 4.7949014e-39
-0.036365464 0.043474775 0.16500001 3.4133991e-39
-0.035341136 0.043550648 0.16500001 3.5052346e-39
-0.034639284 0.043474779 0.16500001 3.7814614e-39
-0.048448723 0.044404257 0.16500001 2.1944375e-38
-0.035037633 0.044005908 0.16500001 3.4133991e-39
-0.035303198 0.045068175 0.16500001 3.2290078e-39
-0.033178668 0.045864873 0.16500001 7.9317066e-39
-0.032435082 0.045652419 0.16500001 4.058414e-39
-0.031585272 0.045864873 0.16500001 3.9654939e-39
-0.024414986 0.045599304 0.16500001 3.8736584e-39
-0.03355046 0.046342887 0.16500001 5.6257369e-39
-0.03224919 0.046130437 0.16500001 5.1647601e-39
-0.031266592 0.046396002 0.16500001 3.9651352e-39
-0.025211684 0.046661571 0.16500001 3.7814628e-39
-0.024592029 0.046484526 0.16500001 3.7814614e-39
-0.043624271 0.047369748 0.16500001 2.3142182e-38
-0.036206122 0.047511384 0.16500001 3.412683e-39
-0.035834331 0.047458269 0.16500001 3.4123229e-39
-0.033709802 0.047458272 0.16500001 3.4133991e-39
-0.030257441 0.047591053 0.16500001 4.1491691e-39
-0.029991874 0.047723833 0.16500001 3.7821844e-39
-0.027070647 0.047723833 0.16500001 3.4134019e-39
-0.025278075 0.047524661 0.16500001 3.5977904e-39
-0.024592031 0.047458265 0.16500001 3.5977904e-39
-0.044598013 0.048387751 0.16500001 2.3234378e-38
-0.033709802 0.048254967 0.16500001 3.3212035e-39
-0.028531261 0.048387751 0.16500001 3.321565e-39
-0.027468996 0.048254967 0.16500001 3.3212063e-39
-0.026240753 0.048487339 0.16500001 3.3212049e-39
-0.025477251 0.048520535 0.16500001 3.3212049e-39
-0.02414942 0.0487861 0.16500001 3.5063164e-39
-0.044332448 0.049317233 0.16500001 2.3234378e-38
-0.036259238 0.049582798 0.16500001 3.2286547e-39
-0.035568766 0.049715579 0.16500001 3.2290107e-39
-0.033709802 0.049715579 0.16500001 3.3212063e-39
-0.023618286 0.049529683 0.16500001 3.4141208e-39
-0.022821588 0.049848363 0.16500001 3.3219251e-39
-0.041411221 0.050113931 0.16500001 1.8901208e-38
-0.0363212 0.050512273 0.16500001 3.2286547e-39
-0.035834331 0.050379496 0.16500001 3.2290107e-39
-0.033842582 0.05055654 0.16500001 3.2290107e-39
-0.022821588 0.050113931 0.16500001 3.3219251e-39
-0.036099896 0.051308975 0.16500001 3.1364591e-39
-0.033816028 0.051441759 0.16500001 3.3212063e-39
-0.042207919 0.052238457 0.16500001 2.1759626e-38
-0.037427727 0.052504025 0.16500001 3.8729451e-39
-0.033776194 0.052570414 0.16500001 3.3212063e-39
-0.017775832 0.052504025 0.16500001 3.0453355e-39
-0.040415347 0.053765465 0.16500001 1.5860183e-38
-0.036365461 0.053300723 0.16500001 3.5974372e-39
-0.033975367 0.053433508 0.16500001 3.2290107e-39
-0.040348954 0.054362986 0.16500001 1.5675432e-38
-0.039817821 0.05449577 0.16500001 1.3094312e-38
-0.036365461 0.054628551 0.16500001 3.5052416e-39
-0.037162162 0.055956382 0.16500001 3.7818313e-39
-0.036365461 0.055850156 0.16500001 3.5974372e-39
-0.035834331 0.055956382 0.16500001 3.5974372e-39
-0.033178668 0.055956382 0.16500001 4.7934651e-39
-0.036524799 0.056381285 0.16500001 3.5974372e-39
-0.035480242 0.056398991 0.16500001 3.5052416e-39
0.023795838 -0.030536558 0.16600001 5.9944998e-39
0.024063013 -0.030269383 0.16600001 5.9944998e-39
0.024063013 -0.028399153 0.16600001 6.1799729e-39
0.023795838 -0.027063275 0.16600001 6.3643641e-39
0.023795838 -0.026796099 0.16600001 6.3643641e-39
0.024063013 -0.02666251 0.16600001 6.4565597e-39
0.025398891 -0.024124345 0.16600001 7.6551141e-39
0.025398891 -0.023589993 0.16600001 7.8387865e-39
0.017650798 -0.020116711 0.16600001 4.8867103e-39
0.017650798 -0.015841901 0.16600001 7.7447804e-39
0.017383622 -0.014506022 0.16600001 9.1262799e-39
0.012841634 -0.0094296848 0.16600001 1.3459758e-38
0.013375987 -0.0091625098 0.16600001 1.3643417e-38
0.013821279 -0.0087172166 0.16600001 1.3459725e-38
0.014177514 -0.0083609829 0.16600001 1.3552266e-38
0.017383622 0.00072298775 0.16600001 1.1059053e-38
0.017330188 0.0016848199 0.16600001 1.0598075e-38
0.018452324 0.0017916901 0.16600001 1.1243097e-38
0.017650798 0.0022726064 0.16600001 1.0690634e-38
0.018452324 0.0023260415 0.16600001 1.1058704e-38
0.020678788 0.02859831 0.16600001 9.1262828e-39
0.02112408 0.028776428 0.16600001 9.1262828e-39
0.020856906 0.029043604 0.16600001 8.9429705e-39
0.02112408 0.029177193 0.16600001 8.9429705e-39
0.022860721 0.02984513 0.16600001 8.6660291e-39
0.02366225 0.02984513 0.16600001 8.8504147e-39
0.022860721 0.030379482 0.16600001 8.6660291e-39
0.02361772 0.030201362 0.16600001 8.8504161e-39
0.03270169 0.03474335 0.16600001 1.2233913e-38
0.033681337 0.034654289 0.16600001 1.2326818e-38
-0.06624236 0.035990167 0.16600001 3.8732983e-39
-0.065708004 0.035990167 0.16600001 3.8732983e-39
-0.063169837 0.035722993 0.16600001 3.7811026e-39
0.033414159 0.035722993 0.16600001 1.0766706e-38
-0.06624236 0.036257345 0.16600001 3.8732983e-39
0.033681337 0.036257345 0.16600001 9.6657616e-39
-0.059028618 0.037326045 0.16600001 3.5967114e-39
-0.058494266 0.037326045 0.16600001 3.5967114e-39
0.025465686 0.038261164 0.16600001 7.9288242e-39
0.026334006 0.038394749 0.16600001 7.6522373e-39
-0.046738535 0.041066505 0.16600001 2.0375613e-38
-0.037654564 0.041868031 0.16600001 3.6899888e-39
-0.047005709 0.042669561 0.16600001 2.2219525e-38
-0.044868305 0.042669561 0.16600001 2.1114257e-38
-0.037387386 0.042535972 0.16600001 3.5977932e-39
-0.036051508 0.042803146 0.16600001 3.7811026e-39
-0.047005709 0.043604672 0.16600001 2.2771973e-38
-0.046738535 0.043738261 0.16600001 2.3048556e-38
-0.036051508 0.043471087 0.16600001 3.4133991e-39
-0.03578433 0.043471087 0.16600001 3.5977904e-39
-0.044333953 0.044005439 0.16600001 2.2312071e-38
-0.03578433 0.044272613 0.16600001 3.3212035e-39
-0.033379752 0.045474902 0.16600001 4.2431612e-39
-0.032377843 0.045474902 0.16600001 3.6899874e-39
-0.025364481 0.045341313 0.16600001 4.0576867e-39
-0.024830131 0.045341317 0.16600001 4.0576867e-39
-0.049143113 0.046410017 0.16600001 2.3049632e-38
-0.048608765 0.046543606 0.16600001 2.3234378e-38
-0.042730898 0.046142843 0.16600001 2.1666704e-38
-0.034181278 0.046142843 0.16600001 4.3353554e-39
-0.033646926 0.046142843 0.16600001 7.5622025e-39
-0.031242346 0.046410017 0.16600001 3.689986e-39
-0.030674597 0.046443418 0.16600001 3.5977904e-39
-0.029609608 0.046469394 0.16600001 3.5055947e-39
-0.028570589 0.046677195 0.16600001 3.689986e-39
-0.02549807 0.046276428 0.16600001 3.7818215e-39
-0.049143113 0.047745895 0.16600001 2.3234379e-38
-0.048608765 0.047478721 0.16600001 2.3325854e-38
-0.045937005 0.047211546 0.16600001 2.3234378e-38
-0.042196546 0.047478721 0.16600001 2.0191224e-38
-0.030654559 0.047318414 0.16600001 3.5977932e-39
-0.029542141 0.047478721 0.16600001 3.4134005e-39
-0.028303415 0.047612309 0.16600001 3.4133991e-39
-0.0273683 0.047745895 0.16600001 3.4133991e-39
-0.025898833 0.047745895 0.16600001 3.689986e-39
-0.049143113 0.048280247 0.16600001 2.3234379e-38
-0.048532426 0.048394751 0.16600001 2.3325854e-38
-0.044667922 0.048347041 0.16600001 2.3234378e-38
-0.034448452 0.048814598 0.16600001 3.2290107e-39
-0.029461175 0.048235718 0.16600001 3.5052374e-39
-0.028303415 0.048013072 0.16600001 3.4134019e-39
-0.027501887 0.048013072 0.16600001 3.4134019e-39
-0.0266113 0.048013072 0.16600001 3.4133991e-39
-0.024429366 0.048681013 0.16600001 3.5977918e-39
-0.044400744 0.049415745 0.16600001 2.3234378e-38
-0.041929372 0.049749713 0.16600001 1.9546578e-38
-0.036425553 0.049295515 0.16600001 3.2290121e-39
-0.03578433 0.049616124 0.16600001 3.2290107e-39
-0.034448452 0.049883302 0.16600001 3.2290107e-39
-0.023494253 0.049562693 0.16600001 3.5063164e-39
-0.022959901 0.049749713 0.16600001 3.2297295e-39
-0.044267159 0.050618034 0.16600001 2.3234378e-38
-0.034448452 0.050150476 0.16600001 3.2290107e-39
-0.022425549 0.050506711 0.16600001 3.2297295e-39
-0.044066776 0.05121918 0.16600001 2.3234378e-38
-0.04255278 0.051575411 0.16600001 2.2220233e-38
-0.036051508 0.051352769 0.16600001 3.136815e-39
-0.021356847 0.05161994 0.16600001 3.1368122e-39
-0.020466261 0.051753532 0.16600001 2.952421e-39
-0.019486619 0.051753532 0.16600001 3.2290078e-39
-0.042730898 0.05228788 0.16600001 2.3049986e-38
-0.021267788 0.052376941 0.16600001 2.9531412e-39
-0.020466261 0.052555058 0.16600001 2.76875e-39
-0.019486617 0.052555054 0.16600001 2.8609442e-39
-0.01857822 0.05260849 0.16600001 2.9531398e-39
-0.039791968 0.053890936 0.16600001 1.1251478e-38
-0.03658586 0.053356584 0.16600001 3.413046e-39
-0.018685091 0.053356584 0.16600001 2.952421e-39
-0.039791968 0.054603402 0.16600001 1.1250756e-38
-0.038188912 0.054959636 0.16600001 3.9662226e-39
-0.034448452 0.05415811 0.16600001 3.3212063e-39
-0.036719449 0.055493988 0.16600001 3.5974386e-39
-0.033646926 0.055360399 0.16600001 3.6899888e-39
-0.036051508 0.056562692 0.16600001 3.5974372e-39
-0.03578433 0.056295514 0.16600001 3.5974372e-39
-0.03578433 0.057364218 0.16600001 3.5974372e-39
0.023401618 -0.030496528 0.16700001 6.1785295e-39
0.02420797 -0.030182945 0.16700001 6.0866954e-39
0.023603205 -0.029376589 0.16700001 6.2710867e-39
0.02420797 -0.029376589 0.16700001 5.9948627e-39
0.017757127 -0.015534156 0.16700001 8.1135672e-39
0.017757127 -0.014862194 0.16700001 8.7585764e-39
0.01318778 -0.008680135 0.16700001 1.3183499e-38
0.014531706 -0.0081425654 0.16700001 1.3367872e-38
0.016681988 0.00099612819 0.16700001 1.0230369e-38
0.015875632 0.012822673 0.16700001 1.1799604e-38
0.013590958 0.01322585 0.16700001 1.2168387e-38
0.014352515 0.013718623 0.16700001 1.2076191e-38
0.015786037 0.013181053 0.16700001 1.1799604e-38
0.016144417 0.013449837 0.16700001 1.1707409e-38
0.013725351 0.014569775 0.16700001 1.2076188e-38
0.014424192 0.014489139 0.16700001 1.2076188e-38
0.013501364 0.015465724 0.16700001 1.2168384e-38
0.014352515 0.015331333 0.16700001 1.2076188e-38
