# .PCD v0.7 - Point Cloud Data file format
VERSION 0.7
FIELDS x y z rgb
SIZE 4 4 4 4
TYPE F F F F
COUNT 1 1 1 1
WIDTH 997
HEIGHT 1
VIEWPOINT 0 0 0 1 0 0 0
POINTS 997
DATA ascii
-0.022860723 0.040095963 0.098000005 2.3234378e-38
0.0038731443 -0.035778027 0.1 4.9810191e-39
0.048938915 -0.027086772 0.1 9.4981579e-39
0.048938915 -0.026925823 0.1 9.4066812e-39
0.052157901 -0.026121078 0.1 1.0144952e-38
0.052157901 -0.025799179 0.1 9.868011e-39
0.04861702 -0.018636942 0.1 9.5903522e-39
0.048562277 -0.017454423 0.099833339 7.9308561e-39
0.048490997 -0.016779836 0.099250004 7.2858552e-39
0.050709356 -0.011152805 0.1 9.7736644e-39
0.05069562 -0.01065604 0.0995 1.0234277e-38
0.047651324 -0.0090604657 0.1 1.0511936e-38
0.049663186 -0.0090604657 0.1 1.0695607e-38
0.047812268 -0.0086312676 0.10000001 1.0695607e-38
0.048520457 -0.0085132364 0.099999994 1.051086e-38
0.049518332 -0.0085132364 0.099999994 1.0050606e-38
0.0504511 -0.0084598623 0.099909097 9.2205397e-39
0.048579145 -0.0076592616 0.10000002 8.7606041e-39
0.049518332 -0.0075153522 0.099999994 7.6549908e-39
0.050516225 -0.0075153536 0.099999994 6.9185188e-39
0.049727567 -0.0067106076 0.10000001 6.1813181e-39
0.050551984 -0.0064925761 0.099925913 6.0894826e-39
0.051448584 -0.0062424666 0.099333338 7.1951253e-39
0.052326795 -0.0062876432 0.099000007 7.1930206e-39
0.05075942 -0.0057098093 0.099888898 6.1816796e-39
0.051451202 -0.0055094957 0.099359989 7.5639008e-39
0.052337419 -0.0055281245 0.098999992 8.5777094e-39
0.051559024 -0.0045896606 0.099633321 7.3794956e-39
0.052368287 -0.0045101126 0.099192299 8.1174249e-39
0.051768932 -0.0035747818 0.10000002 6.6430137e-39
0.052499805 -0.0034869974 0.099880002 6.7348562e-39
0.053123593 -0.0031858212 0.1 6.1816838e-39
0.052640751 -0.0025822623 0.10000002 6.181681e-39
0.053123593 -0.0025822618 0.1 6.3657136e-39
0.052708514 -0.0016144492 0.10000002 6.6426578e-39
0.053123593 -0.0015226799 0.1 6.6426578e-39
0.052962642 -0.00077158393 0.1 6.4593483e-39
0.053123593 -0.00063745963 0.1 6.2749585e-39
0.053123593 0.0014817044 0.1 6.0905644e-39
0.052748039 0.0026172902 0.10000001 7.8422982e-39
0.053123593 0.0023991144 0.1 7.842301e-39
0.051889647 0.0037618175 0.1 8.7628069e-39
0.052544173 0.0034935684 0.099999979 8.7635286e-39
0.053123593 0.0034935689 0.1 8.7635328e-39
0.051728703 0.0045880233 0.10000002 9.5932907e-39
0.052499738 0.0045827366 0.099880002 9.6854905e-39
0.051570747 0.0055280607 0.099611118 9.777326e-39
0.052418314 0.0054563386 0.099444449 9.4085463e-39
0.050870307 0.0061492301 0.1 9.5017971e-39
0.051529024 0.0063895602 0.099379294 8.8564459e-39
0.052353352 0.00645953 0.098999985 9.3170681e-39
0.051807243 0.0072311056 0.099857144 8.6713344e-39
0.052412935 0.0074764811 0.099333331 9.2248711e-39
0.050727446 0.0087633729 0.099533334 7.8419184e-39
0.05152183 0.008653298 0.0995 8.0263153e-39
0.052402448 0.0086428877 0.099071428 7.4727786e-39
0.050592896 0.0095752236 0.099281237 8.3028952e-39
0.051556647 0.0095454082 0.098999992 7.6568083e-39
0.052333433 0.0094537884 0.098999992 7.4727688e-39
0.049815193 0.010521683 0.10000001 8.8567864e-39
0.050511729 0.01051469 0.099205859 9.1322971e-39
0.051556654 0.010533314 0.098999992 9.1319426e-39
0.052185159 0.010575805 0.099000007 8.9475527e-39
0.049776074 0.01162483 0.099769242 9.685122e-39
0.050497688 0.011490468 0.099171415 9.5932837e-39
0.051556647 0.01152122 0.098999992 9.1326755e-39
0.052146208 0.01136188 0.099000007 9.0404798e-39
0.047844462 0.012410154 0.1 9.224127e-39
0.048568733 0.01260329 0.10000001 1.0054255e-38
0.049537081 0.0125378 0.099666648 1.0053906e-38
0.050547495 0.012509124 0.098999985 8.5787688e-39
0.051547796 0.012479031 0.098999992 8.3025435e-39
0.052114341 0.012859674 0.099000007 9.6851038e-39
0.041487724 0.013804208 0.0995 1.0054968e-38
0.048663009 0.013575885 0.10000002 9.5003454e-39
0.049543336 0.013520035 0.099863641 9.0397302e-39
0.050564241 0.013488169 0.099142849 8.1181424e-39
0.051490258 0.013576704 0.098999999 8.8557116e-39
0.052167457 0.013417362 0.099000007 9.5014272e-39
0.041696206 0.01453468 0.1 9.6868876e-39
0.042535443 0.014714024 0.10000002 9.4103063e-39
0.043317191 0.014530082 0.10000002 8.8567836e-39
0.04778545 0.014786835 0.1 1.1805239e-38
0.048555676 0.014516228 0.099766642 1.0329744e-38
0.049492061 0.014491854 0.099392831 9.5925438e-39
0.050518654 0.014481037 0.099483863 9.0404546e-39
0.051315427 0.014399447 0.099400006 9.4092498e-39
0.041720964 0.01545333 0.10000002 1.0147496e-38
0.042468764 0.015500375 0.099999994 9.7787189e-39
0.04349884 0.015500378 0.099999994 9.1330118e-39
0.046648484 0.015663801 0.10000002 1.0239352e-38
0.047537323 0.015517812 0.099999994 1.1713405e-38
0.0484895 0.015475704 0.099533319 1.0699247e-38
0.049332023 0.01532331 0.098999992 9.776928e-39
0.041785616 0.016458917 0.10000001 9.2255437e-39
0.042468756 0.01649826 0.099999994 8.9486037e-39
0.043437384 0.016523136 0.1 9.3173974e-39
0.04411044 0.016771875 0.1 9.0400945e-39
0.045755699 0.016673516 0.10000001 9.040833e-39
0.046506472 0.016511526 0.099961527 9.2255704e-39
0.047470167 0.016527457 0.099633329 1.0424104e-38
0.048434548 0.016441323 0.099576913 1.0515582e-38
0.041830331 0.017603444 0.1 8.3958069e-39
0.042468756 0.017528336 0.099999994 8.9489709e-39
0.043498829 0.017528336 0.099999994 9.2259137e-39
0.044438545 0.017610298 0.099800006 8.8567836e-39
0.045525171 0.017586228 0.09995652 8.4872977e-39
0.046492811 0.017520906 0.099499971 8.9489821e-39
0.047461625 0.017512392 0.098999985 1.0147881e-38
0.048201665 0.017533638 0.099000007 1.0791823e-38
0.04172096 0.018573266 0.10000002 8.2106996e-39
0.042468756 0.018526221 0.099999994 8.4872752e-39
0.043525387 0.018536845 0.099709667 9.0408035e-39
0.044336628 0.018173093 0.099428572 8.7642251e-39
0.045571908 0.01846722 0.099130422 8.671319e-39
0.046457097 0.018486436 0.099038452 9.2252116e-39
0.047461618 0.018500295 0.098999985 9.502509e-39
0.048210513 0.018635737 0.099000007 9.9627725e-39
0.041696198 0.019524103 0.10000002 8.1181424e-39
0.042468764 0.019524105 0.099999994 8.2110541e-39
0.043488529 0.019500382 0.09976922 8.8564095e-39
0.04420371 0.019751098 0.099200003 8.9485981e-39
0.045601331 0.019193424 0.099000007 8.6720336e-39
0.046139102 0.01907392 0.099000007 8.7642363e-39
0.047539014 0.019119445 0.099000014 8.9496939e-39
0.048369855 0.01928106 0.098999999 9.5943459e-39
0.041803505 0.020366406 0.1 7.6578831e-39
0.042487543 0.020507235 0.099999994 8.0273803e-39
0.04349884 0.020521987 0.099999994 8.6723756e-39
0.044285547 0.020497281 0.099588245 8.672014e-39
0.045560669 0.020517539 0.099199995 7.9337483e-39
0.04645054 0.020783199 0.098999999 8.7638691e-39
0.047281034 0.020720428 0.099000007 9.3177618e-39
0.041776679 0.021680823 0.1 7.6582418e-39
0.042541187 0.021479635 0.10000002 8.8567724e-39
0.043498836 0.021439401 0.10000001 9.9627486e-39
0.044128895 0.021451708 0.0995 9.3166604e-39
0.045103393 0.021782694 0.099000007 7.8415443e-39
0.046570994 0.021497563 0.098999992 9.1322929e-39
0.047281034 0.021527754 0.098999992 9.3174002e-39
0.041857153 0.022002721 0.1 7.5660462e-39
0.04256393 0.0223876 0.1 8.8571227e-39
0.043533403 0.022483077 0.099828549 9.133697e-39
0.044150013 0.022119021 0.099800006 9.1326194e-39
0.045315847 0.022765288 0.099000007 7.8415457e-39
0.046445198 0.022596169 0.098999992 9.501423e-39
0.047281034 0.022597097 0.099000007 9.5939787e-39
0.039685845 0.02353543 0.099000007 7.2887306e-39
0.040275905 0.023710128 0.099200003 7.1054184e-39
0.041052405 0.023934111 0.1 7.1976168e-39
0.042549238 0.023612216 0.10000001 7.3820039e-39
0.043508418 0.023529721 0.099851839 7.6582236e-39
0.044138126 0.023754604 0.099250004 7.7500591e-39
0.045661084 0.023754522 0.099000007 8.1181326e-39
0.046473712 0.023503559 0.098999985 9.5932543e-39
0.047304273 0.023475679 0.098999992 9.501416e-39
0.05227368 0.023057412 0.099000007 7.9341001e-39
0.040891457 0.02409506 0.1 7.197614e-39
0.042559475 0.024299903 0.10000002 7.5663965e-39
0.043486763 0.024215771 0.10000001 7.8422632e-39
0.044412699 0.024585772 0.099315785 7.6575076e-39
0.045485806 0.024523329 0.098999985 8.1177795e-39
0.046473712 0.024523336 0.098999985 8.5787548e-39
0.047218267 0.024433525 0.098999999 8.3025182e-39
0.044629458 0.025399875 0.099571429 7.8419002e-39
0.045485809 0.025511242 0.098999985 7.4727674e-39
0.046473708 0.025511246 0.098999985 7.748634e-39
0.04701547 0.025511241 0.099000007 8.2096065e-39
0.044731248 0.026141414 0.10000001 8.3028826e-39
0.045465503 0.026484203 0.099370353 7.4727618e-39
0.046473712 0.026499158 0.098999985 7.748627e-39
0.04701547 0.026403546 0.099000007 8.1181284e-39
0.051689435 0.026828453 0.099000007 8.3028728e-39
0.05227368 0.026562886 0.099000007 8.2106771e-39
0.04584698 0.027412698 0.099000007 7.1036205e-39
0.046501383 0.027443601 0.099210523 7.6560698e-39
0.047373589 0.027626025 0.099062487 7.7486256e-39
0.05163632 0.027359584 0.099000007 8.4872668e-39
0.046717815 0.028247546 0.1 7.7486242e-39
0.047483608 0.028348282 0.099263154 8.1174053e-39
0.048303466 0.028647581 0.098999999 8.9471646e-39
0.048635423 0.029218549 0.099000007 8.6712966e-39
0.049538348 0.02959034 0.098999999 8.578738e-39
0.050096039 0.029537225 0.099000007 8.7631264e-39
-0.032259949 0.032544892 0.1 4.1513327e-39
-0.031376909 0.033853028 0.099666677 4.3357239e-39
-0.030742303 0.033812843 0.099000007 4.5201152e-39
-0.030463455 0.034310773 0.099000007 4.7967035e-39
-0.027555507 0.035645247 0.099000007 2.3234378e-38
-0.027454056 0.036305703 0.0995 2.3234378e-38
-0.025741505 0.039063334 0.1 2.3234378e-38
-0.024292963 0.040672824 0.1 2.3234378e-38
-0.023093995 0.040744118 0.099000007 2.3234378e-38
-0.022934655 0.040903457 0.099000007 2.3234378e-38
1.0467493e-05 -0.034347661 0.101 8.2010516e-39
0.048940629 -0.027438916 0.101 9.3126933e-39
0.049211562 -0.027574383 0.101 9.4970817e-39
0.052137613 -0.026165543 0.101 9.9602053e-39
0.052354362 -0.025894612 0.101 9.868011e-39
0.052191805 -0.022318324 0.101 1.0329341e-38
0.051866684 -0.021586809 0.101 8.5769331e-39
0.052328695 -0.021625308 0.10099997 8.6687686e-39
0.053573553 -0.02146489 0.101 1.0142443e-38
0.048940629 -0.020042501 0.101 1.0973266e-38
0.049509589 -0.020140037 0.101 9.8669349e-39
0.052625295 -0.020855295 0.101 8.3921859e-39
0.048810583 -0.019506056 0.101 1.0788877e-38
0.049558353 -0.019424776 0.101 9.0368281e-39
0.04889999 -0.018294996 0.101 9.4977992e-39
0.049495246 -0.018474286 0.10099998 7.8386618e-39
0.048656154 -0.017482203 0.101 9.4052462e-39
0.049509589 -0.017799195 0.101 7.193661e-39
0.048696794 -0.016872607 0.101 8.483304e-39
0.051135171 -0.011264333 0.101 9.6818289e-39
0.0514061 -0.010559912 0.101 1.032683e-38
0.052159291 -0.010679121 0.101 1.0603054e-38
0.04780272 -0.0091510704 0.101 1.0419741e-38
0.048656151 -0.0091510704 0.101 1.0695607e-38
0.049374118 -0.0091510704 0.101 1.0695607e-38
0.051053893 -0.0099638635 0.101 1.0880713e-38
0.047782399 -0.0084805153 0.101 1.0511218e-38
0.048127837 -0.00801316 0.101 1.0603412e-38
0.046632294 -0.0074387859 0.10099998 9.5889341e-39
0.047558885 -0.0074103377 0.10099999 9.774033e-39
0.048442796 -0.0072613265 0.10099998 8.2996358e-39
0.049211562 -0.0070919939 0.101 6.6415718e-39
0.047911093 -0.0066585043 0.101 7.0103529e-39
0.048550494 -0.0064688525 0.10099997 6.0894826e-39
0.049504805 -0.006435385 0.10099998 5.7210644e-39
0.050241098 -0.0062250146 0.101 5.9050956e-39
0.048727274 -0.0056052594 0.10099998 5.5359585e-39
0.049558353 -0.005542268 0.101 5.7199896e-39
0.050466876 -0.0055025318 0.10099998 5.9047382e-39
0.051094532 -0.0052903024 0.101 5.9050956e-39
0.04889999 -0.0047619864 0.101 5.4437643e-39
0.049605642 -0.004547704 0.10099998 5.6281555e-39
0.050484944 -0.0045018927 0.10099997 5.9043767e-39
0.051175807 -0.0044504157 0.10099999 6.5497377e-39
0.049825672 -0.003606014 0.101 5.9050941e-39
0.050484937 -0.0034940294 0.10099997 6.1813181e-39
0.05134945 -0.0034689063 0.10099998 6.3660681e-39
0.052029245 -0.0031364004 0.101 6.642655e-39
0.050541207 -0.0025862018 0.10099999 6.1816782e-39
0.051411521 -0.0025674454 0.10099997 6.3660695e-39
0.052191805 -0.0025674449 0.10099999 6.6426578e-39
0.050674587 -0.001808838 0.101 5.9972884e-39
0.051411513 -0.0015379066 0.101 7.195833e-39
0.052311946 -0.0014613394 0.10099999 7.1036373e-39
0.051551133 -0.00047808824 0.10099998 8.0252391e-39
0.052419387 -0.00043792662 0.101 6.8281323e-39
0.0531509 -0.0003078797 0.101 6.0902099e-39
0.051674567 0.00052855851 0.101 6.5508237e-39
0.052419379 0.00056993694 0.101 6.1824041e-39
0.053293593 0.00053923152 0.10099998 6.3667982e-39
0.051866684 0.0014965213 0.101 7.1047149e-39
0.052419383 0.0014965213 0.10099997 6.6448158e-39
0.053085878 0.0014965215 0.101 6.1838362e-39
0.0518125 0.0024989664 0.101 7.3820067e-39
0.05236914 0.0023758155 0.10099998 6.9206712e-39
0.053045236 0.0021873955 0.101 6.6437312e-39
0.051572051 0.0034573851 0.10099998 7.8415639e-39
0.052083433 0.0032575733 0.101 7.2887475e-39
0.050656527 0.0046844776 0.101 9.7776848e-39
0.051320486 0.0045103584 0.101 9.2241508e-39
0.050647497 0.005560488 0.101 9.5010979e-39
0.051229995 0.0055198479 0.10099999 9.4088966e-39
0.050527968 0.0065214969 0.10099998 9.2237823e-39
0.051201675 0.0066318964 0.101 8.5794821e-39
0.049665891 0.0077050114 0.10099999 8.8542991e-39
0.050484937 0.0074949353 0.10099997 7.8415695e-39
0.051392555 0.0075111911 0.10099999 7.0125263e-39
0.052218899 0.0078092162 0.101 8.5798506e-39
0.048894186 0.0085910456 0.101 8.2085584e-39
0.049558353 0.0085028 0.101 7.7486578e-39
0.050472103 0.0084822662 0.10099997 6.4589924e-39
0.051338371 0.0081411069 0.101 7.1958372e-39
0.052447248 0.0082775392 0.10099999 8.7638845e-39
0.048870958 0.0093806162 0.101 7.563891e-39
0.049558353 0.0094212573 0.10099997 7.1036317e-39
0.050310764 0.0093806162 0.101 6.7348492e-39
0.048859347 0.01038848 0.101 8.3947223e-39
0.049516976 0.010341189 0.10099998 8.3950824e-39
0.050241098 0.010030851 0.101 8.0262957e-39
0.047965277 0.01133132 0.101 9.8695048e-39
0.048609253 0.011537643 0.101 9.2244984e-39
0.049489263 0.011453238 0.10099999 9.1323041e-39
0.046881557 0.012902719 0.101 1.0329744e-38
0.04755076 0.012656173 0.10099997 9.9609718e-39
0.048525199 0.012451167 0.101 9.2241312e-39
0.04926575 0.012144113 0.101 9.1319384e-39
0.042546656 0.013769698 0.101 9.869502e-39
0.045671389 0.013643265 0.101 1.079146e-38
0.046565466 0.013552956 0.10099998 1.0791446e-38
0.047542632 0.013525861 0.10099997 1.0514499e-38
0.048319951 0.013503694 0.101 1.0422304e-38
0.041607428 0.01447412 0.101 9.8702097e-39
0.042478923 0.014308173 0.10099998 9.5025062e-39
0.043218564 0.014159839 0.101 8.8567808e-39
0.044623788 0.01440187 0.10099998 9.4096085e-39
0.045494385 0.014452442 0.101 9.9627809e-39
0.046534762 0.014452445 0.101 1.0792173e-38
0.047525018 0.01443348 0.10099999 1.0976197e-38
0.048168473 0.014216736 0.101 1.0698887e-38
0.041495442 0.015444052 0.101 1.0055666e-38
0.044632819 0.015458501 0.10099998 8.9486275e-39
0.045494389 0.015460309 0.101 8.7653209e-39
0.04645092 0.015369619 0.10099997 9.6865485e-39
0.047282532 0.015135193 0.101 1.1068391e-38
0.03902455 0.016858313 0.101 1.0239697e-38
0.041598395 0.01639773 0.101 9.2255451e-39
0.044876661 0.016262265 0.101 8.6720434e-39
0.045453012 0.016422359 0.10099998 8.4887354e-39
0.046231318 0.016099706 0.101 9.0422665e-39
0.041706771 0.017476037 0.101 8.1192172e-39
0.045310151 0.017183432 0.101 8.9482716e-39
0.041499056 0.01850196 0.101 9.0408204e-39
0.04138165 0.019524273 0.101 9.5010684e-39
0.040948164 0.020597162 0.101 9.6865107e-39
0.041493412 0.020597162 0.10099998 8.4869095e-39
0.045689452 0.020705534 0.101 8.2103226e-39
0.040853333 0.021586061 0.10099999 8.3035832e-39
0.04153138 0.021521181 0.10099997 7.657509e-39
0.042239599 0.021428019 0.101 7.5660462e-39
0.040853336 0.022385309 0.101 7.7504221e-39
0.04154421 0.022466585 0.10099998 7.5653203e-39
0.042221535 0.022602053 0.101 7.5653203e-39
0.04069078 0.023848336 0.101 7.1054184e-39
0.041587241 0.023427596 0.10099998 7.1047009e-39
0.042264111 0.023395494 0.10099999 7.1972595e-39
0.039999902 0.024173453 0.101 7.2887335e-39
0.040673364 0.024614682 0.101 7.1972525e-39
0.041571304 0.024485024 0.10099999 7.1054198e-39
0.042338248 0.024711149 0.10099999 7.2898153e-39
0.043594256 0.024895936 0.101 7.9351777e-39
0.044118058 0.024932062 0.101 7.749706e-39
0.042625848 0.025536444 0.10099999 8.4879969e-39
0.04347866 0.025555203 0.10099997 7.4734862e-39
0.044190302 0.025582293 0.101 7.196898e-39
0.042663362 0.026386751 0.10099999 7.8415513e-39
0.04340589 0.026433798 0.10099998 6.7352079e-39
0.04445672 0.026408637 0.10099999 8.2106883e-39
0.045039222 0.026936952 0.101 8.6716581e-39
0.042925958 0.027099511 0.101 6.0905658e-39
0.04334861 0.027294582 0.101 6.827405e-39
0.04406387 0.027912304 0.101 7.6575132e-39
0.0452668 0.027294582 0.101 8.1184829e-39
0.053004596 0.027262069 0.101 8.2106771e-39
-0.03266383 0.033764414 0.101 4.2435283e-39
-0.030875681 0.035064884 0.101 4.9810934e-39
-0.027461948 0.0377471 0.101 2.3234378e-38
-0.026974272 0.038316056 0.101 2.3234378e-38
0.00064379122 -0.036094896 0.10200001 1.0504118e-38
-0.00029952428 -0.035399135 0.10200001 9.3070306e-39
0.00034916794 -0.035631701 0.10200001 9.9513084e-39
-0.00037248794 -0.03479718 0.10200001 8.2939703e-39
0.053693559 -0.031076038 0.10200001 1.0972192e-38
0.054120399 -0.031240206 0.10200001 1.0603057e-38
0.050610844 -0.030236959 0.10200001 9.6825464e-39
0.05146087 -0.030378327 0.10200001 1.0881084e-38
0.052092917 -0.030214157 0.10200001 1.2262567e-38
0.053638835 -0.030747702 0.10200001 1.0972551e-38
0.054115709 -0.030630438 0.10200001 1.0603054e-38
0.050484072 -0.029549282 0.10200001 1.0419744e-38
0.051460873 -0.02946719 0.10200001 1.1526081e-38
0.052113444 -0.029536961 0.10200001 1.1985974e-38
0.049343109 -0.028285181 0.10200001 9.7740232e-39
0.051460873 -0.028695602 0.10200001 1.11573e-38
0.052051879 -0.028777685 0.10200001 1.1157654e-38
0.048871122 -0.027607987 0.10200001 9.6814702e-39
0.049359523 -0.027431507 0.10200001 9.2208578e-39
0.049425192 -0.026971836 0.10200001 9.0368281e-39
0.052318655 -0.026438288 0.10200001 9.6832653e-39
0.051641464 -0.022101514 0.10200001 1.0329341e-38
0.0521066 -0.022320405 0.10200001 1.0053117e-38
0.053310502 -0.022046791 0.10200001 9.3134107e-39
0.049687862 -0.021193117 0.10200001 1.1434237e-38
0.05048408 -0.021357279 0.10200001 1.0697042e-38
0.051460877 -0.021455783 0.10200001 9.3148457e-39
0.052236568 -0.021205425 0.10200001 7.9319322e-39
0.053324178 -0.021554286 0.10200001 8.7606041e-39
0.054103978 -0.021143865 0.10200001 9.6814702e-39
0.0488506 -0.020323025 0.10200001 1.0605208e-38
0.049495544 -0.020686541 0.10200001 1.106546e-38
0.050545402 -0.020540306 0.10200001 8.9446338e-39
0.051449936 -0.020452995 0.10200001 8.0226915e-39
0.052478716 -0.020437941 0.10200001 8.023409e-39
0.053219303 -0.020423351 0.10200001 8.8524396e-39
0.054076616 -0.020240942 0.10200001 9.4048875e-39
0.050640035 -0.019551435 0.10200001 7.3776907e-39
0.052817997 -0.019693712 0.10200001 8.0226915e-39
0.053406265 -0.019502185 0.10200001 8.1152445e-39
0.054076616 -0.019447463 0.10200001 8.2074387e-39
0.048877966 -0.018489815 0.10200001 1.1156219e-38
0.0504102 -0.018763429 0.10200001 7.1925848e-39
0.05345213 -0.018599261 0.10200001 7.6542734e-39
0.054103982 -0.018533591 0.10200001 8.3914685e-39
0.048768517 -0.017942587 0.10200001 1.0972548e-38
0.049753528 -0.017285915 0.10200001 7.4698849e-39
0.053693559 -0.017942587 0.10200001 7.8390206e-39
0.054103978 -0.017942587 0.10200001 8.6676938e-39
0.051559374 -0.011334819 0.10200001 9.5899934e-39
0.052257091 -0.011293777 0.10200001 1.0049888e-38
0.051723544 -0.010883356 0.10200001 1.0142083e-38
0.047750674 -0.0093401754 0.10200001 1.0511936e-38
0.048385456 -0.0095700109 0.10200001 1.0327547e-38
0.05024603 -0.0095700109 0.10200001 1.0511936e-38
0.046962667 -0.0080924975 0.10200001 1.0050606e-38
0.04770143 -0.0082019428 0.10200001 1.0419383e-38
0.04597766 -0.0071895733 0.10200001 8.6659324e-39
0.046535827 -0.0071074897 0.10200001 8.4819111e-39
0.04720892 -0.0071074893 0.10200001 9.1279839e-39
0.04597766 -0.0067791529 0.10200001 8.2039033e-39
0.04655657 -0.0065112985 0.10200001 8.2064046e-39
0.047532931 -0.0064767371 0.10200001 7.2869454e-39
0.048111845 -0.0062866481 0.10200001 6.3657066e-39
0.04682586 -0.0058488664 0.10200001 6.8263204e-39
0.047571454 -0.0055820942 0.10200001 6.3660653e-39
0.048381556 -0.0054892604 0.10200001 5.9972912e-39
0.047856469 -0.004663208 0.10200001 6.4582665e-39
0.048556466 -0.0045286813 0.10200001 5.9972912e-39
0.049392361 -0.0042181299 0.10200001 5.4437643e-39
0.048611484 -0.0035528915 0.10200001 5.7207057e-39
0.049494315 -0.0035044299 0.10200001 5.996931e-39
0.050081864 -0.0032495377 0.10200001 6.089484e-39
0.04868643 -0.0024779476 0.10200001 6.0898427e-39
0.049507275 -0.0024779476 0.10200001 6.6430179e-39
0.050256975 -0.0024232245 0.10200001 6.1820398e-39
0.048702851 -0.0015914397 0.10200001 6.6426536e-39
0.049507271 -0.0015668147 0.10200001 6.4589854e-39
0.050443035 -0.0015257727 0.10200001 6.1827586e-39
0.051066872 -0.0011153519 0.10200001 6.9192447e-39
0.050902706 -0.00086909975 0.10200001 6.828128e-39
0.05120578 -0.00038922357 0.10200001 7.9333994e-39
0.051406927 0.00052632956 0.10200001 7.1961917e-39
0.051668823 0.0015113383 0.10200001 7.2883915e-39
0.050592609 0.002614913 0.10200001 7.8422828e-39
0.051513772 0.0024872269 0.10200001 7.9348287e-39
0.050548449 0.0034856766 0.10200001 8.1188795e-39
0.051219311 0.0034344508 0.10200001 8.3029064e-39
0.049753528 0.004712617 0.10200001 9.1330216e-39
0.050380349 0.0044514406 0.10200001 9.3170555e-39
0.051066872 0.0040559447 0.10200001 9.2245082e-39
0.049650919 0.0054924162 0.10200001 9.6847604e-39
0.050328109 0.0054103313 0.10200001 9.8695188e-39
0.049520236 0.0063629393 0.10200001 9.500372e-39
0.050256982 0.00633241 0.10200001 9.4078218e-39
0.049538851 0.0073645641 0.10200001 9.77661e-39
0.050147533 0.0071423054 0.10200001 9.2241508e-39
0.048789039 0.0086936941 0.10200001 9.3156262e-39
0.047947679 0.0097197462 0.10200001 9.5007237e-39
0.048532523 0.0095863603 0.10200001 8.2092674e-39
0.047877319 0.010622671 0.10200001 9.1319328e-39
0.048481226 0.010491336 0.10200001 8.4869207e-39
0.041873455 0.011717125 0.10200001 1.1252795e-38
0.042430196 0.011543439 0.10200001 1.0699607e-38
0.043022633 0.011443512 0.10200001 9.96275e-39
0.046610884 0.011498234 0.10200001 9.5007167e-39
0.047553677 0.011509179 0.10200001 9.4088756e-39
0.048296534 0.011422992 0.10200001 9.5014384e-39
0.041873455 0.012527022 0.10200001 1.1252804e-38
0.042431626 0.01252702 0.10200001 1.106841e-38
0.043022633 0.012633731 0.10200001 1.0515236e-38
0.045731407 0.012647412 0.10200001 1.005423e-38
0.046535827 0.012527022 0.10200001 1.0053516e-38
0.047291007 0.012337316 0.10200001 1.023791e-38
0.04164362 0.013380694 0.10200001 1.051523e-38
0.042452361 0.013439449 0.10200001 1.0791461e-38
0.043145761 0.013557175 0.10200001 9.7776665e-39
0.044719037 0.013796587 0.10200001 9.9624193e-39
0.045433313 0.01346537 0.10200001 1.0883298e-38
0.046376351 0.013225908 0.10200001 1.0607056e-38
0.040724277 0.014726873 0.10200001 9.3174101e-39
0.041319385 0.014583228 0.10200001 9.7783854e-39
0.038699538 0.015711883 0.10200001 8.6720336e-39
0.03950474 0.015782243 0.10200001 8.8560606e-39
0.040482853 0.015470457 0.10200001 8.9482674e-39
0.041191526 0.015370917 0.10200001 9.3174073e-39
0.038790744 0.016295591 0.10200001 8.8567626e-39
0.039509431 0.016434222 0.10200001 9.225185e-39
0.040436983 0.016434222 0.10200001 9.4088742e-39
0.041271508 0.016468879 0.10200001 9.4088728e-39
0.03963558 0.01744861 0.10200001 1.0884357e-38
0.040436983 0.017452065 0.10200001 1.0515589e-38
0.041298866 0.017452063 0.10200001 9.2241312e-39
0.039681327 0.018464111 0.10200001 1.0148572e-38
0.040436983 0.018502742 0.10200001 1.0332253e-38
0.041237302 0.018471958 0.10200001 9.6858184e-39
0.038918428 0.019980254 0.10200001 9.2258927e-39
0.039560173 0.019599682 0.10200001 9.3191519e-39
0.040436979 0.019553414 0.10200001 9.9641667e-39
0.0411347 0.019553417 0.10200001 1.0424086e-38
0.038845465 0.020618685 0.10200001 8.7642167e-39
0.039509431 0.02057126 0.10200001 8.8571143e-39
0.040436983 0.02057126 0.10200001 9.4106328e-39
0.041079972 0.020500118 0.10200001 9.8712565e-39
0.038863707 0.021430405 0.10200001 7.8415611e-39
0.039509431 0.021589102 0.10200001 8.0266572e-39
0.040421866 0.021570092 0.10200001 8.5801701e-39
0.039509434 0.02252486 0.10200001 7.6575216e-39
0.040370684 0.022543807 0.10200001 7.8426191e-39
0.041052613 0.022771113 0.10200001 8.0262929e-39
0.039546546 0.023434922 0.10200001 7.841917e-39
0.040436983 0.023460615 0.10200001 7.5660434e-39
0.041189421 0.023537232 0.10200001 7.3812864e-39
0.039848711 0.024303349 0.10200001 7.7493543e-39
0.040297441 0.024675462 0.10200001 7.1972553e-39
0.040669557 0.025315719 0.10200001 7.2894481e-39
0.041440647 0.025554506 0.10200001 7.8419016e-39
0.042157017 0.02559182 0.10200001 7.6582348e-39
0.041474763 0.026468804 0.10200001 9.225185e-39
0.042223681 0.026536031 0.10200001 9.5017733e-39
0.044237476 0.026809651 0.10200001 7.4727702e-39
0.041873455 0.027449904 0.10200001 9.8701719e-39
0.042431626 0.027449906 0.10200001 8.3947041e-39
0.043474093 0.027634595 0.10200001 6.7352107e-39
0.044467311 0.027449902 0.10200001 8.4872752e-39
0.045197863 0.027573032 0.10200001 8.7642139e-39
0.041873455 0.028106578 0.10200001 8.3021469e-39
0.042465888 0.028359968 0.10200001 6.8270392e-39
0.043383799 0.028303578 0.10200001 6.6426578e-39
0.044308614 0.028133938 0.10200001 7.7493529e-39
-0.033260841 0.033387318 0.10200001 4.0591371e-39
-0.03298723 0.033113707 0.10200001 4.1513327e-39
-0.025189243 0.04050127 0.10200001 2.3234378e-38
-0.02494299 0.04050127 0.10200001 2.3234378e-38
-0.0026674161 -0.037209149 0.104 9.3113747e-39
-0.00032399589 -0.037125453 0.104 1.032009e-38
0.0012940798 -0.037153352 0.104 1.0136427e-38
-0.003139101 -0.036630329 0.10300001 9.2195434e-39
-0.002630159 -0.036482081 0.1032 9.4035745e-39
-0.0006125751 -0.036317941 0.10325001 1.0136789e-38
0.00037538563 -0.036785055 0.10300001 1.0687432e-38
0.0012184834 -0.036496129 0.103 1.0228261e-38
-0.0024759902 -0.035856701 0.10300001 9.3121061e-39
-0.00081821351 -0.035580404 0.10300001 9.0336976e-39
0.05390944 -0.032020148 0.104 1.16183e-38
0.0543558 -0.032187536 0.104 1.1249515e-38
0.052535236 -0.031424217 0.1038 1.0144609e-38
0.053537413 -0.031402159 0.1036875 1.1618289e-38
0.054109454 -0.031546485 0.10300001 1.0972558e-38
0.049733564 -0.03011588 0.10350001 1.0512663e-38
0.050403208 -0.03058897 0.10328571 9.8669391e-39
0.05264508 -0.030883372 0.10300001 1.1894514e-38
0.053888414 -0.030883372 0.10300001 1.1249132e-38
0.05420449 -0.030395979 0.10335714 1.115586e-38
0.049618341 -0.029481431 0.10306252 1.0603773e-38
0.050455902 -0.029365366 0.10331251 1.0142441e-38
0.053072505 -0.029509339 0.104 1.1249131e-38
0.054543938 -0.029537322 0.10368001 1.0603057e-38
0.055081148 -0.029442385 0.10399999 9.9573368e-39
0.048818566 -0.028034005 0.10350001 1.0695248e-38
0.04946354 -0.028663693 0.10316668 1.0419024e-38
0.050666064 -0.028499437 0.10341177 9.8662174e-39
0.051458813 -0.028385233 0.10330436 1.0511937e-38
0.052344438 -0.028570138 0.10358333 1.0696683e-38
0.054788221 -0.028421327 0.10399998 1.0050967e-38
0.055081148 -0.028371107 0.10399999 9.4059637e-39
0.048783939 -0.027675774 0.10325 1.0326471e-38
0.049379405 -0.027356576 0.10366666 9.0364693e-39
0.050059538 -0.027584389 0.104 9.1279461e-39
0.051442064 -0.027725903 0.10375001 1.0051682e-38
0.05256667 -0.027201897 0.10350001 9.1297398e-39
0.053239893 -0.027500695 0.104 9.7754581e-39
0.055081148 -0.027668081 0.104 9.221934e-39
0.052485298 -0.026509708 0.10383334 8.6691273e-39
0.053323582 -0.026580065 0.104 9.4988768e-39
0.047653347 -0.025638513 0.10399999 1.0326471e-38
0.048084371 -0.025592482 0.10399999 9.2215753e-39
0.052793529 -0.025938416 0.104 8.8538773e-39
0.051733408 -0.02314863 0.104 9.2237375e-39
0.052319266 -0.02314863 0.104 1.0052765e-38
0.05070325 -0.022173222 0.1032 1.0513745e-38
0.051517487 -0.022549955 0.1031 1.0605568e-38
0.052313529 -0.022760268 0.10300001 1.0237147e-38
0.047878977 -0.021268271 0.10300001 9.4971532e-39
0.048293419 -0.021226825 0.10300001 8.3914979e-39
0.049817257 -0.021453599 0.10350001 1.0696683e-38
0.050158419 -0.02193138 0.10300001 1.0421195e-38
0.054296624 -0.021250755 0.10340001 9.1286636e-39
0.053888414 -0.020439383 0.10300001 9.2212165e-39
0.054191668 -0.020678326 0.1032 9.3134107e-39
0.049222603 -0.019131338 0.104 1.1065104e-38
0.051685952 -0.019850835 0.10314286 7.2851377e-39
0.052512351 -0.019606777 0.10344 7.101108e-39
0.053123314 -0.019405544 0.10312501 7.4695262e-39
0.044647355 -0.018495265 0.10399998 8.0237677e-39
0.045037922 -0.01846179 0.104 7.2869314e-39
0.049222603 -0.018796563 0.104 1.1157654e-38
0.051733408 -0.018294403 0.104 6.3642716e-39
0.052495949 -0.018368799 0.10399998 6.4564659e-39
0.053319421 -0.018409157 0.10351999 6.8252428e-39
0.055081148 -0.018127015 0.104 8.3918286e-39
0.048887827 -0.01729008 0.104 1.1157655e-38
0.049060345 -0.017457694 0.10380001 1.0973266e-38
0.050645392 -0.017708547 0.104 7.5620791e-39
0.052793529 -0.017736444 0.104 6.1806006e-39
0.053433422 -0.017694024 0.10391665 6.5490188e-39
0.054267552 -0.017698972 0.10338462 7.6546321e-39
0.044318587 -0.016273588 0.10363635 6.2738991e-39
0.048770659 -0.016553577 0.10399999 1.0972907e-38
0.049129613 -0.01663913 0.10399999 1.0511936e-38
0.044535764 -0.015867289 0.10399999 7.7479642e-39
0.044798795 -0.014659711 0.10399999 1.1251031e-38
0.045037922 -0.014862967 0.104 1.1987881e-38
0.054913763 -0.014109724 0.104 7.5646141e-39
0.05390944 -0.013105401 0.104 7.6553552e-39
0.053689737 -0.012608021 0.10389999 8.2081562e-39
0.054277953 -0.012415691 0.10342859 8.6687686e-39
0.055081148 -0.012435853 0.104 8.8531571e-39
0.050650965 -0.011364935 0.10340001 9.3123345e-39
0.051339019 -0.011675474 0.103375 9.1290223e-39
0.052346338 -0.011831141 0.10383334 9.2215753e-39
0.054532915 -0.011649166 0.10333333 1.0234636e-38
0.049649563 -0.010393168 0.10311112 9.7740232e-39
0.050464049 -0.010627032 0.10304348 9.4977992e-39
0.051291231 -0.01074139 0.10300001 9.7740232e-39
0.047608063 -0.0093269954 0.10327273 1.0603771e-38
0.048251975 -0.0098296124 0.10300001 1.0511936e-38
0.04947992 -0.0098432451 0.10314287 1.0327547e-38
0.050220586 -0.0098503344 0.103 1.0235353e-38
0.047609035 -0.0085020186 0.10350001 1.0234994e-38
0.045875587 -0.0071949931 0.10325 9.0346953e-39
0.046444569 -0.0075455778 0.10350001 9.2205089e-39
0.04490348 -0.0060459343 0.10350001 1.179838e-38
0.045507059 -0.0064060423 0.10304167 9.4942385e-39
0.046215277 -0.0062298696 0.103 8.4829747e-39
0.043549918 -0.0051727681 0.103 1.1521444e-38
0.04453513 -0.0053819427 0.10309525 1.0785316e-38
0.04550007 -0.0054199272 0.103 8.3914755e-39
0.046511307 -0.005401969 0.10300001 6.8266777e-39
0.047284935 -0.0051325797 0.10300001 6.1820356e-39
0.043670561 -0.0043774331 0.10388888 9.7740414e-39
0.044454608 -0.004450961 0.10396155 8.29964e-39
0.045488406 -0.0043928903 0.10341382 7.2872929e-39
0.046527881 -0.0043921061 0.103 6.1820356e-39
0.047523998 -0.004366159 0.10300001 6.1820356e-39
0.048251975 -0.004027395 0.10300001 6.550465e-39
0.044703148 -0.0036898751 0.104 7.6557139e-39
0.045496035 -0.0034938559 0.10399998 7.5642399e-39
0.04650538 -0.0034596229 0.10337503 6.4586197e-39
0.047555707 -0.0034471736 0.10300002 6.2742312e-39
0.048307236 -0.0033919141 0.10300001 6.182037e-39
0.045819063 -0.0028389907 0.104 7.2880258e-39
0.046574384 -0.0025632977 0.10388889 6.9195964e-39
0.047530394 -0.0024817227 0.10307408 6.9195964e-39
0.048334863 -0.0025022412 0.103 6.1823943e-39
0.046723753 -0.0015198209 0.10399998 6.9195922e-39
0.04751103 -0.0015354134 0.10360002 6.8274008e-39
0.04834009 -0.0013425897 0.10338891 6.2753088e-39
0.049445573 -0.0010433979 0.10300001 6.6430123e-39
0.050473392 -0.0010433979 0.10300001 6.7352136e-39
0.046879184 -0.00088614086 0.104 6.7352037e-39
0.047517348 -0.00051998155 0.10399998 7.1039877e-39
0.04844084 -0.00047551369 0.10381484 6.4593385e-39
0.049470164 -0.00043629337 0.10344446 7.8408408e-39
0.050457478 -0.00043131405 0.10303847 7.6568153e-39
0.051070195 -0.00033884298 0.10300001 7.1958386e-39
0.047716118 0.00028556903 0.104 6.4586183e-39
0.048469361 0.00057152211 0.104 6.5504594e-39
0.049490418 0.00058686588 0.104 7.1036359e-39
0.05050027 0.00058400648 0.10346667 6.4586281e-39
0.051269125 0.0006972673 0.103 6.827049e-39
0.039011985 0.001624666 0.104 7.0092949e-39
0.048757639 0.0015502716 0.10399999 5.99801e-39
0.049490418 0.0015828193 0.10399999 5.6288716e-39
0.050444331 0.0015372172 0.10329167 5.7203512e-39
0.051346492 0.0015261555 0.10300001 7.6568167e-39
0.048499789 0.0025757288 0.10399999 5.9054557e-39
0.049535353 0.002542529 0.10389288 6.3660807e-39
0.050306022 0.0023986134 0.10310002 6.7352234e-39
0.051070195 0.0021063772 0.10300001 7.9344784e-39
0.047649164 0.0038341763 0.10399999 6.6437326e-39
0.048452619 0.0035663575 0.104 7.1047163e-39
0.049487259 0.0035521677 0.1036 8.0266824e-39
0.05018102 0.0034928813 0.103 8.0266852e-39
0.047574479 0.0046505104 0.10399998 8.210694e-39
0.048493546 0.0046140561 0.10386209 8.9475471e-39
0.049436007 0.0045450926 0.10307692 9.1323055e-39
0.050075527 0.0042614867 0.10300001 8.8557228e-39
0.046879184 0.005725651 0.104 9.40887e-39
0.047465038 0.0055582644 0.10399998 9.4088728e-39
0.048402373 0.0055290801 0.10345834 9.5010796e-39
0.049350251 0.0054737353 0.10300002 9.7769547e-39
0.043698825 0.0069810543 0.104 9.5932571e-39
0.046628103 0.0065904837 0.10399998 9.8691503e-39
0.04752443 0.0065287086 0.10386956 9.4085295e-39
0.048396442 0.0064449068 0.10325927 9.3163339e-39
0.04918636 0.0064919489 0.103 9.5929165e-39
0.04051847 0.0079853768 0.104 1.1801618e-38
0.043866213 0.0071484414 0.104 9.5010628e-39
0.044870537 0.0079016834 0.104 1.033014e-38
0.045530781 0.0076784994 0.10399998 1.0329787e-38
0.046510939 0.0075501711 0.104 1.005284e-38
0.047486722 0.0075277672 0.10395237 8.6709729e-39
0.048388764 0.007516603 0.10334483 8.5801981e-39
0.049246635 0.0074775717 0.10300002 9.2244871e-39
0.040489361 0.0085967034 0.10399999 1.0513389e-38
0.041434694 0.0087077841 0.10399998 1.0421556e-38
0.04219234 0.0089897001 0.104 1.0053148e-38
0.044870537 0.0082364585 0.104 1.0514537e-38
0.045540079 0.0085273935 0.10399999 1.0330147e-38
0.046526887 0.008600099 0.10396155 9.4085477e-39
0.047522891 0.0085083377 0.10320689 7.5656987e-39
0.048487555 0.0084844539 0.10300002 8.6716791e-39
0.049122307 0.0082401503 0.10300001 9.408175e-39
0.03984892 0.009625772 0.10399999 8.6734335e-39
0.040451512 0.009625772 0.104 9.0418517e-39
0.041489314 0.009625772 0.104 9.3177197e-39
0.042333975 0.0096721239 0.10399998 9.6854373e-39
0.04359857 0.0095730498 0.10372727 9.7769337e-39
0.044160705 0.0097378567 0.10357143 9.4996251e-39
0.045707472 0.009625772 0.10399998 9.2241396e-39
0.046576098 0.0096071428 0.10380002 7.93447e-39
0.047555707 0.0095332144 0.103 8.0263013e-39
0.048362494 0.0092624454 0.10300001 9.6847604e-39
0.039850749 0.01058387 0.10350001 9.3184512e-39
0.040514451 0.010537273 0.10363158 9.2262514e-39
0.041540865 0.010490308 0.10327275 9.4102839e-39
0.042476598 0.01056391 0.10316668 9.5021194e-39
0.043798536 0.010628518 0.10325001 1.0053498e-38
0.044341218 0.010505076 0.10306252 9.8691153e-39
0.04550929 0.010499557 0.10336363 9.9613333e-39
0.046527885 0.010478146 0.10300002 9.4085197e-39
0.047555711 0.010478147 0.10300002 9.2248431e-39
0.039907832 0.011362296 0.10300001 9.5017663e-39
0.040526737 0.011423078 0.103 9.8709117e-39
0.041519962 0.011397134 0.10300001 1.0055309e-38
0.042416602 0.011091525 0.10300001 1.0055297e-38
0.043741502 0.011286849 0.10314287 9.8691083e-39
0.04447224 0.01142308 0.103 1.0053509e-38
0.045500062 0.01142308 0.103 1.0606338e-38
0.046317901 0.011334665 0.10300001 1.0237926e-38
0.04736783 0.011058371 0.10300001 9.3166856e-39
0.038968425 0.012881923 0.10300001 9.3173876e-39
0.039595217 0.012534621 0.10315792 9.5024894e-39
0.040526737 0.012450903 0.103 1.0331894e-38
0.04145509 0.012450901 0.10300002 1.1068763e-38
0.044487443 0.012432943 0.10300001 9.6858184e-39
0.045425862 0.01240038 0.10300002 9.6854499e-39
0.046179757 0.012053035 0.10300001 9.6847324e-39
0.038968425 0.013478721 0.10300001 9.6854583e-39
0.03949374 0.013490766 0.10316666 1.0146432e-38
0.040526733 0.013478722 0.103 9.9627542e-39
0.041371081 0.013443176 0.10306668 1.0146802e-38
0.0436102 0.013627922 0.10300001 9.5939955e-39
0.044554278 0.013343386 0.10312502 9.0408148e-39
0.045143642 0.013213479 0.10300001 9.3170275e-39
0.03885942 0.014593038 0.103375 9.6858352e-39
0.039474469 0.01440988 0.10320002 9.5014356e-39
0.040526737 0.014415366 0.10300002 8.8567724e-39
0.041194584 0.014373922 0.103 9.1337293e-39
0.038664989 0.015371503 0.1033 9.5018083e-39
0.039605368 0.015377313 0.10300002 9.0408218e-39
0.040311225 0.015202808 0.103 8.7642321e-39
0.038406767 0.016025828 0.10350001 9.3159779e-39
0.037589192 0.017861217 0.104 8.5794597e-39
0.038379636 0.017749626 0.10399999 9.9627486e-39
0.036668565 0.018363377 0.10399998 9.3166786e-39
0.037379958 0.018463809 0.10399999 9.40887e-39
0.038479902 0.018501105 0.10380647 1.0608488e-38
0.039221562 0.018467465 0.10341666 1.0885431e-38
0.036710411 0.019549036 0.10399998 9.6851108e-39
0.037379958 0.019501608 0.10399999 9.5007181e-39
0.03848058 0.019467065 0.10366669 9.4095847e-39
0.03936629 0.019314095 0.10300001 9.3198735e-39
0.035999019 0.020623105 0.104 9.5932753e-39
0.036543023 0.020455718 0.10399998 9.4088826e-39
0.037379958 0.020455718 0.10399998 9.0397414e-39
0.038428023 0.020388223 0.10364001 8.3028812e-39
0.035743013 0.021494498 0.10399998 9.2248599e-39
0.036543023 0.0214433 0.10399999 9.2248543e-39
0.037379961 0.021443302 0.10399999 9.1322943e-39
0.038374152 0.021484884 0.10353334 8.6709616e-39
0.046096865 0.021005027 0.10300001 8.487264e-39
0.035951193 0.022380667 0.10399999 8.6713204e-39
0.036543027 0.022481099 0.10399999 8.9486233e-39
0.037433941 0.022520225 0.10390909 9.4085225e-39
0.038456604 0.02257281 0.10335133 8.7631587e-39
0.036616255 0.023458226 0.10399998 9.3170387e-39
0.03740824 0.023509713 0.10395237 9.3166842e-39
0.038461588 0.023581224 0.10325926 8.4869207e-39
0.03929998 0.023823246 0.10300001 8.1177851e-39
0.036764216 0.024484964 0.10399999 7.9341001e-39
0.03749872 0.024459099 0.10379998 8.0262915e-39
0.038509954 0.024503388 0.10316668 8.5791135e-39
0.03952102 0.024607927 0.10300002 8.2106897e-39
0.037421808 0.025393639 0.10399998 7.8419002e-39
0.038465634 0.025526341 0.10326469 9.1326432e-39
0.039590094 0.025547335 0.10300002 8.026653e-39
0.040346455 0.025615716 0.10300002 7.2890894e-39
0.037531249 0.026410835 0.10399998 8.2106827e-39
0.038466677 0.026555412 0.1032941 8.6713008e-39
0.039590098 0.026608313 0.10300002 7.8419016e-39
0.040526737 0.026608313 0.103 8.7631391e-39
0.041123535 0.026890136 0.10300001 1.0145352e-38
0.037625067 0.027402284 0.10399999 8.0255698e-39
0.03831733 0.027594779 0.10399999 8.3021581e-39
0.039464872 0.0276067 0.10333334 7.7493445e-39
0.040526733 0.027553249 0.10300002 9.5925326e-39
0.041419566 0.027588772 0.10300001 9.6857876e-39
0.037672888 0.02835081 0.104 7.7489843e-39
0.038391259 0.028525168 0.104 7.6575062e-39
0.039461017 0.028541652 0.10381483 7.7497032e-39
0.040526733 0.02849818 0.103 8.5787394e-39
0.041500308 0.028525304 0.10300002 8.4865368e-39
0.042118203 0.028962355 0.10300001 7.6575062e-39
0.038677212 0.029410928 0.10399999 7.4731177e-39
0.039397161 0.02948414 0.10394735 8.0259342e-39
0.040489849 0.029488811 0.10319231 7.6567929e-39
0.041554555 0.029525993 0.103 7.7489871e-39
0.042560276 0.029601779 0.10300002 7.011785e-39
0.043389164 0.029662304 0.103 6.4586197e-39
0.039505776 0.030406881 0.10399999 7.3805689e-39
0.040411852 0.030504946 0.10395237 7.2883733e-39
0.041576844 0.030509818 0.10313637 7.2880104e-39
0.042582378 0.030553823 0.103 6.8277539e-39
0.043384135 0.030514635 0.103 6.5511712e-39
0.039815444 0.031319141 0.10399999 6.7355611e-39
0.040430371 0.031357907 0.10399998 6.9199509e-39
0.041500982 0.031239938 0.10390908 7.1039807e-39
0.042575911 0.031381585 0.10327273 6.9195894e-39
0.043153964 0.031519599 0.10350001 7.0117836e-39
-0.033642188 0.033935685 0.10300001 4.1513327e-39
-0.034136198 0.034097768 0.104 4.1513327e-39
-0.033537921 0.034318633 0.10323078 4.1513327e-39
-0.032597613 0.034623101 0.10314286 4.3357225e-39
-0.031818636 0.034930348 0.10300001 4.6123108e-39
-0.03338296 0.035436865 0.104 4.1513313e-39
-0.031818636 0.035427682 0.10300001 4.7045065e-39
-0.03229494 0.036106415 0.104 4.7967021e-39
-0.030118909 0.037445512 0.104 2.3050707e-38
-0.027663896 0.039398361 0.104 2.3234378e-38
-0.022460947 0.04096064 0.104 2.2035835e-38
-0.026101617 0.041128028 0.104 2.3234378e-38
-0.025348375 0.04158834 0.104 2.3234378e-38
-0.024515841 0.041691855 0.10399998 2.3234378e-38
-0.023548963 0.041881271 0.10399999 2.3234378e-38
-0.022469316 0.041571602 0.10399999 2.1943639e-38
-0.021619376 0.041655589 0.10394116 1.0786533e-38
-0.020889079 0.041751217 0.10333335 4.9800116e-39
-0.024344051 0.042299736 0.104 2.3234378e-38
-0.023495158 0.042526908 0.10399998 2.3234378e-38
-0.022605086 0.042550821 0.10399998 2.2589008e-38
-0.021372259 0.04228659 0.10317649 9.5879924e-39
-0.020695867 0.042412397 0.10341177 4.8878173e-39
-0.019406131 0.042754073 0.10399999 3.8747458e-39
-0.0021860742 -0.037228934 0.105 1.0046053e-38
-0.0011439284 -0.037341595 0.10500001 9.7687333e-39
-0.00055244012 -0.037566926 0.105 1.0044586e-38
1.0882047e-05 -0.037566926 0.105 1.0412282e-38
0.0038555558 -0.037271179 0.105 4.7969908e-39
0.0041681998 -0.03729653 0.105 4.796988e-39
-0.0016114857 -0.036485352 0.105 9.4950541e-39
0.003777093 -0.036697801 0.10500001 4.7980754e-39
0.0040668016 -0.036721945 0.105 4.6136785e-39
-0.0013410911 -0.03587696 0.105 8.6689017e-39
0.053751815 -0.032328032 0.105 1.1250245e-38
0.054596797 -0.032581527 0.105 1.1433912e-38
0.052568838 -0.031905539 0.105 9.3141338e-39
0.053413823 -0.031821042 0.105 1.0697063e-38
0.050202888 -0.030807063 0.105 1.0880741e-38
0.054427803 -0.030215573 0.105 1.1432443e-38
0.049442403 -0.029201593 0.105 1.0788518e-38
0.0545123 -0.029539587 0.105 1.1156942e-38
0.052713696 -0.028392825 0.10500001 1.0143876e-38
0.053400822 -0.028454114 0.10500001 1.0143518e-38
0.054765794 -0.028525608 0.105 1.0972558e-38
0.048712645 -0.027457856 0.10500001 1.0418665e-38
0.049409904 -0.027349135 0.10500001 9.0364693e-39
0.050510153 -0.027365679 0.10500001 8.5758569e-39
0.051393215 -0.027529994 0.10500001 9.4063224e-39
0.052399836 -0.027586738 0.10500001 9.4066812e-39
0.053667314 -0.027891871 0.105 9.7754581e-39
0.0553496 -0.027703671 0.10500001 9.7747406e-39
0.046991952 -0.026075158 0.105 1.0510511e-38
0.047498938 -0.026294852 0.105 1.0879638e-38
0.04880866 -0.026666645 0.105 9.4974405e-39
0.049493104 -0.026514549 0.10500001 8.20708e-39
0.050456386 -0.026514551 0.105 7.9315735e-39
0.051419672 -0.026514553 0.10500001 8.4847389e-39
0.052346475 -0.026457623 0.10500001 8.3003504e-39
0.05364782 -0.026335152 0.10500001 9.2226528e-39
0.054258805 -0.026514549 0.105 9.5910696e-39
0.046907455 -0.025680833 0.10500001 1.051086e-38
0.047479052 -0.025448877 0.10500001 1.032683e-38
0.048343927 -0.025145678 0.10500001 8.6687686e-39
0.049493104 -0.025466772 0.10500001 7.4706024e-39
0.050475162 -0.025511838 0.10500001 7.7468263e-39
0.051419664 -0.025466772 0.10500001 7.7471851e-39
0.05243884 -0.025698166 0.10500001 8.115962e-39
0.053425089 -0.025658302 0.10500001 9.13046e-39
0.047611605 -0.024892181 0.105 9.405605e-39
0.048343923 -0.024892181 0.105 8.3003504e-39
0.04901991 -0.024892181 0.105 7.4706024e-39
0.05146097 -0.024741964 0.10500001 7.1950959e-39
0.052061848 -0.024892181 0.105 7.4713198e-39
0.052467443 -0.02354021 0.105 8.7631208e-39
0.050202888 -0.021681245 0.105 1.0143879e-38
0.044794995 -0.019315293 0.105 8.9453513e-39
0.045132987 -0.019315293 0.105 8.8531571e-39
0.051892854 -0.019146297 0.105 7.101108e-39
0.052360848 -0.019328292 0.10500001 6.7319723e-39
0.049357902 -0.018385813 0.105 1.1065104e-38
0.051892854 -0.018554809 0.105 6.6408543e-39
0.052259013 -0.018695639 0.10500001 6.5479426e-39
0.048850913 -0.017287333 0.105 1.0789595e-38
0.04901991 -0.017625328 0.105 1.06974e-38
0.05179628 -0.017528757 0.10500001 6.4568246e-39
0.052449133 -0.017576035 0.10500001 6.0880477e-39
0.053512406 -0.017343665 0.10500001 6.2724361e-39
0.054478504 -0.01735493 0.105 6.8256015e-39
0.055417638 -0.017480474 0.10500001 7.6549908e-39
0.048681915 -0.016611347 0.105 1.1065102e-38
0.051554859 -0.016949341 0.105 6.549023e-39
0.052146345 -0.016949341 0.105 5.9958534e-39
0.054554548 -0.016843718 0.10500001 6.8256015e-39
0.055230536 -0.016864844 0.105 7.1943784e-39
0.045639977 -0.015174877 0.105 1.1987886e-38
0.044794995 -0.014414391 0.105 1.0236148e-38
0.045485064 -0.014343976 0.10500001 1.1158816e-38
0.051690053 -0.014211595 0.105 7.1032954e-39
0.052287176 -0.014132731 0.10500001 7.0110998e-39
0.054693371 -0.014293678 0.10500001 7.1954798e-39
0.055306584 -0.014262294 0.105 7.4724171e-39
0.045639977 -0.013738405 0.105 9.223034e-39
0.051892854 -0.013738405 0.105 7.2873237e-39
0.052503116 -0.013513075 0.10500001 7.5639078e-39
0.053487759 -0.013421535 0.10500001 7.5631764e-39
0.0545578 -0.013504411 0.10500001 7.5635253e-39
0.055357281 -0.01348491 0.10500001 7.8397422e-39
0.051385861 -0.012048438 0.105 9.58892e-39
0.052681506 -0.012639928 0.10500001 8.2085205e-39
0.053404436 -0.012461539 0.10500001 8.5765744e-39
0.054315139 -0.012161102 0.105 9.4974405e-39
0.055475581 -0.012825822 0.105 8.3921859e-39
0.050202888 -0.011034459 0.105 9.2215753e-39
0.051132366 -0.011794943 0.105 9.4045288e-39
0.054529201 -0.011778044 0.105 1.0142441e-38
0.05510379 -0.011203455 0.105 1.051086e-38
0.048174925 -0.010020479 0.105 1.060413e-38
0.049864892 -0.010865462 0.105 9.5896347e-39
0.047667935 -0.0091754952 0.105 1.0327547e-38
0.045470979 -0.0088375024 0.105 9.8672936e-39
0.046146967 -0.0088375024 0.105 1.023607e-38
0.047836933 -0.0087530036 0.105 1.0234994e-38
0.046738453 -0.0079080202 0.105 9.6829051e-39
0.047160946 -0.0079925191 0.105 9.7750994e-39
0.044794995 -0.0059645604 0.105 1.2349401e-38
0.043375421 -0.0041731959 0.105 1.0878941e-38
0.042936031 -0.0033451125 0.105 9.4974671e-39
0.043544423 -0.0035141092 0.105 9.0372036e-39
0.04446907 -0.0034778956 0.10500001 7.6553538e-39
0.045189321 -0.0033169463 0.105 7.656074e-39
0.042936031 -0.0028381227 0.105 8.2078003e-39
0.043596651 -0.0025999907 0.10500001 7.9319336e-39
0.044499248 -0.002550828 0.105 7.1032604e-39
0.045485064 -0.0025353371 0.10500001 7.1039877e-39
0.046189219 -0.0022888836 0.105 7.4724114e-39
0.043865509 -0.0019086412 0.105 6.9195894e-39
0.044577707 -0.0016310039 0.10500001 6.827398e-39
0.045504779 -0.0015030494 0.10500001 6.9195936e-39
0.046347652 -0.0014755875 0.10500001 7.2883705e-39
0.045639977 -0.00060173392 0.10500001 6.8273994e-39
0.046552554 -0.00045527014 0.10500001 6.8274008e-39
0.047287695 -0.00026092413 0.10500001 7.011792e-39
0.046643395 0.00051012298 0.10500001 6.7352051e-39
0.047498941 0.00054180977 0.10500001 6.5508139e-39
0.048005931 0.00071080646 0.105 6.366424e-39
0.046839856 0.0013867931 0.105 6.182753e-39
0.047498945 0.0015050906 0.105 5.9983646e-39
0.048294216 0.0015607603 0.10500001 5.9980072e-39
0.046991952 0.0025528697 0.105 5.4455579e-39
0.047498941 0.00255287 0.105 5.6295891e-39
0.048111558 0.0024218974 0.10500001 5.9061731e-39
0.046860505 0.003536805 0.10500001 6.2749543e-39
0.047476407 0.0034767175 0.10500001 6.2749543e-39
0.048005931 0.0032457556 0.105 5.9983702e-39
0.04662177 0.0044971351 0.105 7.1969022e-39
0.047342941 0.0043962328 0.10500001 7.012871e-39
0.045865301 0.0058088712 0.105 8.9482506e-39
0.046552554 0.0054934109 0.10500001 8.4872752e-39
0.047203198 0.0052314661 0.105 8.4869137e-39
0.043409221 0.0066087889 0.105 9.3159471e-39
0.045741372 0.0064904913 0.105 9.3170331e-39
0.046331324 0.00640292 0.10500001 9.5936242e-39
0.040654577 0.0078931628 0.105 1.1616868e-38
0.043696515 0.0071326783 0.105 9.8698453e-39
0.044499248 0.0074002561 0.10500001 9.3166786e-39
0.045483984 0.0072561759 0.10500001 9.4085211e-39
0.046146967 0.0070481799 0.105 1.032978e-38
0.040401082 0.0083156545 0.105 1.0880746e-38
0.041161567 0.0080621596 0.105 1.1893808e-38
0.044794995 0.0085691493 0.105 1.0606369e-38
0.045259736 0.0088648936 0.105 9.8684426e-39
0.043636162 0.0096796984 0.10500001 9.685817e-39
0.044457003 0.0095831286 0.105 9.684745e-39
0.045377091 0.0094704656 0.10500001 9.7765931e-39
