# .PCD v0.7 - Point Cloud Data file format
VERSION 0.7
FIELDS x y z rgb
SIZE 4 4 4 4
TYPE F F F F
COUNT 1 1 1 1
WIDTH 979
HEIGHT 1
VIEWPOINT 0 0 0 1 0 0 0
POINTS 979
DATA ascii
0.04159658 -0.0023692304 0.14300001 7.7491189e-39
0.0397745 -0.0015061403 0.14300001 7.2877806e-39
0.040580053 -0.001448601 0.14300001 7.3799776e-39
0.041596577 -0.001448601 0.14300001 7.6565645e-39
0.042133614 -0.0012184437 0.14300001 7.9331514e-39
-0.0045883264 -0.00018273582 0.14300001 7.7393056e-39
0.0036973376 -0.00052797177 0.14300001 8.1120748e-39
0.0054235179 -0.00075812911 0.14300001 7.1908724e-39
0.039832041 -0.00060469093 0.14300001 7.4718103e-39
0.040580049 -0.00047043248 0.14300001 7.5636472e-39
0.04159658 -0.00047043254 0.14300001 7.7487573e-39
0.042210329 -0.00037453359 0.14300001 7.5643675e-39
-0.0052787988 0.00085297204 0.14300001 1.6124053e-38
-0.0045883264 0.00062281475 0.14300001 1.3359621e-38
0.04068362 0.00050773605 0.14300001 7.3796147e-39
0.041596577 0.0005460956 0.14300001 7.8405942e-39
0.042392541 0.00059404504 0.14300001 7.1955835e-39
-0.0081174048 0.0016968822 0.14300001 2.0638427e-38
-0.007580372 0.0016815383 0.14300001 1.9994855e-38
-0.0066597424 0.001773601 0.14300001 1.9258363e-38
-0.005892551 0.0014667247 0.14300001 1.8060894e-38
-0.0048184837 0.0010831293 0.14300001 1.6585386e-38
0.040890764 0.0014053496 0.14300001 6.9186309e-39
0.041596577 0.0014667247 0.14300001 7.2870561e-39
0.042440489 0.0014667247 0.14300001 7.0111881e-39
0.043054242 0.0014667247 0.14300001 6.9189938e-39
-0.0081174048 0.0020804775 0.14300001 2.1374549e-38
-0.0075474926 0.0022010361 0.14300001 2.0914647e-38
-0.0066597424 0.0020037584 0.14300001 1.9534591e-38
0.040982828 0.0020037584 0.14300001 6.3654571e-39
0.041631456 0.0024222264 0.14300001 7.5632829e-39
0.042440489 0.0024640732 0.14300001 7.5640031e-39
0.043169327 0.0024640732 0.14300001 7.1952206e-39
0.041811392 0.0033847024 0.14300001 7.4725264e-39
0.042440489 0.0034614217 0.14300001 7.3799706e-39
0.043422498 0.0034997812 0.14300001 7.748393e-39
0.041903455 0.0044779498 0.14300001 7.3796091e-39
0.042440489 0.0044779498 0.14300001 7.9317038e-39
0.043514557 0.0044779493 0.14300001 7.9317038e-39
0.041903455 0.0052259606 0.14300001 7.9327828e-39
0.042440489 0.0055328365 0.14300001 8.0249785e-39
0.043514561 0.0055328365 0.14300001 7.4710858e-39
0.044205029 0.005532837 0.14300001 7.4710858e-39
0.042440489 0.0063767475 0.14300001 7.6558358e-39
0.043514565 0.006376747 0.14300001 7.3792503e-39
0.044205029 0.006376747 0.14300001 7.4718047e-39
0.0096814279 0.007412455 0.14300001 1.1965201e-38
0.010348884 0.0074124546 0.14300001 7.9118671e-39
0.041903455 0.0075275339 0.14300001 7.5629199e-39
0.042440493 0.0074124555 0.14300001 7.7473098e-39
0.043514561 0.0074124541 0.14300001 7.5625584e-39
0.044205029 0.0072973766 0.14300001 7.1012173e-39
0.0096814279 0.0082180062 0.14300001 1.3624358e-38
0.0103719 0.0083330851 0.14300001 1.2418649e-38
0.041845914 0.008448163 0.14300001 7.3785273e-39
0.042440489 0.008448164 0.14300001 7.4710774e-39
0.043514561 0.0084481621 0.14300001 9.1298785e-39
0.044205029 0.008448164 0.14300001 9.5908552e-39
0.010486979 0.0091386354 0.14300001 1.3337364e-38
0.041903455 0.0091386354 0.14300001 7.6547498e-39
0.042593926 0.0091386354 0.14300001 7.6551085e-39
0.043448798 0.0094345519 0.14300001 7.9313311e-39
0.044205029 0.0094838711 0.14300001 8.4845021e-39
0.025562285 0.015813196 0.14300001 6.1774589e-39
0.025447205 0.016158432 0.14300001 5.9948655e-39
0.0069195405 0.019956028 0.14300001 1.2407848e-38
0.0073223161 0.019610792 0.14300001 1.1856116e-38
0.008415563 0.019265557 0.14300001 1.2062042e-38
0.0069195405 0.020301264 0.14300001 1.2039427e-38
0.0071496977 0.020186186 0.14300001 1.1947234e-38
-0.0043581692 0.021797286 0.14300001 1.4788403e-38
-0.0037827757 0.021797286 0.14300001 1.4788759e-38
0.0039274949 0.021797286 0.14300001 1.341553e-38
0.0041576521 0.021797286 0.14300001 1.341553e-38
0.0055385963 0.021221895 0.14300001 1.1027799e-38
-0.0032073825 0.02248776 0.14300001 1.4423936e-38
-0.0003304157 0.022832993 0.14300001 1.3690322e-38
0.00057742716 0.022641197 0.14300001 1.4241337e-38
0.0015492025 0.022717915 0.14300001 1.3691399e-38
0.0025005194 0.022671884 0.14300001 1.1945439e-38
0.0033060699 0.02248776 0.14300001 1.2130187e-38
-0.0025169104 0.023868702 0.14300001 1.4977463e-38
-0.0011359664 0.023868702 0.14300001 1.2405697e-38
-0.00059893262 0.023485107 0.14300001 1.2039075e-38
0.0018560789 0.023408389 0.14300001 1.3417331e-38
0.0023163934 0.023408389 0.14300001 1.2498971e-38
-0.001504218 0.024559176 0.14300001 1.3874706e-38
-0.0013870471 0.025584418 0.14300001 1.203728e-38
-0.00067565171 0.025940118 0.14300001 1.2222031e-38
0.0034671803 0.026860746 0.14300001 9.3934403e-39
0.0033137416 0.0274745 0.14300001 8.0134079e-39
0.0031219441 0.028011533 0.14300001 7.0943509e-39
0.0083465157 0.032522615 0.14300001 1.2629928e-38
0.0085766735 0.033581339 0.14300001 1.1800176e-38
0.0096814279 0.034225781 0.14300001 1.0601274e-38
0.011637766 0.036527354 0.14300001 1.032616e-38
-0.055453099 0.041820969 0.14300001 4.7030659e-39
-0.055551738 0.042412806 0.14300001 5.255525e-39
-0.054609191 0.042626519 0.14300001 1.8071797e-38
-0.049699165 0.042971756 0.14300001 1.8255463e-38
-0.054532468 0.043892387 0.14300001 1.7979955e-38
-0.052000735 0.045388408 0.14300001 2.1945808e-38
-0.051408909 0.045371968 0.14300001 2.2129123e-38
-0.048318218 0.046424117 0.14300001 2.0007912e-38
-0.047781184 0.046577554 0.14300001 1.8810085e-38
-0.0482415 0.047344744 0.14300001 2.0653643e-38
-0.047512665 0.047114588 0.14300001 1.9732767e-38
-0.046246804 0.047574904 0.14300001 6.4547759e-39
-0.045498788 0.047689982 0.14300001 3.5034409e-39
-0.045096017 0.048265375 0.14300001 3.135736e-39
-0.044808321 0.048553072 0.14300001 2.9513448e-39
-0.043676715 0.049799759 0.14300001 2.3992472e-39
-0.044635702 0.050682023 0.14300001 3.0446194e-39
-0.043599993 0.050566941 0.14300001 2.7673094e-39
-0.042610314 0.050474882 0.14300001 2.3981682e-39
-0.041528575 0.050682027 0.14300001 3.3197714e-39
-0.040723026 0.050566953 0.14300001 8.2054293e-39
-0.044664469 0.051372498 0.14300001 3.0446194e-39
-0.043761101 0.051303454 0.14300001 2.7680311e-39
-0.041643657 0.051395513 0.14300001 2.5836384e-39
-0.041183341 0.052561641 0.14300001 2.4914428e-39
-0.040723026 0.052868523 0.14300001 2.6758341e-39
-0.041384727 0.053443924 0.14300001 2.4914428e-39
-0.040569589 0.053597361 0.14300001 2.6758341e-39
-0.04126006 0.054096028 0.14300001 2.6758341e-39
-0.04049287 0.054172743 0.14300001 2.8598652e-39
-0.039111923 0.054824859 0.14300001 9.7709543e-39
-0.038536534 0.054479625 0.14300001 1.8348023e-38
-0.037385747 0.054479625 0.14300001 1.2908469e-38
-0.041183341 0.055630412 0.14300001 2.8602253e-39
-0.040646307 0.055707131 0.14300001 2.8602253e-39
-0.039111923 0.055285178 0.14300001 9.1255807e-39
-0.040584933 0.056274854 0.14300001 2.9520608e-39
-0.034221083 0.057644289 0.14300001 3.0417383e-39
-0.034140527 0.058346272 0.14300001 5.9930719e-39
-0.033818305 0.058507379 0.14300001 3.8718563e-39
-0.032437362 0.058622457 0.14300001 2.2155748e-39
-0.031977046 0.058622457 0.14300001 2.0311835e-39
-0.034163542 0.059082773 0.14300001 1.5122247e-38
-0.033703227 0.059082773 0.14300001 1.0143683e-38
-0.032667518 0.059082773 0.14300001 2.3996073e-39
-0.031861968 0.059082773 0.14300001 2.1233792e-39
-0.014277364 -0.04812111 0.14400001 1.2907743e-38
-0.013833145 -0.048333563 0.14400001 1.2907746e-38
-0.015049919 -0.04742581 0.14400001 1.3000298e-38
-0.014619497 -0.047480997 0.14400001 1.3092493e-38
-0.015049919 -0.046885021 0.14400001 1.2908822e-38
0.027826944 -0.046189722 0.14400001 8.5748984e-39
0.028290479 -0.046189722 0.14400001 8.4827028e-39
0.027826944 -0.045957956 0.14400001 8.5748984e-39
0.028588463 -0.045494419 0.14400002 8.2064746e-39
0.029652109 -0.045291625 0.14400001 8.2064746e-39
0.030299125 -0.045108143 0.14400001 8.4827042e-39
0.028820232 -0.04453424 0.14400001 8.1139203e-39
0.029681079 -0.044490099 0.14400001 8.3905072e-39
0.030530892 -0.044490095 0.14400001 8.4827056e-39
0.031336557 -0.044401802 0.14400001 8.0220876e-39
0.028985778 -0.043563034 0.14400001 8.2061159e-39
0.029681079 -0.043563027 0.14400001 8.2983143e-39
0.03053089 -0.043563031 0.14400001 8.4830657e-39
0.031270336 -0.043607175 0.14400001 8.1142832e-39
0.028985778 -0.042944986 0.14400001 8.2983115e-39
0.029681081 -0.042539399 0.14400002 8.8514895e-39
0.030530892 -0.042539392 0.14400002 8.6674598e-39
0.031148935 -0.042867731 0.14400001 8.114286e-39
0.029681079 -0.041554388 0.14400001 9.4972219e-39
0.030530892 -0.041554388 0.14400001 8.3901554e-39
0.029681079 -0.040627319 0.14400001 8.7592953e-39
0.030530892 -0.040627319 0.14400001 8.7592967e-39
0.03107168 -0.040511437 0.14400001 8.0220904e-39
0.029681081 -0.039584365 0.14400002 9.2199147e-39
0.030530892 -0.039584365 0.14400002 8.3901568e-39
0.031187564 -0.039584368 0.14400001 7.7455049e-39
0.029758338 -0.038464166 0.14400001 9.7730899e-39
0.03053089 -0.038425531 0.14400002 8.943332e-39
0.031380702 -0.038425535 0.14400002 8.2979612e-39
-0.023509409 -0.037150815 0.14400001 7.8372451e-39
-0.022582341 -0.037150815 0.14400001 7.1000444e-39
0.029912846 -0.037382584 0.14400001 8.5749082e-39
0.030530892 -0.03738258 0.14400001 8.4830713e-39
0.031535212 -0.037382577 0.14400002 8.2997591e-39
-0.024320593 -0.036223751 0.14400001 8.2992953e-39
-0.023625292 -0.036532771 0.14400001 8.2982205e-39
-0.022727195 -0.036484487 0.14400001 7.4681081e-39
0.029912846 -0.036532771 0.14400001 9.4979449e-39
0.03053089 -0.036532775 0.14400001 8.5756299e-39
0.031535212 -0.036532771 0.14400002 8.2064887e-39
-0.025015892 -0.035064917 0.14400001 8.2049711e-39
-0.024500854 -0.035348188 0.14400001 8.4826187e-39
-0.023625292 -0.035470504 0.14400002 7.8365403e-39
-0.022698225 -0.035470504 0.14400002 7.4666871e-39
-0.016208753 -0.035064917 0.14400001 7.191566e-39
-0.01560616 -0.035157621 0.14400001 1.2907367e-38
0.029912846 -0.035470508 0.14400001 9.9589259e-39
0.030530892 -0.035470508 0.14400002 8.6685486e-39
0.031535212 -0.035470508 0.14400002 8.2075705e-39
0.032230515 -0.035064917 0.14400001 8.2997647e-39
-0.025313878 -0.034402724 0.14400001 6.5468959e-39
-0.024552358 -0.034446869 0.14400001 7.6525147e-39
-0.023625292 -0.034446873 0.14400001 7.4677633e-39
-0.022698225 -0.034601383 0.14400001 8.4811908e-39
-0.021075858 -0.034369614 0.14400001 1.2813616e-38
-0.017135821 -0.034137849 0.14400001 4.0587125e-39
-0.016479148 -0.03433099 0.14400001 5.1643412e-39
-0.015778331 -0.034502052 0.14400001 1.0417351e-38
-0.013427552 -0.034137849 0.14400001 1.3550951e-38
-0.012964019 -0.034137849 0.14400001 1.2998133e-38
0.029912846 -0.034833148 0.14400001 9.3117586e-39
0.03053089 -0.034446869 0.14400001 8.6674668e-39
0.031535212 -0.034446869 0.14400002 8.2997647e-39
0.032346398 -0.034369614 0.14400001 8.1157336e-39
-0.025170403 -0.033828828 0.14400001 6.2706705e-39
-0.02455236 -0.03359706 0.14400001 7.5606778e-39
-0.023625292 -0.03359706 0.14400001 7.6528679e-39
-0.022929993 -0.033906084 0.14400001 8.759214e-39
-0.017228527 -0.033535257 0.14400001 4.1509067e-39
-0.01659503 -0.03359706 0.14400001 4.5189731e-39
-0.015884282 -0.033674318 0.14400001 7.2826854e-39
-0.013520258 -0.033535257 0.14400001 1.355167e-38
-0.012848135 -0.033597063 0.14400001 1.2905938e-38
0.030641256 -0.033641208 0.14400001 8.7603827e-39
0.031535212 -0.033597063 0.14400002 8.4841573e-39
0.032578167 -0.033558436 0.14400001 7.930985e-39
-0.024320593 -0.032979015 0.14400001 7.6539483e-39
-0.023625292 -0.032669991 0.14400001 7.3777187e-39
-0.021075858 -0.032515481 0.14400001 1.3182034e-38
-0.017268259 -0.032581698 0.14400001 4.5196906e-39
-0.016672287 -0.032921072 0.14400001 4.4271377e-39
-0.013543434 -0.032669991 0.14400001 1.3643504e-38
-0.012848135 -0.032863133 0.14400001 1.2998133e-38
0.030839913 -0.032515481 0.14400001 9.4986694e-39
0.031535212 -0.032515481 0.14400002 8.7611044e-39
0.032616794 -0.032515481 0.14400002 8.3001262e-39
0.033157583 -0.032360967 0.14400001 8.3008451e-39
-0.021307625 -0.031820182 0.14400001 1.3273878e-38
-0.017367588 -0.031820182 0.14400001 5.0732217e-39
0.031535216 -0.031511161 0.14400002 8.7614631e-39
0.03261679 -0.031511158 0.14400001 8.5770718e-39
0.033273466 -0.031511154 0.14400001 8.1160951e-39
0.031689726 -0.030661348 0.14400001 8.9454956e-39
0.03261679 -0.030661348 0.14400001 8.4848776e-39
0.033273466 -0.030661346 0.14400001 8.3926834e-39
-0.019221723 -0.029270746 0.14400001 1.3736765e-38
0.031689722 -0.029618395 0.14400002 8.7607456e-39
0.03261679 -0.029618399 0.14400002 8.9454956e-39
0.033389352 -0.029572044 0.14400002 8.484879e-39
0.031689722 -0.028575446 0.14400001 9.7752619e-39
0.03261679 -0.028575446 0.14400001 1.0695775e-38
0.033466604 -0.028575443 0.14400001 9.4057563e-39
0.031882863 -0.027532496 0.14400001 7.7483958e-39
0.03261679 -0.027532494 0.14400002 8.8533014e-39
0.033466604 -0.027532494 0.14400002 9.4990323e-39
0.031882867 -0.026373662 0.14400001 8.2093725e-39
0.032616794 -0.026373662 0.14400002 8.4848804e-39
0.033466604 -0.026373662 0.14400002 9.6834236e-39
0.031998746 -0.025330713 0.14400001 8.1178958e-39
0.032616794 -0.025330711 0.14400001 8.2097327e-39
0.033466607 -0.025330711 0.14400001 9.7759794e-39
0.034084648 -0.025214829 0.14400001 8.6699947e-39
-0.021655273 -0.02463541 0.14400001 1.4195472e-38
-0.02014879 -0.024171876 0.14400001 7.8358214e-39
0.031998746 -0.024519525 0.14400001 8.578518e-39
0.032616794 -0.024403641 0.14400001 8.3944841e-39
0.033466604 -0.024403641 0.14400001 8.7629064e-39
0.034177355 -0.024357289 0.14400001 8.8547419e-39
0.032616794 -0.023418635 0.14400002 9.0387787e-39
0.033466604 -0.023418635 0.14400002 8.4863252e-39
0.034316417 -0.023418633 0.14400002 8.3019325e-39
0.035011716 -0.023128927 0.14400001 7.4721732e-39
0.032809932 -0.022395 0.14400001 9.0387773e-39
0.033466607 -0.022395002 0.14400001 8.1161021e-39
0.034316417 -0.022394998 0.14400001 8.3019311e-39
0.035104424 -0.022317743 0.14400001 8.6707136e-39
0.032833107 -0.021529736 0.14400001 9.5008344e-39
0.033466604 -0.02146793 0.14400001 8.5785194e-39
0.034316417 -0.02146793 0.14400001 9.3160844e-39
0.035127595 -0.02146793 0.14400001 9.8688967e-39
0.032925814 -0.020463608 0.14400001 8.3934079e-39
0.033466604 -0.020463606 0.14400002 8.1168224e-39
0.034316417 -0.020463608 0.14400002 8.4859608e-39
0.035127599 -0.020463608 0.14400001 8.7629064e-39
0.033466604 -0.019459285 0.14400001 8.485965e-39
0.034316417 -0.019459287 0.14400001 8.670715e-39
0.035177264 -0.019404102 0.14400001 8.3026528e-39
0.033554893 -0.018642584 0.14400001 8.854386e-39
0.034316417 -0.018609473 0.14400001 8.8558251e-39
0.035243481 -0.018609473 0.14400001 8.3026528e-39
0.033621117 -0.017682405 0.14400001 9.4997568e-39
0.034316417 -0.017682405 0.14400001 9.316083e-39
0.035327762 -0.017661341 0.14400002 8.3944897e-39
0.033654224 -0.016622901 0.14400001 8.7621904e-39
0.034316417 -0.016639454 0.14400002 8.9473033e-39
0.035359368 -0.016639454 0.14400002 8.3944911e-39
0.033621117 -0.015480623 0.14400001 8.9465816e-39
0.034316417 -0.015480622 0.14400002 8.6707136e-39
0.035359368 -0.015480623 0.14400002 8.5785208e-39
0.03617055 -0.015364739 0.14400001 8.2097383e-39
0.033736996 -0.014495612 0.14400001 8.9469432e-39
0.034316413 -0.014437672 0.14400001 8.6707164e-39
0.035359368 -0.014437671 0.14400002 8.762912e-39
0.036263257 -0.014391318 0.14400001 8.3941295e-39
0.033852883 -0.013742371 0.14400001 8.578518e-39
0.034316417 -0.013394721 0.14400002 8.2097383e-39
0.035359368 -0.013394719 0.14400002 8.3941295e-39
0.036402319 -0.013394721 0.14400002 8.2097383e-39
0.037097618 -0.013162954 0.14400001 8.2097411e-39
0.034382634 -0.012384878 0.14400001 8.1175426e-39
0.035359364 -0.012351769 0.14400002 8.2097383e-39
0.036402315 -0.01235177 0.14400001 7.8413159e-39
0.037190326 -0.012305416 0.14400001 7.7487601e-39
0.034490243 -0.011598527 0.14400001 8.0257071e-39
0.035359364 -0.011501958 0.14400002 8.0257071e-39
0.036402315 -0.011501959 0.14400001 7.9335115e-39
0.037213501 -0.011501958 0.14400001 7.5640101e-39
0.0018690586 -0.010034102 0.14400001 1.105833e-38
0.0025643592 -0.010034102 0.14400001 1.2260194e-38
0.0032596595 -0.010265869 0.14400001 1.1891783e-38
0.034548182 -0.010961169 0.14400001 8.1182629e-39
0.035382543 -0.010528537 0.14400002 8.3941295e-39
0.036402319 -0.010497636 0.14400002 8.2104585e-39
0.037329383 -0.010497636 0.14400002 8.8551077e-39
0.035504222 -0.0094546853 0.14400001 8.2093781e-39
0.036402319 -0.0094160568 0.14400001 7.8413145e-39
0.03741366 -0.0093809413 0.14400002 7.5643689e-39
0.0016372917 -0.0081799673 0.14400001 1.022933e-38
0.035591133 -0.0085662454 0.14400001 8.5785208e-39
0.036402315 -0.0085662445 0.14400001 7.7483986e-39
0.037445266 -0.0085662445 0.14400002 7.655124e-39
0.038256451 -0.0084117344 0.14400001 7.6572862e-39
0.0016372917 -0.0077164341 0.14400001 1.0967247e-38
0.0023325922 -0.0077164341 0.14400001 1.1983979e-38
0.03562976 -0.0076391785 0.14400001 8.4870454e-39
0.036402319 -0.0075426088 0.14400002 7.8402355e-39
0.03744527 -0.0075426088 0.14400002 8.1164622e-39
0.038372338 -0.0075426092 0.14400001 8.3948526e-39
0.035707016 -0.006480345 0.14400001 7.9331514e-39
0.036402315 -0.0064803455 0.14400001 7.6565645e-39
0.037445266 -0.006480345 0.14400002 7.6572862e-39
0.038422 -0.0064251618 0.14400001 8.1182629e-39
0.036402315 -0.0056305332 0.14400001 7.8409543e-39
0.03744527 -0.0056305337 0.14400002 7.1963066e-39
0.03848822 -0.0056305327 0.14400001 7.1963066e-39
0.036534756 -0.0046372465 0.14400001 7.9331486e-39
0.037445273 -0.0045875832 0.14400002 7.3803349e-39
0.038604103 -0.0045875823 0.14400002 7.3799762e-39
0.036634084 -0.0036605154 0.14400001 7.5643661e-39
0.037445266 -0.0035446323 0.14400002 7.3799748e-39
0.038604103 -0.0035446326 0.14400002 7.3799748e-39
0.039415285 -0.0034287488 0.14400001 7.0119125e-39
0.037494931 -0.0025347914 0.14400002 7.5640059e-39
0.038604103 -0.0025016814 0.14400002 7.7487587e-39
0.039415285 -0.0025016817 0.14400001 8.5785194e-39
0.037590124 -0.0014877019 0.14400001 7.3799748e-39
0.038604099 -0.0014587309 0.14400002 7.6565617e-39
0.039507993 -0.0014123777 0.14400001 7.7487573e-39
-0.0053929687 -0.0001840137 0.14400001 1.0596281e-38
0.0044184937 -0.00041578049 0.14400001 7.3741692e-39
0.037677035 -0.00047372218 0.14400001 7.2877792e-39
0.038604103 -0.00047372215 0.14400002 7.0104692e-39
0.039569795 -0.00042865635 0.14400001 7.1023061e-39
-0.0062942845 0.00062717008 0.14400001 1.6032226e-38
-0.0053929687 0.00039540324 0.14400001 1.391243e-38
-0.0048521794 0.00016363649 0.14400001 1.0779592e-38
0.037792917 0.00054991449 0.14400001 7.5636472e-39
0.038604103 0.00054991461 0.14400002 7.1948619e-39
0.03964705 0.00054991449 0.14400001 8.2086523e-39
0.040342353 0.0007430535 0.14400001 8.3937638e-39
-0.0080969147 0.0010907036 0.14400001 1.9167266e-38
-0.007401614 0.001399726 0.14400001 1.879739e-38
-0.0066136075 0.0013688237 0.14400001 1.8337127e-38
0.037792917 0.0013224704 0.14400001 7.102669e-39
0.038604099 0.0014769818 0.14400002 7.3796161e-39
0.039647054 0.0014769816 0.14400001 8.4859594e-39
0.040507894 0.0015211276 0.14400001 7.4718075e-39
0.038604107 0.0024813046 0.14400002 7.1030278e-39
0.03964705 0.0024813043 0.14400002 7.4721676e-39
0.040574122 0.0024813043 0.14400002 7.6565575e-39
0.041153535 0.0027130712 0.14400001 7.2870561e-39
0.038719986 0.0034856275 0.14400001 7.1026648e-39
0.03964705 0.0034856275 0.14400001 7.6554799e-39
0.040574122 0.003485627 0.14400001 7.6561987e-39
0.041335639 0.00354081 0.14400001 7.7487545e-39
0.038835868 0.0044126944 0.14400001 7.3803307e-39
0.03964705 0.0044126939 0.14400001 7.6569176e-39
0.040574118 0.0044126944 0.14400001 7.3803307e-39
0.041423932 0.0044126944 0.14400001 7.4718061e-39
0.038874496 0.0053397617 0.14400001 7.1955765e-39
0.039647054 0.0054363315 0.14400002 7.1952178e-39
0.040574118 0.005436331 0.14400002 7.471446e-39
0.041501187 0.0054777185 0.14400002 7.5632815e-39
0.038951751 0.0061895731 0.14400001 7.6551141e-39
0.03964705 0.0064213402 0.14400001 7.5629213e-39
0.040574122 0.0064213402 0.14400001 7.6551169e-39
0.04155913 0.0064213402 0.14400002 7.6551169e-39
0.039693404 0.0074179373 0.14400002 7.5629185e-39
0.040574118 0.0074642901 0.14400002 7.6551155e-39
0.041465536 0.0074375486 0.14400002 7.6551155e-39
0.03547525 0.0087390086 0.14400001 7.2863316e-39
0.038835868 0.008391358 0.14400001 8.6681871e-39
0.039762937 0.0082754744 0.14400001 7.6543953e-39
0.040805887 0.0082754744 0.14400001 7.8387865e-39
0.041423932 0.0082754744 0.14400001 7.4707229e-39
0.026436344 0.014301411 0.14400001 6.1785379e-39
0.025741041 0.015228478 0.14400001 6.1774589e-39
0.024813974 0.016387312 0.14400001 6.2718154e-39
0.025277508 0.016155547 0.14400001 6.5473204e-39
0.0078949956 0.019632047 0.14400001 1.204482e-38
0.0084357858 0.019632047 0.14400001 1.2152086e-38
0.0091310861 0.019554792 0.14400001 1.0594813e-38
0.0068520457 0.020790882 0.14400001 1.1763564e-38
0.0076632285 0.020489585 0.14400002 1.1122509e-38
0.0083585288 0.020396879 0.14400002 1.1414174e-38
0.0090538301 0.020095581 0.14400001 1.0871044e-38
0.0044184937 0.021949716 0.14400001 1.3140741e-38
0.0056932112 0.021486182 0.14400001 1.1029239e-38
0.007663229 0.021254415 0.14400001 8.2766839e-39
-0.0043555358 0.022611907 0.14400001 1.3596697e-38
-0.0037264547 0.022678124 0.14400001 1.3872203e-38
0.0036073099 0.022876782 0.14400001 1.2130189e-38
-0.0035002064 0.023494827 0.14400001 1.4883834e-38
-0.0029980447 0.023803851 0.14400001 1.4792353e-38
-0.0004486097 0.023803851 0.14400001 1.1947239e-38
0.00027566164 0.023514142 0.14400001 1.2956355e-38
0.0014982317 0.023711145 0.14400001 1.3048549e-38
0.0025643592 0.023726596 0.14400001 1.2038713e-38
0.003336915 0.023417572 0.14400001 1.167101e-38
-0.0029980447 0.024035616 0.14400001 1.4793072e-38
-0.0013756769 0.024730917 0.14400001 1.378287e-38
-0.00068037654 0.024557091 0.14400002 1.295707e-38
1.492395e-05 0.024035616 0.14400001 1.1853605e-38
-0.00070934737 0.025542101 0.14400001 1.2589731e-38
-0.00068037654 0.026353285 0.14400001 1.2405344e-38
0.0036073099 0.028207419 0.14400001 7.0943481e-39
-0.057695013 0.040491059 0.14400001 3.0453383e-39
-0.056072645 0.040954594 0.14400001 3.598512e-39
-0.055609114 0.040954594 0.14400001 4.6115892e-39
-0.057347365 0.041649893 0.14400001 3.2297281e-39
-0.056355912 0.041572634 0.14400001 3.5059577e-39
-0.055406313 0.041534014 0.14400001 9.2188623e-39
-0.054913811 0.041649893 0.14400001 1.9085232e-38
-0.056767948 0.042113427 0.14400001 3.5981505e-39
-0.055330992 0.042391546 0.14400001 1.4567289e-38
-0.054483388 0.042378306 0.14400001 1.7979958e-38
-0.053523209 0.042499706 0.14400001 1.8348742e-38
-0.050626125 0.042576961 0.14400001 1.8347659e-38
-0.054398771 0.043349519 0.14400001 1.8348019e-38
-0.053523213 0.043388143 0.14400002 1.908631e-38
-0.052480262 0.043457676 0.14400002 2.0008628e-38
-0.051784962 0.043619908 0.14400001 1.9824232e-38
-0.050973777 0.043040495 0.14400001 1.8808637e-38
-0.054476026 0.044508349 0.14400001 1.880972e-38
-0.053407326 0.044469718 0.14400002 2.0470332e-38
-0.052441627 0.044546977 0.14400002 2.1300809e-38
-0.051622726 0.044616509 0.14400002 2.0839472e-38
-0.050896522 0.044817373 0.14400001 2.0470332e-38
0.047295358 0.044778746 0.14400001 9.0375455e-39
-0.053059679 0.045589928 0.14400001 2.1853258e-38
-0.052712027 0.045531988 0.14400001 2.2037289e-38
-0.051205542 0.045589928 0.14400001 2.1944732e-38
-0.050770979 0.045560956 0.14400001 2.1484117e-38
-0.048424341 0.045821697 0.14400001 1.798068e-38
-0.052209865 0.046362486 0.14400001 2.2498259e-38
-0.05151457 0.046697259 0.14400001 2.2498615e-38
-0.050510235 0.046570476 0.14400002 2.2221312e-38
-0.049583174 0.04666448 0.14400002 2.1759622e-38
-0.048685078 0.04654596 0.14400001 1.9639487e-38
-0.047844924 0.046864644 0.14400001 1.8994833e-38
-0.050278477 0.047444064 0.14400001 2.2866677e-38
-0.049583174 0.047444064 0.14400001 2.2589374e-38
-0.048887875 0.047444064 0.14400001 2.1299367e-38
-0.046454325 0.047675829 0.14400001 5.624295e-39
-0.04564314 0.047907595 0.14400001 3.2275757e-39
-0.044600189 0.049645849 0.14400001 2.5836384e-39
-0.043557238 0.049993496 0.14400001 2.4914428e-39
-0.04320959 0.050225265 0.14400001 2.6747551e-39
-0.042398404 0.050920565 0.14400001 2.5825594e-39
-0.039733086 0.052079398 0.14400001 1.6598462e-38
-0.040157989 0.054397065 0.14400001 3.7803894e-39
-0.039617203 0.054455005 0.14400001 8.482012e-39
-0.038690131 0.054397065 0.14400001 1.6780695e-38
-0.03739224 0.054489773 0.14400001 4.1495208e-39
-0.036835998 0.05462883 0.14400001 2.1215785e-39
-0.039848968 0.055324133 0.14400001 4.0576951e-39
-0.037067767 0.055324133 0.14400001 6.4536927e-39
-0.036835998 0.055324126 0.14400001 3.4108782e-39
-0.035306338 0.055602252 0.14400001 1.7542365e-39
-0.034518331 0.055555899 0.14400001 1.7545966e-39
-0.035290886 0.056328457 0.14400001 2.0304647e-39
-0.034518331 0.056482971 0.14400001 1.8464321e-39
-0.033668522 0.056560222 0.14400001 1.9389879e-39
-0.034485221 0.057343811 0.14400001 2.2141371e-39
-0.033562295 0.05738106 0.14400001 2.1223002e-39
-0.033243611 0.058800634 0.14400001 2.3981682e-39
-0.032548312 0.058684751 0.14400001 1.9386292e-39
-0.033475377 0.059148286 0.14400001 3.0431775e-39
0.026619926 -0.046510484 0.14500001 8.3905072e-39
0.027631223 -0.046121527 0.14500001 8.5748984e-39
0.025530837 -0.045576978 0.14500001 8.4834245e-39
0.026444895 -0.045460291 0.14500001 8.6670941e-39
0.027436746 -0.045343604 0.145 8.5748984e-39
0.028253561 -0.045226917 0.14500001 8.3905072e-39
0.021485649 -0.044643477 0.14500001 8.3905044e-39
0.025530837 -0.044293407 0.145 8.5759788e-39
0.026415722 -0.044439267 0.145 8.6674542e-39
0.027436746 -0.044487894 0.145 8.6670941e-39
0.028420258 -0.04444344 0.145 8.3905072e-39
0.025530836 -0.043418247 0.145 8.8514853e-39
0.026386552 -0.043418247 0.145 8.7592897e-39
0.027436746 -0.043418247 0.145 8.7592897e-39
0.028486937 -0.043418247 0.145 8.3905072e-39
0.029187066 -0.04300984 0.14500001 8.2983143e-39
0.025619743 -0.042443071 0.145 8.9433222e-39
0.02638655 -0.0423875 0.145 8.6670955e-39
0.027436743 -0.042387512 0.145 8.6670969e-39
0.028486937 -0.042387504 0.145 8.39051e-39
0.029187066 -0.042387504 0.14500001 8.3905114e-39
0.025919799 -0.041726269 0.14500001 8.9433236e-39
0.026386552 -0.041531794 0.145 8.7592925e-39
0.027436746 -0.041531794 0.145 8.6667381e-39
0.028486937 -0.041531794 0.145 8.4827056e-39
0.029187066 -0.04153179 0.14500001 8.390154e-39
0.026415721 -0.040705252 0.145 8.8514881e-39
0.027436743 -0.040676083 0.145 8.4827056e-39
0.028486937 -0.04067608 0.145 8.39051e-39
0.029187066 -0.040676076 0.14500001 8.2983157e-39
0.026542135 -0.039664779 0.145 8.8514881e-39
0.027436744 -0.039567538 0.145 9.2202734e-39
0.028486939 -0.039567541 0.145 8.574904e-39
0.029187066 -0.039567541 0.14500001 8.5745453e-39
0.026619926 -0.038809069 0.14500001 9.3121103e-39
0.027468568 -0.038596902 0.145 9.4968617e-39
0.028486934 -0.038575687 0.145 8.5756271e-39
0.029303754 -0.03857569 0.145 8.574904e-39
0.027600106 -0.037572168 0.145 8.8511322e-39
0.028486937 -0.037525501 0.145 8.7600156e-39
0.029420443 -0.037525501 0.145 8.0224533e-39
0.027670121 -0.036475305 0.145 8.7589366e-39
0.028486937 -0.036475305 0.145 8.5756257e-39
0.029420443 -0.036475308 0.145 9.1288009e-39
-0.015154433 -0.035425112 0.14500001 1.3921532e-38
-0.014609888 -0.035464007 0.14500001 1.3644225e-38
0.027786808 -0.035425112 0.14500001 8.8511336e-39
0.028486937 -0.035425108 0.145 8.5756257e-39
0.029420441 -0.035425115 0.145 8.667464e-39
-0.019355206 -0.034608293 0.14500001 6.3610613e-39
-0.015504498 -0.034374919 0.145 1.3460544e-38
-0.014220928 -0.034141541 0.14500001 1.3736061e-38
-0.013870863 -0.034433261 0.14500001 1.3643864e-38
0.027786808 -0.034374919 0.14500001 8.6678227e-39
0.028486941 -0.034374919 0.145 8.5759858e-39
0.029537128 -0.034374919 0.145 8.3919561e-39
-0.023264261 -0.033441413 0.14500001 8.4826257e-39
-0.021222217 -0.033208039 0.14500001 1.3090203e-38
-0.016087938 -0.033208039 0.14500001 5.8086316e-39
-0.015562842 -0.033616446 0.14500001 1.1708458e-38
-0.014314279 -0.033441413 0.14500001 1.4012648e-38
0.028486937 -0.033519205 0.145 8.4845119e-39
0.029537128 -0.033519205 0.145 8.9451327e-39
0.030412292 -0.033441413 0.14500001 8.4841559e-39
-0.023205917 -0.03297466 0.14500001 8.5755388e-39
-0.01725482 -0.032274533 0.14500001 4.7966348e-39
-0.016554691 -0.032741286 0.145 4.7962775e-39
-0.014279271 -0.03268294 0.14500001 1.4196678e-38
-0.013365216 -0.032352325 0.145 1.3459112e-38
0.028486937 -0.032449562 0.145 9.1295254e-39
0.029537128 -0.032449566 0.145 8.6689073e-39
0.030509531 -0.032404188 0.145 8.4841559e-39
-0.017838262 -0.031574406 0.14500001 5.6263927e-39
0.02851611 -0.031457715 0.145 9.0373297e-39
0.029537128 -0.031418819 0.145 8.5770704e-39
0.030587319 -0.031418815 0.145 8.9454942e-39
0.031054076 -0.031107651 0.14500001 9.0373297e-39
0.028626963 -0.030640896 0.14500001 8.5770704e-39
0.029537128 -0.030563103 0.145 8.8536573e-39
0.030587323 -0.030563107 0.145 8.6692675e-39
0.031054074 -0.030563107 0.14500001 8.7614617e-39
-0.020638775 -0.029240642 0.14500001 1.1428189e-38
-0.017954949 -0.029940769 0.14500001 6.6405376e-39
0.028720314 -0.029532362 0.14500001 8.5770704e-39
0.029537128 -0.029532362 0.145 8.6696262e-39
0.030587321 -0.02953236 0.145 8.301208e-39
0.031054076 -0.02953236 0.14500001 8.3012066e-39
0.028720314 -0.028462717 0.14500001 8.7614631e-39
0.029537128 -0.028462721 0.145 8.7621834e-39
0.030587323 -0.028462717 0.145 8.3019297e-39
0.031170763 -0.028365478 0.14500001 7.9335045e-39
0.029537132 -0.027607009 0.145 8.8536601e-39
0.030587323 -0.027607007 0.145 7.6562002e-39
0.03128745 -0.027607007 0.145 7.5640031e-39
-0.020055335 -0.026206747 0.14500001 8.1127614e-39
-0.019821959 -0.026206747 0.14500001 7.469557e-39
0.029617913 -0.026583739 0.145 8.8536601e-39
0.030587321 -0.026556812 0.145 8.485958e-39
0.031287454 -0.026556814 0.145 8.9469362e-39
0.029770508 -0.025506618 0.145 8.9469376e-39
0.030587323 -0.025506619 0.145 8.6703507e-39
0.031443041 -0.025506619 0.145 8.6707108e-39
-0.020755464 -0.024339737 0.14500001 9.4942483e-39
0.029887196 -0.024456427 0.14500001 9.4071997e-39
0.030587321 -0.024456427 0.145 8.854386e-39
0.031520825 -0.024423087 0.145 8.6703549e-39
0.029887194 -0.023406232 0.14500001 9.5901504e-39
0.030587323 -0.023406232 0.145 9.1309715e-39
0.03157917 -0.023406232 0.145 9.1309729e-39
0.029887196 -0.022414383 0.14500001 1.0512468e-38
0.030587321 -0.022414381 0.145 9.0384185e-39
0.031579174 -0.022414383 0.145 8.854386e-39
0.03222096 -0.022414383 0.14500001 9.2231685e-39
0.029770508 -0.021305844 0.145 1.1340062e-38
0.030587323 -0.021305842 0.145 8.8536657e-39
0.031579174 -0.021305844 0.145 8.854386e-39
0.03240766 -0.02125917 0.14500001 8.9465816e-39
0.029887194 -0.020450132 0.14500001 1.0695415e-38
0.030587325 -0.020450134 0.145 9.0380556e-39
0.03157917 -0.020450132 0.145 8.8540259e-39
0.032454334 -0.020450132 0.145 1.0420633e-38
0.029887196 -0.019905588 0.14500001 1.0420267e-38
0.030587323 -0.019594418 0.145 9.038057e-39
0.03157917 -0.019594418 0.145 8.9465802e-39
0.032609921 -0.01959442 0.145 9.5915909e-39
0.030665113 -0.018609053 0.145 8.3934065e-39
0.031579174 -0.018563673 0.145 8.301571e-39
0.032609921 -0.018563675 0.145 9.1313316e-39
0.033154462 -0.018427538 0.14500001 9.2231685e-39
0.030727347 -0.017571826 0.14500001 9.4079185e-39
0.031579174 -0.017494032 0.145 9.0380584e-39
0.032609921 -0.017494032 0.145 9.0384185e-39
0.033154462 -0.017494032 0.14500001 9.2231685e-39
0.030820699 -0.016638322 0.14500001 9.1316932e-39
0.03157917 -0.016638318 0.145 8.9462215e-39
0.032609921 -0.01663832 0.145 8.8540259e-39
0.033271149 -0.016696664 0.14500001 8.854386e-39
0.030820699 -0.015938191 0.14500001 8.7621904e-39
0.031614181 -0.015611464 0.145 9.4993939e-39
0.032609921 -0.015588126 0.145 8.9462215e-39
0.033154462 -0.015588126 0.14500001 8.7621932e-39
0.03178338 -0.014567103 0.145 8.9469404e-39
0.032609921 -0.014537932 0.145 8.7621904e-39
0.033341162 -0.014491257 0.14500001 8.9465816e-39
0.031870894 -0.013487739 0.145 8.4863224e-39
0.032609921 -0.013487741 0.145 8.4863224e-39
0.033515133 -0.013455916 0.145 8.670715e-39
0.031987581 -0.012437548 0.14500001 7.93315e-39
0.032609921 -0.012437546 0.145 8.0253456e-39
0.033543423 -0.012437546 0.145 8.0253442e-39
0.034087967 -0.012320858 0.14500001 7.8409529e-39
0.032645281 -0.011482826 0.145 7.9335115e-39
0.033543423 -0.011445697 0.145 7.841676e-39
0.034187987 -0.011370684 0.145 7.6572848e-39
0.0328044 -0.01033716 0.145 8.3022912e-39
0.033543423 -0.010337161 0.145 7.841676e-39
0.034399137 -0.010337159 0.145 7.7494804e-39
0.035021473 -0.010103785 0.14500001 7.9338716e-39
0.032921087 -0.0094814477 0.14500001 8.1175398e-39
0.033543423 -0.0094814477 0.145 7.8409543e-39
0.034399137 -0.0094814487 0.145 7.4718131e-39
0.035079818 -0.0094036553 0.14500001 7.471453e-39
0.033578787 -0.0084913662 0.145 7.9335101e-39
0.034399137 -0.0084701506 0.145 7.3803363e-39
0.03513816 -0.0084701497 0.145 7.7487601e-39
0.033543423 -0.0074588531 0.145 7.93315e-39
0.034399137 -0.0074588531 0.145 7.5647276e-39
0.035225678 -0.0074199573 0.145 7.933873e-39
0.033737905 -0.0065253475 0.145 7.9331514e-39
0.034399137 -0.0065253475 0.145 8.3019339e-39
0.035254851 -0.0065253479 0.145 7.9331514e-39
0.033796247 -0.0057279784 0.14500001 8.2093767e-39
0.034399137 -0.0056696339 0.145 7.9327912e-39
0.035429884 -0.0056696343 0.145 7.7487587e-39
0.033854593 -0.0049695056 0.14500001 7.5643661e-39
0.034399133 -0.004619441 0.145 7.8405942e-39
0.035429884 -0.004619441 0.145 7.9327884e-39
0.036235034 -0.0045494279 0.14500001 7.7487573e-39
0.03455472 -0.0035692474 0.145 8.1171797e-39
0.035429884 -0.0035692474 0.145 7.5632857e-39
0.036388397 -0.0035359079 0.145 7.3792545e-39
0.034632515 -0.0025968465 0.145 7.4718103e-39
0.03542988 -0.0025190543 0.145 7.7483958e-39
0.036499526 -0.0025190543 0.145 8.4859594e-39
0.037121862 -0.0022856779 0.14500001 8.0249813e-39
0.0053826831 -0.0012354848 0.14500001 7.3752692e-39
0.034788098 -0.0013521729 0.14500001 7.1033879e-39
0.035429884 -0.0013521732 0.145 7.2881407e-39
0.036499526 -0.0013521732 0.145 7.8405942e-39
0.037199657 -0.0012743809 0.145 7.4718117e-39
-0.0064728335 -0.00016195394 0.14500001 1.1334569e-38
0.0046825539 -0.000535356 0.14500001 7.3741748e-39
0.034788098 -0.00030197972 0.14500001 7.2870603e-39
0.035429884 -0.00030197972 0.145 7.1945045e-39
0.036499526 -0.00030197969 0.145 7.3796161e-39
0.037238549 -0.00030197972 0.145 7.2877792e-39
-0.0076397159 0.00077155128 0.14500001 1.2710317e-38
-0.0069084694 0.00047594125 0.14500001 1.3449667e-38
0.035429884 0.00063152547 0.145 7.5636472e-39
0.036499519 0.00063152541 0.145 7.9324283e-39
0.037355237 0.00063152541 0.145 7.2874176e-39
-0.0074530146 0.001098278 0.14500001 1.732226e-38
0.035566017 0.0014872386 0.145 7.6558428e-39
0.036499523 0.0014872384 0.145 7.4714516e-39
0.03735524 0.0014872386 0.145 7.2870603e-39
0.038055368 0.0017984068 0.14500001 7.3792559e-39
0.035692427 0.0023818475 0.145 7.5636444e-39
0.036499526 0.0024985354 0.145 7.3792559e-39
0.03735524 0.0024985357 0.145 7.2870603e-39
0.038055368 0.0024985357 0.14500001 7.1948633e-39
0.035954978 0.0033153528 0.14500001 7.84059e-39
0.036499519 0.0035098332 0.145 7.1030264e-39
0.037355237 0.0035098332 0.145 7.1026676e-39
0.038172051 0.0035098332 0.145 7.2874162e-39
0.010983715 0.0041321698 0.14500001 3.5977315e-39
0.036588427 0.0043988856 0.145 7.1952206e-39
0.03735524 0.0044433381 0.145 7.103025e-39
0.038288742 0.0044433381 0.145 7.379972e-39
0.036732901 0.0053768433 0.145 7.5629213e-39
0.03735524 0.0054740836 0.145 7.2866946e-39
0.038355421 0.0055157579 0.145 7.1948577e-39
0.037355237 0.0064659324 0.145 7.1941388e-39
0.03840543 0.0064659328 0.145 7.6547526e-39
0.039222248 0.0065826206 0.14500001 8.0238967e-39
0.03735524 0.0073994375 0.145 7.4703642e-39
0.03840543 0.0073994375 0.145 8.2997605e-39
0.039280593 0.0074577816 0.14500001 8.1146546e-39
0.03735524 0.0084496308 0.145 7.1952164e-39
0.038373604 0.0083117262 0.145 8.1164524e-39
0.039377831 0.0081773587 0.14500001 8.2986857e-39
0.036888484 0.0092664473 0.14500001 7.5621996e-39
0.037238549 0.0092664473 0.14500001 7.194136e-39
0.026153175 0.014867479 0.14500001 6.0863423e-39
0.025511391 0.015509265 0.14500001 6.6391573e-39
0.024986293 0.016267737 0.14500001 6.6405979e-39
0.02521967 0.016034361 0.14500001 7.0093804e-39
0.02078552 0.020701887 0.14500001 5.7168367e-39
0.0054993713 0.021868767 0.14500001 1.1028519e-38
0.0065495647 0.021635391 0.145 1.0845567e-38
0.0072496934 0.021518704 0.14500001 9.8353762e-39
0.0084165754 0.021402014 0.14500001 1.0496914e-38
0.0039824252 0.022802273 0.14500001 1.2313498e-38
0.0043908334 0.022510553 0.14500001 1.2496811e-38
0.0056452313 0.022452209 0.145 1.0754089e-38
0.0063939802 0.022257729 0.14500001 1.0201638e-38
0.00094853283 0.023969155 0.14500001 1.2496813e-38
0.0039824252 0.023035649 0.14500001 1.2130189e-38
0.0058494355 0.023035649 0.14500001 9.6524227e-39
-0.00021834872 0.024785971 0.14500001 1.1854681e-38
1.5027589e-05 0.024785971 0.14500001 1.1393703e-38
0.001726454 0.024358116 0.14500001 1.2221666e-38
0.0022321027 0.024202531 0.14500001 1.2037993e-38
-0.00021834874 0.025447205 0.14500001 1.2314221e-38
1.5027589e-05 0.025136035 0.14500001 1.2037993e-38
-0.0003583745 0.026302915 0.14500001 1.2130196e-38
-0.00045172503 0.027003044 0.14500001 1.2038359e-38
0.0023487909 0.027469797 0.14500001 8.1927699e-39
0.0039824252 0.027703173 0.14500001 8.9353404e-39
0.0044491775 0.027703173 0.145 9.4881485e-39
0.0023487909 0.028286614 0.14500001 7.36987e-39
0.0039824252 0.028286614 0.14500001 7.4631124e-39
0.0044491775 0.028169924 0.14500001 8.4761727e-39
-0.059495933 0.036604814 0.145 3.0446236e-39
-0.06112957 0.037660562 0.14500001 2.9538657e-39
-0.060429443 0.037504975 0.145 2.769473e-39
-0.059437588 0.037504978 0.145 3.0449809e-39
-0.058515757 0.037598331 0.14500001 2.9527853e-39
0.010983715 0.0372716 0.14500001 1.0510902e-38
0.01152826 0.03758277 0.14500001 1.0787498e-38
-0.061222922 0.038578507 0.14500001 3.138257e-39
-0.060429439 0.038516276 0.145 2.8616659e-39
-0.059437592 0.038516276 0.145 2.860947e-39
-0.058329053 0.038516272 0.145 2.9531426e-39
-0.061246261 0.039371986 0.145 3.4141236e-39
-0.060429439 0.039371986 0.145 3.1375339e-39
-0.059437588 0.039371993 0.145 2.860947e-39
-0.058329053 0.03937199 0.145 2.9527839e-39
-0.057590034 0.039449777 0.145 3.136815e-39
-0.061207365 0.040149909 0.14500001 3.5059605e-39
-0.060429443 0.040072117 0.14500001 3.1375353e-39
-0.059320904 0.040217977 0.145 2.9531426e-39
-0.058329053 0.040305495 0.145 2.9531426e-39
-0.057473343 0.040305495 0.145 3.136815e-39
-0.056662083 0.040372174 0.145 3.3215664e-39
-0.055995289 0.04053887 0.14500001 3.9669386e-39
-0.059145868 0.041238997 0.14500001 3.0453383e-39
-0.058295716 0.041238997 0.145 3.0453383e-39
-0.057465561 0.041285671 0.145 3.1375339e-39
-0.05669542 0.041063968 0.14500001 3.413762e-39
-0.055398885 0.041264929 0.145 1.4752039e-38
-0.054517239 0.041472375 0.145 1.7979957e-38
-0.053894904 0.04170575 0.14500001 1.7333507e-38
-0.058095679 0.042172503 0.14500001 3.1375311e-39
-0.055061784 0.04228919 0.14500001 1.844022e-38
-0.054419998 0.042230848 0.14500001 1.8071075e-38
-0.053661525 0.042366982 0.145 1.78874e-38
-0.052650232 0.042794839 0.145 1.8717523e-38
-0.05156114 0.04287263 0.14500001 1.8439855e-38
-0.052447967 0.043386061 0.14500001 1.9086666e-38
-0.051594485 0.04363944 0.145 1.8901915e-38
-0.050510947 0.043806136 0.14500001 1.8439855e-38
-0.054128278 0.04497302 0.14500001 1.9639848e-38
-0.052027892 0.044506267 0.14500001 2.0470332e-38
-0.051527802 0.044339571 0.145 1.9824237e-38
-0.050510947 0.044564612 0.145 1.9269978e-38
-0.04951261 0.044687781 0.145 1.7978876e-38
-0.048994001 0.04497302 0.14500001 1.7333507e-38
-0.054517239 0.04555646 0.145 1.9454377e-38
-0.053894904 0.045673147 0.14500001 2.1022427e-38
-0.050440937 0.045649808 0.145 2.0378131e-38
-0.04946075 0.045673147 0.145 1.9177424e-38
-0.048627265 0.045773171 0.145 1.7887042e-38
0.047857173 0.045906525 0.14500001 9.589276e-39
-0.05051095 0.0461399 0.14500001 2.1115696e-38
-0.049460754 0.0461399 0.14500001 1.9731684e-38
-0.048410553 0.046528861 0.145 1.8072515e-38
-0.051327765 0.047540158 0.14500001 2.277484e-38
-0.047360364 0.047773529 0.14500001 1.4846742e-38
-0.046738029 0.047617953 0.14500001 5.0704023e-39
-0.051327765 0.048006911 0.14500001 2.3050707e-38
-0.050861012 0.048006911 0.14500001 2.295887e-38
-0.043159593 0.050574049 0.14500001 2.4903638e-39
-0.042459466 0.051974308 0.14500001 2.4914428e-39
-0.041914921 0.051818725 0.14500001 2.9520622e-39
-0.040514663 0.052596644 0.14500001 1.2353875e-38
-0.039658949 0.052674435 0.14500001 1.4109537e-38
-0.041292585 0.053724632 0.14500001 2.7680297e-39
-0.040475767 0.053607944 0.145 5.9923726e-39
-0.039892323 0.053607941 0.14500001 1.7151279e-38
-0.040534109 0.054366414 0.14500001 3.6885567e-39
-0.039814532 0.054463655 0.14500001 1.2076927e-38
-0.038317032 0.054599792 0.14500001 1.0603218e-38
-0.037558559 0.054541446 0.14500001 2.0304619e-39
-0.036158305 0.055825017 0.14500001 1.8460734e-39
-0.035633206 0.055533297 0.14500001 1.7542379e-39
-0.034291293 0.05804209 0.14500001 2.4892848e-39
-0.033404462 0.058602195 0.14500001 2.2144958e-39
-0.034057915 0.059675723 0.14500001 4.1488061e-39
0.022691261 -0.045186345 0.14600001 8.205753e-39
0.023748698 -0.045303836 0.14600001 8.2061117e-39
0.024688641 -0.045280337 0.14600001 8.3905072e-39
0.020575134 -0.044498682 0.14683335 8.1139175e-39
0.02150731 -0.04449068 0.14645456 8.4827014e-39
0.022485975 -0.044436555 0.14611113 8.6670927e-39
0.02357246 -0.044481385 0.14600001 8.6670941e-39
0.024610311 -0.044481389 0.14600001 8.7592897e-39
0.020392004 -0.043573502 0.147 7.9295248e-39
0.021397306 -0.043564759 0.14672726 8.5745369e-39
0.02249446 -0.043449543 0.14614287 8.8511252e-39
0.02357246 -0.043423954 0.146 8.8514853e-39
0.024610313 -0.043423951 0.14600001 8.9436809e-39
0.020480728 -0.042538397 0.147 7.745135e-39
0.021420812 -0.042504024 0.1468 8.4823399e-39
0.022573769 -0.04236652 0.14600001 8.8511252e-39
0.02357246 -0.042366516 0.14600001 8.758931e-39
0.024610313 -0.042366512 0.14600001 9.4046619e-39
0.025276106 -0.042307772 0.14600001 8.9436838e-39
0.020599026 -0.041592021 0.147 7.9295276e-39
0.021351887 -0.04139705 0.14692305 8.2983101e-39
0.022391099 -0.041395489 0.14652942 8.6670955e-39
0.02357246 -0.041504897 0.14600001 8.7592925e-39
0.024610311 -0.041504905 0.14600001 8.9436838e-39
0.025511092 -0.041455943 0.14600001 8.8514881e-39
0.02142711 -0.040290743 0.147 8.2068348e-39
0.022435669 -0.040369082 0.14685713 8.7592897e-39
0.023550643 -0.040461186 0.14605881 8.8514881e-39
0.024610313 -0.04048663 0.14600001 9.0358794e-39
0.025550256 -0.04048663 0.14600001 8.8514881e-39
0.026098557 -0.040329974 0.14600001 8.8514881e-39
0.02142711 -0.039344367 0.147 8.2986731e-39
0.022373492 -0.039344367 0.14699998 8.8514881e-39
0.023587922 -0.039397392 0.14657143 8.8511308e-39
0.024610311 -0.039390031 0.14600001 9.0355235e-39
0.025550256 -0.039390031 0.14600001 9.1277177e-39
0.026216051 -0.039390031 0.14600001 9.0355221e-39
0.02137641 -0.038431786 0.147 8.2990346e-39
0.02237349 -0.038476843 0.14699998 8.9436838e-39
0.023574552 -0.03848974 0.14674999 8.8511322e-39
0.024610313 -0.038528416 0.14600001 9.0355235e-39
0.025550256 -0.038528416 0.14600001 9.1277191e-39
0.026411869 -0.038528413 0.14600001 8.8511322e-39
0.027038498 -0.038371757 0.14600001 8.8511322e-39
0.021338388 -0.037658624 0.147 8.2068418e-39
0.02237349 -0.037609335 0.14699998 8.8514909e-39
0.023574548 -0.0376237 0.14674999 8.8514923e-39
0.024610311 -0.037666798 0.14600001 8.9433278e-39
0.025550256 -0.037666801 0.14600001 9.0355235e-39
0.026411869 -0.037666801 0.14600001 8.8511322e-39
0.027132493 -0.037619799 0.14600001 8.7589366e-39
0.02142711 -0.036505222 0.147 8.1146462e-39
0.02237349 -0.036505222 0.147 8.391233e-39
0.023581598 -0.036532082 0.14694117 8.7600156e-39
0.024605708 -0.036529701 0.14615385 8.9440467e-39
0.025550259 -0.036550619 0.14600001 8.8514923e-39
0.026411869 -0.036550615 0.14600001 8.6674598e-39
0.027195154 -0.036491871 0.14600001 8.8511322e-39
-0.01948869 -0.035316944 0.14600001 6.6376481e-39
-0.015245162 -0.035558842 0.147 1.4013727e-38
-0.014553988 -0.035316944 0.14600001 1.3736061e-38
0.02142711 -0.035479978 0.147 8.1146462e-39
0.02237349 -0.035479978 0.14699998 8.2990374e-39
0.023556469 -0.035479981 0.14699998 8.6678199e-39
0.024665607 -0.035527945 0.14633334 9.3124719e-39
0.025550256 -0.035551928 0.14600001 8.8518525e-39
0.02641187 -0.035551932 0.14600001 8.8514937e-39
0.027273484 -0.035551928 0.14600001 9.035885e-39
-0.0234077 -0.034375865 0.147 8.8514096e-39
-0.022778492 -0.034846973 0.14600001 8.7588483e-39
-0.014632317 -0.034533657 0.14600001 1.3644945e-38
0.021545408 -0.034730755 0.147 8.2068418e-39
0.022373492 -0.034612458 0.14699998 8.2993975e-39
0.023556469 -0.034612454 0.14699998 8.575983e-39
0.024678884 -0.034569327 0.14645456 8.6681829e-39
0.025550256 -0.034494493 0.14600001 8.9447684e-39
0.02641187 -0.034494493 0.14600001 8.8525741e-39
0.027327707 -0.03446738 0.14600001 8.8525741e-39
-0.0234077 -0.033902675 0.147 8.8517628e-39
-0.015363459 -0.033902675 0.147 1.4104844e-38
0.022559388 -0.033699878 0.147 8.391233e-39
0.023556469 -0.033666078 0.14699998 8.5763432e-39
0.024643108 -0.033589739 0.14666668 8.761096e-39
0.025550256 -0.033437055 0.14600001 8.6689017e-39
0.026411869 -0.033437055 0.14600001 9.0373269e-39
0.027449721 -0.033437051 0.14600001 8.6689031e-39
-0.022308521 -0.03202714 0.14600001 1.078354e-38
-0.017374519 -0.032483101 0.147 5.1654174e-39
-0.016723882 -0.032601401 0.147 4.9810275e-39
-0.01448473 -0.0326076 0.14650001 1.4104843e-38
-0.013943887 -0.032483101 0.147 1.3827894e-38
0.022728384 -0.032719698 0.147 8.391233e-39
0.023556469 -0.032601401 0.147 8.6681815e-39
0.02462115 -0.032601401 0.14699998 8.6689017e-39
0.025564617 -0.032397896 0.14608334 9.0369682e-39
0.02641187 -0.032379616 0.14600001 9.4057493e-39
0.027449721 -0.032379616 0.146 8.8529385e-39
0.023607165 -0.031452224 0.14699998 8.7600184e-39
0.024621146 -0.031418428 0.14699998 8.6685416e-39
0.025580022 -0.031360682 0.1464 8.6689017e-39
0.02641187 -0.031322185 0.14600001 8.7610974e-39
0.02744972 -0.031322185 0.14600001 8.6692633e-39
0.028213426 -0.031204693 0.14600001 8.3926792e-39
0.023674764 -0.030353745 0.147 8.5763516e-39
0.024621146 -0.030353745 0.147 8.6685472e-39
0.025603678 -0.030394178 0.1464 8.6689045e-39
0.026411869 -0.03046057 0.14600001 8.7610988e-39
0.027449721 -0.030460572 0.14600001 8.7611002e-39
0.028307419 -0.030382242 0.14600001 8.8536573e-39
-0.02031114 -0.029207312 0.14600001 1.1889575e-38
0.023793064 -0.02948623 0.147 8.7596638e-39
0.024621148 -0.02948623 0.147 8.7596638e-39
0.025609022 -0.0294885 0.14669999 9.1295254e-39
0.026411869 -0.029598951 0.14600001 8.7607428e-39
0.027449721 -0.029598951 0.14600001 8.9451341e-39
0.02833092 -0.029598957 0.14600001 8.945853e-39
0.02385221 -0.028638428 0.147 8.7603799e-39
0.024621148 -0.028539846 0.147 8.6681871e-39
0.025567528 -0.028539849 0.147 9.2217224e-39
0.026411869 -0.028502358 0.14600001 8.8529399e-39
0.02744972 -0.028502354 0.146 8.8536587e-39
0.028396193 -0.028450135 0.14600001 8.7614631e-39
0.023911361 -0.027514603 0.147 8.7614631e-39
0.024621146 -0.027514597 0.14699998 8.4848762e-39
0.02556753 -0.027514605 0.14699998 9.0376927e-39
0.026357401 -0.027496289 0.1464 8.9451369e-39
0.02744972 -0.027484084 0.14600001 8.8533014e-39
0.02852674 -0.027484084 0.14600001 8.8536601e-39
0.023911361 -0.026804816 0.147 8.8536573e-39
0.024621146 -0.026489355 0.147 8.8536601e-39
0.025567526 -0.026489355 0.147 8.9458558e-39
0.026392588 -0.026578099 0.14633335 8.9458558e-39
0.027449721 -0.026622469 0.14600001 8.7614659e-39
0.02852674 -0.026622467 0.14600001 8.8536615e-39
0.029153369 -0.026622469 0.14600001 8.9458558e-39
-0.0094485767 -0.025148647 0.147 4.9792591e-39
0.024621148 -0.025542973 0.147 9.1298869e-39
0.025567528 -0.025542973 0.147 8.9458572e-39
0.026392588 -0.02563601 0.14633334 9.1302484e-39
0.027449721 -0.025682531 0.14600001 8.7618274e-39
0.02852674 -0.025682526 0.14600001 8.7614673e-39
0.029270859 -0.025682524 0.14600001 9.2231643e-39
-0.021678353 -0.024591528 0.14650001 1.299693e-38
-0.020428633 -0.024272611 0.14600001 7.8358186e-39
-0.0094485767 -0.024912052 0.147 4.8870634e-39
0.024621148 -0.024675457 0.147 9.3142796e-39
