# .PCD v0.7 - Point Cloud Data file format
VERSION 0.7
FIELDS x y z rgb
SIZE 4 4 4 4
TYPE F F F F
COUNT 1 1 1 1
WIDTH 998
HEIGHT 1
VIEWPOINT 0 0 0 1 0 0 0
POINTS 998
DATA ascii
-0.038839787 0.044929653 0.12100001 4.7012597e-39
0.018903146 0.044150658 0.12100001 4.5175522e-39
0.01919527 0.044345409 0.12100001 4.6097479e-39
-0.039131913 0.0451244 0.12100001 5.9912768e-39
-0.038547665 0.045465205 0.12100001 3.8729409e-39
0.020811681 0.04555285 0.12100001 4.7941391e-39
-0.038158171 0.046098143 0.12100001 3.5045185e-39
-0.037768669 0.046438955 0.12100001 3.2286519e-39
0.014521304 0.046877138 0.12100001 5.2608107e-39
0.015008175 0.046877138 0.12100001 5.353005e-39
0.020753257 0.046195518 0.12100001 4.7019435e-39
0.021434875 0.046877138 0.12100001 6.6391111e-39
-0.036015935 0.047656134 0.12100001 2.9524238e-39
-0.034555323 0.047850881 0.12100001 2.952421e-39
0.0079972297 0.047850881 0.12100001 8.1184913e-39
0.0085814754 0.047850881 0.12100001 7.4731163e-39
0.011405328 0.047850881 0.12100001 5.6310226e-39
0.012281696 0.047169261 0.12100001 6.7370114e-39
0.01354756 0.047169261 0.12100001 6.182753e-39
0.014099348 0.047136802 0.12100001 5.8136174e-39
0.015631372 0.047286104 0.12100001 5.9983646e-39
0.016507741 0.047266632 0.12100001 6.3675002e-39
0.017500957 0.047227684 0.12100001 7.5645917e-39
0.018708397 0.04773403 0.12100001 5.7178611e-39
0.019097894 0.047753505 0.12100001 5.1636321e-39
0.021434875 0.047071885 0.12100001 7.0082411e-39
-0.035181303 0.048574235 0.121 2.9524224e-39
-0.034574799 0.048396178 0.12100001 2.952421e-39
0.0078414306 0.048493553 0.12100001 8.8564179e-39
0.0086788498 0.048435125 0.12100002 9.131923e-39
0.0093994197 0.048357226 0.12100001 8.4865606e-39
0.010723708 0.048045628 0.12100001 5.815411e-39
0.011210579 0.048045628 0.12100001 5.5395458e-39
0.018838229 0.048240375 0.12100001 5.5331181e-39
0.01920918 0.048379488 0.121 5.1632748e-39
-0.03523694 0.04901937 0.12100001 3.0446166e-39
-0.034506634 0.049068056 0.12100001 2.952421e-39
0.0046215886 0.049895737 0.121 9.6847436e-39
0.0050760019 0.049993116 0.12100001 1.0882202e-38
0.0065853028 0.049871404 0.121 9.7765931e-39
0.0075915032 0.049546823 0.12100003 9.9620508e-39
0.0086788489 0.049525719 0.12100003 1.0790724e-38
0.0093929274 0.049538702 0.121 1.1435738e-38
0.019779515 0.04901937 0.12100001 5.2551173e-39
0.020071637 0.04901937 0.12100001 5.5334866e-39
0.01169283 -0.038463883 0.123 7.7451308e-39
0.030546313 0.013687337 0.12200001 9.7733085e-39
0.031469196 0.013648066 0.122 9.589276e-39
0.032215353 0.013589159 0.122 9.589276e-39
0.026342424 0.014789365 0.123 9.774075e-39
0.029597247 0.014603674 0.12200001 9.3112584e-39
0.030349955 0.014374589 0.12199999 9.2201403e-39
0.031380836 0.014374589 0.12199999 9.4045288e-39
0.032149903 0.014341863 0.12199999 9.4048875e-39
0.025539184 0.0152582 0.12200001 9.1269708e-39
0.027699122 0.015650917 0.12200001 9.1272286e-39
0.0284191 0.015520011 0.12199999 1.0141365e-38
0.029368162 0.01535638 0.12199999 9.8637063e-39
0.03035328 0.01537677 0.12206249 8.7588104e-39
0.031387992 0.015397159 0.12212499 8.7591692e-39
0.032299507 0.015384429 0.12199999 8.9435576e-39
0.027568216 0.016436348 0.12199999 9.3108996e-39
0.028386375 0.01638726 0.12199999 9.6793178e-39
0.029368164 0.01638726 0.12199999 9.4952881e-39
0.030396955 0.016465848 0.12258334 8.1138096e-39
0.031337298 0.016449245 0.12300002 7.9304973e-39
0.032346044 0.016273284 0.1225 8.3914685e-39
0.027404584 0.017369047 0.12199999 9.9555418e-39
0.028386375 0.017369049 0.12199999 9.0350344e-39
0.029300194 0.017342618 0.12199999 9.0350344e-39
0.030347459 0.017439084 0.12300002 8.3900335e-39
0.031093644 0.017164975 0.123 7.6539146e-39
0.032132976 0.017511418 0.123 7.9315805e-39
0.026579883 0.018635556 0.12199999 1.1246261e-38
0.027404586 0.018478472 0.12199999 1.0048453e-38
0.028370876 0.018451598 0.12199999 8.5747807e-39
0.029380841 0.018451652 0.12266668 8.5751409e-39
0.030301774 0.018392373 0.123 8.3921915e-39
0.031213902 0.018621802 0.1225 7.2872999e-39
0.021405257 0.019755688 0.1225 6.4543961e-39
0.025760086 0.019749889 0.12199999 9.9562592e-39
0.026520975 0.019578077 0.12199999 9.9562592e-39
0.027381929 0.01948745 0.12199999 9.5881998e-39
0.028388044 0.019576345 0.1226 8.2074429e-39
0.029179959 0.019408606 0.123 8.0237804e-39
0.030697709 0.019144651 0.123 7.8404681e-39
0.031037208 0.019185361 0.12200001 6.826319e-39
0.025595287 0.020517785 0.12199999 9.2194229e-39
0.026646752 0.020677365 0.1229091 9.2194229e-39
0.027548224 0.020566417 0.12300002 9.2201403e-39
0.028322097 0.02035445 0.12300001 8.2996456e-39
0.025540508 0.021575704 0.12209091 8.9428402e-39
0.026606381 0.021278299 0.12300001 9.1272286e-39
0.027530229 0.021223307 0.123 8.9442765e-39
0.028272606 0.021173816 0.123 8.0234272e-39
0.021710204 0.022457993 0.122 9.2204991e-39
0.022503188 0.022750011 0.12199999 1.0140648e-38
0.023444697 0.022850709 0.12200001 1.0877484e-38
0.025710111 0.022319876 0.12250001 8.6662575e-39
0.021715535 0.023614937 0.12242857 1.0325395e-38
0.022554545 0.023554329 0.12199999 1.0140648e-38
0.023631705 0.023589389 0.12199999 1.0141006e-38
0.024655573 0.023897951 0.12200001 9.6800353e-39
0.025581375 0.023740448 0.12220001 8.6676924e-39
0.026596952 0.023782745 0.12300001 8.5776716e-39
0.027530229 0.023697902 0.123 9.1304923e-39
0.028223116 0.023499934 0.123 9.8669951e-39
0.033393506 0.023701593 0.12200001 6.3653478e-39
0.020862455 0.024438506 0.1225 9.6811199e-39
0.021470051 0.024557237 0.12207142 1.0509066e-38
0.022554543 0.02453612 0.12199999 1.0324677e-38
0.023673782 0.024421573 0.12199999 9.4956468e-39
0.024618607 0.024548758 0.1225 9.2197816e-39
0.025677817 0.024546336 0.12300002 8.7602482e-39
0.026639374 0.024489773 0.12300002 8.3007358e-39
0.027332261 0.024093837 0.123 8.57768e-39
0.033500209 0.024241626 0.12275001 6.1809594e-39
0.064467162 0.024830654 0.12200001 5.5364125e-39
0.021744046 0.025530921 0.12242857 1.0417948e-38
0.02255833 0.025490016 0.12246155 1.0325036e-38
0.023650067 0.025558798 0.12300002 9.587841e-39
0.024659701 0.025413623 0.12300002 8.8513634e-39
0.025649536 0.025281643 0.12300001 8.6684169e-39
0.026738361 0.025182659 0.123 8.3929384e-39
0.027332261 0.025529101 0.123 1.1802761e-38
0.063485369 0.025640629 0.12199999 5.8108344e-39
0.064319894 0.025517907 0.12199999 5.7197178e-39
0.021987138 0.026073512 0.123 9.9576941e-39
0.022630533 0.026518937 0.12300002 9.6807527e-39
0.023306921 0.026205489 0.123 9.8644237e-39
0.027502764 0.026843321 0.12200001 1.1248524e-38
0.030697709 0.026073512 0.123 9.4066812e-39
0.031093644 0.026073512 0.123 8.2085149e-39
0.062768444 0.026350668 0.123 5.5342475e-39
0.063437819 0.026530227 0.12231249 5.6264431e-39
0.064319894 0.026499694 0.12199999 5.6268019e-39
0.02271302 0.027195327 0.123 9.40417e-39
0.062812433 0.02761326 0.12300001 5.532444e-39
0.063537136 0.027542625 0.12269233 5.5335244e-39
0.064287156 0.027366944 0.12199999 5.6260816e-39
0.062616162 0.028433897 0.12300002 5.1643804e-39
0.063582316 0.028317144 0.12300001 5.3491318e-39
0.01022326 0.029788692 0.12200001 8.2067283e-39
0.023835337 0.029556073 0.12266666 8.9442793e-39
0.028619051 0.029537942 0.123 7.9308561e-39
0.034178935 0.029690512 0.12200001 1.0142441e-38
0.062372513 0.029043024 0.123 5.0725435e-39
0.0097131552 0.030626765 0.123 9.4056246e-39
0.010279292 0.030426919 0.12220001 9.4056358e-39
0.024560716 0.030428797 0.123 8.943929e-39
0.027728194 0.030626765 0.123 1.1893521e-38
0.028091839 0.030770481 0.12200001 1.1986086e-38
0.033295326 0.030574122 0.12200001 1.0788877e-38
0.034299184 0.030412322 0.12266666 9.1279461e-39
0.010390872 0.031495258 0.12244444 1.0326164e-38
0.012088765 0.031418633 0.123 6.1798874e-39
0.023966813 0.031814568 0.123 1.3183535e-38
0.024659485 0.031609215 0.12287501 1.244633e-38
0.02761507 0.031616598 0.12300001 1.0970464e-38
0.028378095 0.03163065 0.12290001 1.2722924e-38
0.029410919 0.031814568 0.123 1.2907313e-38
0.030466745 0.031748578 0.123 1.2354472e-38
0.031424984 0.031684179 0.12266668 1.0786729e-38
0.032372437 0.031281013 0.122 1.1156937e-38
0.033197146 0.031163197 0.12200001 1.1064742e-38
0.010589238 0.03239755 0.12283334 1.1247769e-38
0.011401408 0.032515883 0.12199999 1.1248489e-38
0.023768846 0.032309487 0.123 1.3090974e-38
0.024659699 0.032210503 0.123 1.3551602e-38
0.025673345 0.032166824 0.12233334 1.1799499e-38
0.026637429 0.032297909 0.12233333 9.4041883e-39
0.027458433 0.032383792 0.12242858 1.0234315e-38
0.028412405 0.032440774 0.12275001 1.3092411e-38
0.029415328 0.032481994 0.12281251 1.2999857e-38
0.030395104 0.032560199 0.12278948 1.1432124e-38
0.031181294 0.032292482 0.122375 1.1155502e-38
0.011505917 0.033456609 0.12225 1.0693866e-38
0.030251777 0.033126775 0.12200001 1.106331e-38
0.011562929 0.034480333 0.12233334 9.7726247e-39
0.012270994 0.034501281 0.12199999 6.4532695e-39
0.011619749 0.035480224 0.1225 9.2226809e-39
0.012467352 0.035469051 0.12199999 6.6394502e-39
0.011674741 0.036308873 0.12240001 8.3032273e-39
0.012530467 0.036464863 0.12199999 8.2088947e-39
0.013315898 0.036612131 0.12199999 6.6387468e-39
0.01169283 0.037258677 0.123 7.8418974e-39
0.012579694 0.037418351 0.12215384 8.5783835e-39
0.013364987 0.037446648 0.12199999 8.1163515e-39
0.012561269 0.038439903 0.1226 7.9337329e-39
0.013535165 0.038402259 0.12199999 8.5783821e-39
0.014150419 0.038559347 0.12200001 8.4847543e-39
0.012616679 0.039205354 0.123 7.74862e-39
0.013424365 0.039512541 0.12269232 8.2095925e-39
0.01443918 0.039606594 0.12199999 8.9457254e-39
0.015132209 0.039901126 0.12200001 8.3900672e-39
-0.046311647 0.040921073 0.123 1.8809732e-38
-0.045935132 0.040882915 0.12200001 1.8625336e-38
0.013593318 0.040327169 0.123 7.564949e-39
0.014612366 0.040574864 0.12222222 8.8546046e-39
0.015346417 0.040713336 0.12199999 9.7744127e-39
-0.045490962 0.041567128 0.12253334 2.1300446e-38
-0.044891775 0.041723657 0.12280001 2.2774842e-38
0.014622748 0.041554566 0.123 8.1170424e-39
0.01554003 0.041615482 0.12199999 9.5903816e-39
0.016261268 0.041913792 0.12200001 7.5610282e-39
-0.044661921 0.042174865 0.123 2.2958871e-38
-0.043523114 0.042631175 0.1227143 2.3142542e-38
-0.042584479 0.042720936 0.12228571 2.3234378e-38
0.015425057 0.042540099 0.12263637 8.6698518e-39
0.016375812 0.04271559 0.12199999 9.2205229e-39
-0.04240996 0.043352559 0.1226 2.3234378e-38
0.015490205 0.043530647 0.12300002 7.3798431e-39
0.016517589 0.04357985 0.12208333 8.9446478e-39
0.017316692 0.043754652 0.12199999 5.9004587e-39
-0.040966526 0.044682454 0.123 2.2866677e-38
-0.03959557 0.0446558 0.12199999 8.2968892e-39
0.01486031 0.044880424 0.123 7.1961721e-39
0.01540472 0.044533979 0.12300002 7.1039779e-39
0.016333522 0.044619188 0.12291668 7.9326511e-39
0.017530581 0.044571638 0.12199999 6.5465315e-39
0.018404843 0.04469553 0.12199999 4.8863305e-39
0.019059369 0.044908255 0.12200001 4.6097479e-39
0.020818042 0.044898976 0.12233334 4.6097479e-39
0.021022949 0.044711899 0.12200001 4.7019435e-39
0.014781123 0.045593105 0.123 6.6430067e-39
0.015404721 0.045523815 0.12300002 6.9195894e-39
0.016394559 0.045523815 0.12300002 7.3805605e-39
0.017444657 0.045541011 0.12245455 7.7475592e-39
0.018470295 0.045497328 0.12199999 5.2551061e-39
0.019157548 0.045497332 0.122 4.7019435e-39
0.020379841 0.045444142 0.12216666 4.6097479e-39
-0.038409062 0.046546984 0.12280001 3.2290107e-39
-0.037898026 0.046860099 0.123 3.2290107e-39
0.013375553 0.046860099 0.123 6.2738739e-39
0.014512192 0.046592385 0.12292858 5.4448405e-39
0.015418944 0.04654602 0.12279999 6.2745885e-39
0.016410146 0.046526983 0.12274998 6.9199481e-39
0.017445579 0.046351451 0.12221052 7.9330169e-39
0.018470297 0.046380945 0.12199999 5.8093434e-39
0.019452086 0.046380937 0.12199999 4.7941391e-39
0.020193884 0.046348214 0.12199999 4.6097479e-39
0.011726595 0.047719721 0.12266668 5.998366e-39
0.012472148 0.047368854 0.12266668 8.4869431e-39
0.013421121 0.047258873 0.12266668 6.2742312e-39
0.014365729 0.047088943 0.12237501 5.536676e-39
0.015524926 0.047152348 0.12199999 5.9058116e-39
0.016457627 0.047166366 0.12199999 6.5511712e-39
0.017488506 0.04716637 0.12199999 7.6567873e-39
0.01807758 0.047068194 0.12200001 7.7486228e-39
0.01982715 0.047459066 0.1225 4.7941391e-39
0.020475006 0.047554672 0.12283334 4.8863362e-39
0.021284761 0.04746091 0.12200001 5.9015447e-39
0.0074076355 0.048521794 0.12220001 8.4869235e-39
0.0096728662 0.04844407 0.1225 6.3667828e-39
0.010461919 0.048345085 0.12250002 5.7232168e-39
0.01135707 0.048206691 0.12280001 5.6310226e-39
0.019678639 0.048471563 0.1227143 5.070726e-39
0.02070035 0.04860881 0.123 5.6246145e-39
0.021534111 0.048466399 0.12255558 6.6419403e-39
-0.034742724 0.049228132 0.12200001 3.0446166e-39
0.0045779678 0.049620848 0.12200001 1.0607066e-38
0.0055794464 0.049652446 0.12228572 1.1528314e-38
0.0065995632 0.049370941 0.12199999 1.125173e-38
0.0070815324 0.049129952 0.12200001 1.0698914e-38
0.019759199 0.0491511 0.12220001 5.1629216e-39
0.020403402 0.049384184 0.12300001 5.6242515e-39
0.021798776 0.049725227 0.1225 6.3660653e-39
-0.03430162 0.0504895 0.123 3.4133991e-39
0.0037093237 0.050324753 0.12233334 1.0882595e-38
0.0045779678 0.050013561 0.12200001 1.0238276e-38
0.0055695763 0.050170649 0.12199999 1.0974779e-38
0.0062961001 0.050013561 0.12200001 1.0513808e-38
0.0047743679 -0.0032110622 0.125 9.3103083e-39
0.0052438034 -0.0030769377 0.125 9.3103055e-39
0.004740837 -0.0027751583 0.125 8.9418845e-39
0.0052438034 -0.0027751583 0.125 9.3110243e-39
0.025966011 0.015432216 0.125 7.4685411e-39
0.032374956 0.016773159 0.12450001 8.1152445e-39
0.031511582 0.017518222 0.12409999 7.5620791e-39
0.032173768 0.017274516 0.12450001 8.0226915e-39
0.030576643 0.018530501 0.12400001 8.4847473e-39
0.031397436 0.018284818 0.12433333 7.839752e-39
0.021567166 0.019400086 0.12400001 6.5465946e-39
0.029630076 0.019699451 0.124 7.932312e-39
0.03026302 0.019328807 0.12400001 8.1170564e-39
0.021152774 0.020380834 0.12450001 6.2700035e-39
0.02865215 0.020896913 0.12400001 8.0234314e-39
0.029405098 0.020479614 0.124 7.5635323e-39
0.021137536 0.02116603 0.125 6.9153519e-39
0.026855957 0.021894798 0.12400001 9.0353931e-39
0.027654264 0.021894798 0.12400001 8.8528067e-39
0.028552359 0.021495644 0.124 7.8397576e-39
0.029151091 0.02109649 0.12400001 7.3798599e-39
0.021168012 0.022892682 0.12400001 8.7609628e-39
0.02665638 0.022443635 0.12399998 8.6676938e-39
0.027654262 0.022443637 0.12399998 8.5773087e-39
0.028432613 0.022254039 0.124 7.1954616e-39
0.020886052 0.023228191 0.125 8.7606167e-39
0.021310031 0.023645317 0.12460001 9.4048875e-39
0.026716251 0.023271879 0.124 8.5773059e-39
0.027654262 0.023291836 0.12399999 8.3007274e-39
0.028366517 0.02318457 0.12450001 7.7475536e-39
0.020936349 0.024485607 0.125 9.4045512e-39
0.021137536 0.024385013 0.125 9.8654999e-39
0.027554475 0.024511475 0.12400001 9.4070932e-39
0.025658494 0.025886336 0.12400001 8.6684127e-39
0.026613612 0.025800806 0.12400001 8.2085416e-39
0.027354898 0.025088029 0.12400001 9.1297944e-39
0.021809824 0.026587959 0.12425001 9.6807527e-39
0.023791024 0.026713153 0.12400001 9.4963643e-39
0.02466061 0.026485069 0.12399998 8.7588104e-39
0.025658496 0.026485069 0.12399998 8.4847487e-39
0.026627868 0.026442304 0.12399999 8.4847753e-39
0.027354898 0.026485069 0.12400001 1.2078638e-38
0.061881717 0.026884222 0.12400001 5.4427708e-39
0.06248045 0.026884222 0.12400001 5.6268033e-39
0.063079178 0.026784435 0.12400001 5.6264431e-39
0.021853708 0.027192608 0.12450001 9.6807527e-39
0.022531787 0.027715793 0.12400001 9.5885585e-39
0.023642767 0.027509563 0.12399998 9.2197816e-39
0.024632098 0.027425932 0.12399999 8.7598866e-39
0.025673073 0.027574994 0.12490909 8.5765898e-39
0.026670165 0.027570469 0.125 8.8542753e-39
0.027410667 0.027499955 0.1248 1.1987161e-38
0.0605512 0.027782319 0.12400001 4.6119255e-39
0.061525337 0.027539974 0.12399999 4.7970384e-39
0.062453844 0.027456339 0.12399998 5.2576578e-39
0.063145705 0.027150325 0.12400001 5.4420505e-39
0.0073562609 0.02891171 0.125 1.2537012e-38
0.022764629 0.028081683 0.12400001 9.587841e-39
0.023496412 0.028081683 0.12400001 9.2197816e-39
0.024725361 0.028341683 0.125 8.8520809e-39
0.025684349 0.028482508 0.125 8.4847585e-39
0.026670165 0.028509336 0.125 1.0144306e-38
0.027655978 0.028536163 0.125 1.1802412e-38
0.028574798 0.028593136 0.12477778 9.7733309e-39
0.059715044 0.028710524 0.125 4.1513033e-39
0.060452268 0.028512515 0.12436843 4.3356973e-39
0.061482567 0.028480839 0.12399998 4.6122856e-39
0.062236529 0.028436486 0.12400001 5.0725435e-39
0.0066521084 0.029716456 0.125 9.7736644e-39
0.0073562604 0.02951527 0.125 1.1432461e-38
0.0081107104 0.029716456 0.125 1.1893091e-38
0.023640534 0.029405881 0.12420001 9.0357547e-39
0.025966011 0.029112896 0.125 8.2088975e-39
0.026693376 0.029422419 0.125 1.1157389e-38
0.027676096 0.029515266 0.125 1.1616935e-38
0.028563142 0.029478692 0.125 9.4045372e-39
0.059547391 0.029582331 0.125 4.3356931e-39
0.060438044 0.029523278 0.1244 4.3353372e-39
0.061439805 0.029478723 0.12399999 4.5197284e-39
0.062391751 0.029478721 0.12400001 4.8877921e-39
0.063178971 0.029279146 0.12400001 5.0725435e-39
0.007456854 0.030429751 0.125 1.0235371e-38
0.0083621927 0.030521199 0.125 1.1432484e-38
0.0093127377 0.030592274 0.1248 9.7726008e-39
0.010273465 0.030722387 0.125 8.8528194e-39
0.023612831 0.0305265 0.12400001 1.2077891e-38
0.024691829 0.030454138 0.125 8.8528095e-39
0.026971944 0.030923575 0.125 1.1525086e-38
0.027691528 0.030412013 0.1248 1.1893519e-38
0.028380249 0.030118829 0.125 9.4052603e-39
0.033741362 0.030676184 0.12400001 1.0789595e-38
0.034240305 0.030775972 0.12400001 1.0512294e-38
0.059483681 0.030494375 0.125 4.6115611e-39
0.060410969 0.030449748 0.12476922 4.4271727e-39
0.0084376382 0.031275652 0.125 1.2078217e-38
0.0092971055 0.031586394 0.12459999 1.0970791e-38
0.010675838 0.031124761 0.125 9.3134472e-39
0.023610041 0.031588245 0.12425001 1.2722909e-38
0.024759645 0.03110005 0.12450001 9.4963951e-39
0.025865417 0.03172832 0.125 8.9442975e-39
0.026689908 0.031551443 0.12483333 9.0368575e-39
0.02745025 0.031424623 0.12433334 1.0879714e-38
0.033475261 0.031407967 0.12400001 1.1156937e-38
0.0095036384 0.032487445 0.12471429 1.0878245e-38
0.010257803 0.032805007 0.12400001 1.1155213e-38
0.025702666 0.032313991 0.12469999 1.1616921e-38
0.026561055 0.032244857 0.12437501 9.2208844e-39
0.05533924 0.032130692 0.125 4.7041141e-39
0.0095089572 0.033639595 0.125 8.4826047e-39
0.010403289 0.033658221 0.1244 1.0510551e-38
0.022764627 0.033769626 0.12400001 9.0357631e-39
0.0094687194 0.034595225 0.125 6.5493776e-39
0.010451018 0.034618128 0.12473333 8.1159816e-39
0.0095441649 0.035500564 0.125 7.1958162e-39
0.010374857 0.035612382 0.12493333 7.0114277e-39
0.011189162 0.035765395 0.12400001 8.3014434e-39
0.0096699055 0.036154423 0.125 7.6560768e-39
0.010428225 0.036541317 0.125 6.8270392e-39
0.011239056 0.036563706 0.12400001 8.3954439e-39
0.010608775 0.037428603 0.125 6.9192349e-39
0.011178804 0.037663322 0.125 7.2883775e-39
0.01183462 0.038514577 0.12450001 7.2887335e-39
0.011882957 0.03957459 0.125 7.2876488e-39
0.012219272 0.03969723 0.12433334 7.6564258e-39
-0.047426816 0.040862184 0.125 1.9178504e-38
-0.046762902 0.040982898 0.125 2.0100473e-38
0.012421163 0.040547304 0.12449999 7.6578607e-39
0.013184932 0.040555246 0.12400001 7.7500549e-39
-0.046333361 0.04125376 0.12400001 2.037706e-38
-0.045462191 0.041339297 0.12400001 2.2221317e-38
-0.04475892 0.041586392 0.12400001 2.2958871e-38
0.012550157 0.041610785 0.1249091 7.2890838e-39
0.013491778 0.041419972 0.12407141 7.93337e-39
0.014182817 0.041553129 0.12400001 8.5783821e-39
-0.045091547 0.042052072 0.12400001 2.2958873e-38
-0.044462111 0.04235911 0.12399999 2.3050707e-38
0.011882957 0.042592388 0.125 6.0898413e-39
0.012473605 0.042471461 0.12464706 5.9976471e-39
0.013534192 0.042401329 0.12399998 8.0252125e-39
0.014338043 0.042495575 0.12400001 8.947882e-39
-0.043040954 0.043799508 0.125 2.3234378e-38
0.011882957 0.043195948 0.125 5.9054529e-39
0.012465235 0.043468434 0.12466666 5.9054529e-39
0.013534192 0.043399215 0.12399998 7.0117864e-39
0.01450214 0.043422502 0.12399998 8.5790855e-39
-0.043040954 0.044302471 0.125 2.3234378e-38
-0.042297471 0.04451352 0.12400001 2.3050707e-38
0.012462985 0.044499543 0.12492308 6.2745885e-39
0.013534192 0.044397093 0.12399998 6.1820356e-39
0.014467927 0.044361461 0.12399999 7.1961721e-39
0.011882957 0.045610186 0.125 7.3802158e-39
0.012555206 0.045432627 0.12476923 6.1823943e-39
0.013534192 0.045394987 0.12399998 5.9987233e-39
0.014315869 0.045356181 0.12400001 6.6440899e-39
0.020679867 0.045488019 0.12466667 4.4253566e-39
0.010608775 0.046549056 0.125 6.2749557e-39
0.011480584 0.046343081 0.125 7.1039947e-39
0.012469704 0.046393164 0.12463158 6.1827544e-39
0.013534193 0.046392865 0.12399998 5.9061703e-39
0.014232711 0.046193291 0.12400001 5.6295877e-39
0.0085969111 0.047554988 0.125 6.1827544e-39
0.0094083631 0.0474611 0.125 5.6313841e-39
0.010488866 0.047426235 0.12470001 5.6299478e-39
0.011476463 0.047327939 0.12439131 5.8139789e-39
0.012361032 0.047202196 0.12424999 7.3809445e-39
0.013384509 0.047041494 0.12400001 6.3660653e-39
0.0076580406 0.048627984 0.125 6.7366387e-39
0.0084053036 0.048354942 0.125 6.6440857e-39
0.0094191208 0.048389085 0.12475 5.7228581e-39
0.010460299 0.048262678 0.12419999 5.5384696e-39
0.01128895 0.04813917 0.12400001 5.2618869e-39
0.019870762 0.048638109 0.12400001 4.9785304e-39
0.020532994 0.048474822 0.124 4.8866949e-39
-0.03571143 0.049835574 0.12400001 2.952421e-39
0.0066254996 0.049634956 0.12450001 1.1436487e-38
0.007456854 0.049181245 0.125 7.1047009e-39
0.0083733713 0.049164485 0.125 8.2114072e-39
0.009148404 0.049082376 0.12475 6.8277539e-39
0.02056928 0.049117096 0.124 5.1629216e-39
0.021666955 0.049635995 0.12400001 6.5504566e-39
-0.035597052 0.050841033 0.125 3.0446166e-39
-0.034832545 0.050559372 0.125 3.2290078e-39
0.0048026987 0.050234728 0.12400001 1.0422672e-38
0.0055455831 0.050438661 0.125 1.1620509e-38
0.0062247366 0.050035719 0.12450001 1.1251363e-38
0.021168012 0.050633881 0.12400001 6.6423005e-39
-0.035395868 0.051042218 0.125 3.0446166e-39
-0.034772616 0.05119041 0.12475 3.4133991e-39
0.0026283793 0.051444594 0.125 1.0791454e-38
0.020901043 0.020828368 0.126 6.5469477e-39
0.02110384 0.02021998 0.126 6.5465946e-39
0.020901045 0.021436756 0.126 7.192659e-39
0.02110384 0.021740951 0.126 9.2198587e-39
0.02110384 0.022653531 0.126 8.7599077e-39
0.020799644 0.023059124 0.126 8.2978743e-39
0.02110384 0.023059124 0.126 8.7599021e-39
0.020819927 0.024397578 0.126 8.4829761e-39
0.02110384 0.024275899 0.126 9.4052603e-39
0.02161083 0.027115043 0.126 9.5889186e-39
0.0067053256 0.028940206 0.126 1.2537733e-38
0.0072123157 0.028940206 0.126 1.2444818e-38
0.023740187 0.028940206 0.126 9.1272286e-39
0.02448377 0.028940206 0.126 8.9439164e-39
0.05983787 0.028940206 0.126 3.9672721e-39
0.0065025301 0.029426914 0.126 1.0786737e-38
0.0079221008 0.029345797 0.126 1.2905796e-38
0.023769157 0.029287856 0.126 9.0350344e-39
0.024667254 0.029461682 0.12600002 8.6684155e-39
0.02561605 0.029599294 0.12600002 8.3925629e-39
0.058722492 0.029954186 0.126 4.242057e-39
0.059374336 0.029548595 0.126 3.9672707e-39
0.0065430887 0.030440897 0.126 8.9449968e-39
0.0071109175 0.030968165 0.126 9.0371924e-39
0.0089360811 0.030359777 0.126 1.0417965e-38
0.024725195 0.03041772 0.126 8.8524508e-39
0.025666749 0.03044669 0.12600002 8.3003658e-39
0.026660448 0.03053553 0.12600002 9.9588306e-39
0.027390515 0.030630171 0.126 1.2354866e-38
0.057625547 0.030544138 0.12600002 4.2424143e-39
0.058468994 0.030511875 0.12600002 4.1505802e-39
0.059026685 0.030511873 0.126 4.2431374e-39
0.0076179071 0.03171175 0.126 1.097295e-38
0.008226295 0.031982146 0.126 1.1709428e-38
0.025599152 0.031441357 0.126 8.7602622e-39
0.02657933 0.031170959 0.126 9.1283343e-39
0.055815745 0.031813148 0.126 4.5197228e-39
0.056759059 0.031724043 0.12600002 4.3353316e-39
0.057607114 0.031576555 0.12600002 4.1513005e-39
0.058468997 0.031576555 0.12600002 4.42753e-39
0.059358526 0.031558119 0.12600002 4.42753e-39
0.060040668 0.031373758 0.126 4.6115625e-39
0.0079221008 0.03218494 0.126 1.0973303e-38
0.0085304892 0.032468852 0.12600002 1.198602e-38
0.0091388766 0.032996126 0.126 1.2445215e-38
0.017149318 0.032793328 0.126 4.795553e-39
0.055863071 0.03234718 0.126 4.6119185e-39
0.056665566 0.032547072 0.12600002 4.5193627e-39
0.057586838 0.032509413 0.12600002 4.6111954e-39
0.058377735 0.032225501 0.126 4.703754e-39
0.0088346833 0.033553813 0.126 1.0972606e-38
0.0091388766 0.033469316 0.126 1.1247396e-38
0.0087332856 0.034364998 0.126 8.1163333e-39
0.022523411 0.034821287 0.126 5.4391176e-39
0.0087622562 0.035400707 0.126 7.5638784e-39
0.0091388766 0.03583527 0.126 7.5638784e-39
0.0088008838 0.036105663 0.126 7.5638812e-39
0.009265624 0.036545053 0.126 7.1958176e-39
0.0097878249 0.03725484 0.126 6.8273952e-39
0.010203556 0.037660431 0.126 6.7352009e-39
0.010727446 0.038370214 0.126 6.827398e-39
0.011234435 0.038809609 0.126 6.7352037e-39
0.011268236 0.039485592 0.126 7.1961791e-39
-0.048150986 0.040905166 0.126 1.8441297e-38
0.010964041 0.040550273 0.126 6.9195894e-39
0.011406505 0.040591754 0.12600002 7.3809207e-39
0.010790216 0.041629441 0.126 7.1039835e-39
0.011514488 0.041600466 0.12600002 7.4731163e-39
0.010964041 0.042459935 0.126 6.7355597e-39
0.011369633 0.042527534 0.12600002 6.8277539e-39
0.011456545 0.043599453 0.126 6.2742298e-39
0.011741426 0.044656888 0.126 7.2887335e-39
0.010710546 0.045924369 0.126 7.841201e-39
0.01152173 0.045637071 0.12600002 8.0255922e-39
0.020360254 0.045907468 0.126 4.4253566e-39
0.0087332856 0.046989046 0.126 6.1838376e-39
0.0095444694 0.046902139 0.126 6.2756787e-39
0.01045705 0.046603732 0.12600002 7.2883887e-39
0.0076855063 0.04766503 0.126 8.3947321e-39
0.0084290905 0.047556873 0.12600002 6.7355653e-39
0.0094227912 0.047435198 0.126 5.9076151e-39
0.0067053256 0.048712812 0.126 8.1177837e-39
0.0074353907 0.048435654 0.12600002 7.8419198e-39
0.0081248973 0.048003025 0.126 7.0114305e-39
0.0064574638 0.04955779 0.126 9.9613501e-39
0.0072123157 0.049321197 0.126 7.2887335e-39
0.0045759678 0.05084217 0.126 1.0238285e-38
0.0055223485 0.050537977 0.126 1.1527231e-38
0.0061983354 0.050233781 0.126 1.1803463e-38
0.0026494062 0.051653352 0.126 1.0884003e-38
0.0030549981 0.051450554 0.126 1.023828e-38
0.0040689777 0.051247761 0.126 1.0975139e-38
0.021509431 0.051247761 0.126 6.6419445e-39
-0.016222473 -0.021376655 0.12699999 6.9156658e-39
-0.01575526 -0.021376655 0.12699999 6.8234715e-39
-0.015930464 -0.020705037 0.127 7.2840867e-39
0.021066925 0.019869443 0.127 6.3632837e-39
0.020739876 0.020748388 0.127 6.2700063e-39
0.020658113 0.021606887 0.127 6.2703608e-39
0.020760316 0.022526713 0.12699999 7.2823309e-39
0.021066925 0.022526715 0.127 9.035068e-39
0.020589978 0.02440043 0.127 6.3618039e-39
0.021475736 0.027636852 0.127 9.3123345e-39
0.0067585427 0.028761081 0.127 1.2905799e-38
0.0062134615 0.029510567 0.127 1.0878576e-38
0.0077805696 0.029374298 0.127 1.2813601e-38
0.02311098 0.029476499 0.127 1.0509797e-38
0.057509508 0.029695507 0.12699999 4.4264482e-39
0.058554888 0.029742226 0.127 4.0576657e-39
0.059290748 0.029537821 0.127 4.0580244e-39
0.006145326 0.03060073 0.127 9.1301125e-39
0.056837883 0.030396322 0.127 4.4282461e-39
0.057337541 0.030350901 0.12699999 4.4268069e-39
0.058336854 0.030191919 0.127 4.2420556e-39
0.0066563394 0.031213947 0.127 1.0052447e-38
0.02311098 0.031418353 0.127 1.0970784e-38
0.05663348 0.03131615 0.12699999 4.520083e-39
0.057124048 0.031173065 0.127 4.5197228e-39
0.060823791 0.031622756 0.127 4.7037582e-39
0.061130401 0.031622756 0.127 4.7037582e-39
0.0073717586 0.032399498 0.127 1.0881126e-38
0.02311098 0.032235976 0.127 1.0049534e-38
0.060721591 0.03203157 0.127 5.1640147e-39
0.0079168398 0.033121731 0.127 1.0235751e-38
0.0082769832 0.033404004 0.12699999 1.0420142e-38
0.0081893802 0.034433331 0.127 7.3802088e-39
0.0082915835 0.035302058 0.127 7.1961763e-39
0.0088025974 0.0369373 0.127 7.2872943e-39
0.009211408 0.037632275 0.127 6.9195922e-39
0.009688355 0.038538471 0.12699999 7.0121452e-39
0.0101653 0.038742881 0.12699999 7.012148e-39
0.0095180161 0.039492369 0.12699999 7.5649574e-39
0.010344929 0.039483074 0.12699999 7.1036261e-39
0.0095384568 0.040412195 0.12699999 8.026639e-39
0.010321038 0.040324591 0.12699999 6.9195922e-39
-0.047817718 0.041434217 0.127 1.9640201e-38
0.0096610999 0.041188933 0.127 6.826319e-39
0.010214852 0.041341309 0.12699999 6.6426494e-39
-0.046591286 0.04225184 0.127 2.2221678e-38
0.010315197 0.042497125 0.127 6.7352037e-39
0.010475005 0.043515433 0.12699999 6.4586183e-39
0.011051057 0.043887082 0.127 6.6430067e-39
0.0095034167 0.044763107 0.12699999 6.4600644e-39
0.010386739 0.044500299 0.12699999 6.458977e-39
0.011119192 0.044602502 0.12699999 6.6433654e-39
0.007882772 0.045931138 0.127 6.6448158e-39
0.008530057 0.045635886 0.12699999 6.4604273e-39
0.009364713 0.045522321 0.12699999 6.8288525e-39
0.01038674 0.045522328 0.12699999 6.6437326e-39
0.011102159 0.045317918 0.127 7.4727688e-39
0.007724823 0.046637263 0.12699999 6.828121e-39
0.0084619215 0.046544354 0.12699999 6.4597071e-39
0.0093647121 0.046544354 0.12699999 6.1834831e-39
0.010151673 0.046299066 0.127 6.5518999e-39
0.0066563399 0.047745232 0.12699999 7.3812962e-39
0.0074832528 0.047417723 0.12699999 7.2887391e-39
0.0083937859 0.047208671 0.127 6.2756689e-39
0.0090070022 0.047157571 0.127 6.1834845e-39
0.0059409202 0.048792813 0.127 8.0263041e-39
0.006383799 0.048571378 0.12699999 8.3947321e-39
0.0056197122 0.04966883 0.12699999 1.023721e-38
0.0061964272 0.049457129 0.127 8.8553473e-39
0.0047553694 0.050632458 0.127 1.1251363e-38
0.0053481446 0.050284971 0.12699999 1.217261e-38
0.0024660276 0.051858895 0.127 1.0700315e-38
0.0036924602 0.051450081 0.127 1.0053535e-38
0.0044589806 0.051092375 0.127 1.0606711e-38
0.0051232986 0.051041272 0.127 1.0882571e-38
0.0021594195 0.052267708 0.127 1.1436458e-38
0.026589194 0.014772515 0.12800001 6.5476764e-39
0.02597115 0.015596574 0.12800001 6.9164589e-39
0.021026792 0.026721381 0.12800001 8.484411e-39
0.023086941 0.02960559 0.12800001 9.8651412e-39
0.058727529 0.029811604 0.12800001 4.0576657e-39
0.0078418339 0.030223634 0.12800001 1.1616132e-38
0.0080478489 0.030429648 0.12800001 1.1432467e-38
0.056873392 0.03073867 0.12800001 4.7973887e-39
0.0038245423 0.031356715 0.12800001 1.419439e-38
0.0068117594 0.031871755 0.12800001 1.0512713e-38
0.020614762 0.03125371 0.12800001 1.2900089e-38
0.007017774 0.032695815 0.12800001 8.8542641e-39
0.0077388268 0.03362288 0.12800001 8.3010861e-39
0.0078418339 0.03444694 0.12800001 7.1958232e-39
0.0078418339 0.035167992 0.12800001 6.7348464e-39
0.0080478489 0.035683028 0.12800001 7.011785e-39
0.0080993529 0.036507092 0.12800001 7.1029017e-39
0.0085285502 0.037571501 0.12800001 7.1029059e-39
0.0085549643 0.038353298 0.12800001 6.827398e-39
0.0091465954 0.038601574 0.12800001 6.8277553e-39
0.0087689012 0.039391298 0.12800001 8.1184969e-39
0.0091294274 0.039236788 0.12800001 7.657153e-39
-0.048554763 0.040678892 0.12800001 1.8717886e-38
0.0087689012 0.040421374 0.12800001 8.6720126e-39
0.0090779234 0.040421374 0.12800001 8.7642054e-39
-0.048459109 0.041289579 0.12800001 1.899447e-38
-0.047988217 0.041142426 0.12800001 1.9824239e-38
0.008789503 0.041307233 0.12800001 8.5798128e-39
0.0091294274 0.041605957 0.12800001 7.5649518e-39
0.0094624851 0.042557061 0.12800001 6.6430081e-39
0.010107999 0.042996559 0.12800001 6.5511712e-39
0.0094899535 0.043408588 0.12800001 7.1039849e-39
0.0086658942 0.044415772 0.12800001 7.0125193e-39
0.0094107166 0.04428019 0.12800001 7.0117934e-39
0.0075769573 0.04555703 0.12800001 5.9998065e-39
0.0083156684 0.04526272 0.12800001 5.9994506e-39
0.0090779234 0.045056708 0.12800001 5.9990933e-39
0.0059876996 0.046910845 0.12800001 8.9490003e-39
0.0065233381 0.046498813 0.12800001 7.3809375e-39
0.0072443909 0.046375204 0.12800001 6.9199593e-39
0.0046142661 0.047666233 0.12800001 9.5922103e-39
0.005619816 0.047528885 0.12800001 9.1323125e-39
0.0064409324 0.047384676 0.12800001 8.0270314e-39
0.007017774 0.047116857 0.12800001 7.1958218e-39
0.0039275498 0.048970994 0.12800001 8.3021693e-39
0.0045455946 0.048507456 0.12800001 8.3943663e-39
0.005496433 0.048432186 0.12800001 8.0255866e-39
0.0037558705 0.049451694 0.12800001 1.1343218e-38
0.0045455941 0.049383018 0.12800001 8.8546284e-39
0.0052666464 0.049383026 0.12800001 8.8542613e-39
0.0026090541 0.050351299 0.12800001 1.152832e-38
0.0035155201 0.050310083 0.12800001 1.1804554e-38
0.004425419 0.050258588 0.12800001 1.143577e-38
0.0051636398 0.050001066 0.12800001 1.0236851e-38
0.0016098816 0.051752195 0.12800001 8.3018078e-39
0.0024339415 0.051391669 0.12800001 8.8553445e-39
0.003471374 0.051325448 0.12800001 9.8687804e-39
0.0041335649 0.05113415 0.12800001 1.0329767e-38
0.0015469326 0.052313011 0.12800001 1.1067674e-38
0.0023618364 0.052102417 0.12800001 9.870553e-39
0.00310349 0.052061215 0.12800001 9.5932585e-39
0.025758801 0.015649214 0.12900001 7.1004928e-39
0.026381675 0.01509555 0.12900001 6.639872e-39
0.024305429 0.01654892 0.12900001 6.1785379e-39
0.025343552 0.016133672 0.12900001 6.916103e-39
0.020775814 0.020701408 0.12900001 6.1778149e-39
0.0058268541 0.029836882 0.12900001 1.1339568e-38
0.0063113109 0.029144801 0.12900001 1.2445178e-38
0.0056192297 0.030563567 0.12900001 1.0049189e-38
0.0058268541 0.031497877 0.12900001 9.2230466e-39
0.0061382907 0.031809315 0.12900001 1.0605632e-38
0.056694839 0.031497877 0.12900001 4.4275272e-39
0.0066573517 0.032639809 0.12900001 9.3152464e-39
0.011536526 0.032847434 0.12900001 9.4049253e-39
0.0068649761 0.033366498 0.12900001 7.2883803e-39
0.007211017 0.033781745 0.12900001 7.2883803e-39
0.0074878498 0.034612242 0.12900001 7.0114333e-39
0.0075570582 0.035581157 0.12900001 6.7344835e-39
0.0075397557 0.036428954 0.12900001 7.7486242e-39
0.0078141168 0.037637629 0.12900001 7.471687e-39
0.0081107225 0.037622798 0.12900001 7.1947414e-39
0.0078200493 0.038598634 0.12900001 7.104345e-39
0.0079030981 0.039595231 0.12900001 7.5649644e-39
0.0081107225 0.039595231 0.12900001 8.118141e-39
0.0079030981 0.040356517 0.12900001 8.4869179e-39
0.0081107225 0.040477633 0.12900001 9.0397316e-39
0.0079030981 0.041775286 0.12900001 8.1177795e-39
0.0081937732 0.041629948 0.12900001 7.9337343e-39
0.0077369986 0.04264731 0.12899999 8.5784101e-39
0.0084567638 0.042605784 0.12899999 7.472759e-39
0.0068130698 0.043799624 0.12900001 7.6571698e-39
0.0075397552 0.043643903 0.12899998 8.025595e-39
0.0084567647 0.043643907 0.12899999 8.1181466e-39
0.0055500213 0.044993464 0.12900001 7.1961819e-39
0.006494218 0.044726521 0.12899998 7.5656777e-39
0.0075397547 0.044682026 0.12899998 6.9203195e-39
0.0082491385 0.044439804 0.12900001 7.7493557e-39
0.0049271476 0.045754749 0.12900001 8.8553501e-39
0.0055500213 0.045616336 0.12900001 7.1036275e-39
0.0064497273 0.045616332 0.12899999 6.1838306e-39
0.0073148292 0.045547128 0.12900001 5.8154139e-39
0.0039582341 0.046862084 0.12900001 7.9330435e-39
0.0047408184 0.0465746 0.12899998 1.0882603e-38
0.0055500213 0.046550646 0.12899999 9.3156276e-39
0.0062005781 0.046363786 0.12900001 7.1965434e-39
0.0038544217 0.047796395 0.12900001 8.7624412e-39
0.0046272459 0.047415748 0.12900001 1.0606015e-38
0.0053423964 0.047346544 0.12900001 1.0329433e-38
0.0035429853 0.048668422 0.12899999 8.3943621e-39
0.0028509034 0.049699616 0.12900001 1.2632525e-38
0.0032938358 0.049519677 0.12900001 1.1342858e-38
0.0016120777 0.050599318 0.12899999 1.1344287e-38
0.0024010506 0.050287887 0.12900001 1.2173335e-38
0.00076081743 0.051595919 0.12900001 9.8688042e-39
0.0013456264 0.051481728 0.12899999 1.0145388e-38
0.00056703464 0.052571759 0.12899999 9.0393924e-39
0.0010514916 0.052883193 0.12900001 1.0790728e-38
0.00056703459 0.053298447 0.12900001 9.5918319e-39
0.0010514916 0.053298447 0.12900001 1.1527937e-38
-0.016411392 -0.042352915 0.13000001 9.2184013e-39
-0.015748816 -0.042257011 0.13000001 1.0878677e-38
-0.017390989 -0.0414708 0.13000001 1.050878e-38
-0.016463701 -0.041542128 0.13000001 9.0343758e-39
-0.015783688 -0.041751362 0.13000001 1.1431137e-38
-0.017300636 -0.04080981 0.13000001 1.0139632e-38
-0.016672933 -0.04080981 0.13000001 8.9407368e-39
0.068851441 -0.027889617 0.13000001 6.2830075e-39
0.068851441 -0.019311026 0.13000001 7.3875558e-39
0.06874682 -0.018474091 0.13000001 7.6637812e-39
0.068781696 -0.017532537 0.13000001 7.4801116e-39
0.0018965785 -0.0021538455 0.13000001 8.2961311e-39
0.0026288973 -0.0021538455 0.13000001 9.4031625e-39
0.0036750673 -0.0021538455 0.13000001 8.5734411e-39
0.0044073858 -0.0021538455 0.13000001 8.2968696e-39
0.0017919615 -0.0015261439 0.13000001 8.5734018e-39
0.0026288973 -0.001526144 0.13000001 9.2198334e-39
0.0036750671 -0.0015261438 0.13000001 8.3890428e-39
0.0044910796 -0.0017353777 0.13000001 8.0206386e-39
0.0018965785 -0.00089844211 0.13000001 8.6673715e-39
0.0026288971 -0.00079382525 0.13000001 8.943957e-39
0.0035181416 -0.00084613368 0.13000001 8.5741305e-39
0.020727633 0.020443417 0.13000001 5.902307e-39
0.020309165 0.025255797 0.13000001 5.3484017e-39
0.0037796842 0.029858943 0.13000001 1.2905096e-38
0.0057325345 0.029579962 0.13000001 1.1984213e-38
0.0066043423 0.029335856 0.13000001 1.2813602e-38
0.0054535558 0.030277411 0.13000001 1.161436e-38
0.0055233003 0.031672303 0.13000001 8.7609895e-39
0.057134338 0.031323582 0.13000001 4.6119185e-39
0.0056279171 0.032701038 0.13000001 8.024865e-39
0.0062904912 0.032788217 0.13000001 8.7620727e-39
0.010893638 0.032788217 0.13000001 9.9580949e-39
0.0056000203 0.033520538 0.13000001 7.4716912e-39
0.0064399443 0.03359526 0.13000001 7.1039891e-39
0.0057524615 0.034312636 0.13000001 7.2880188e-39
0.0065834178 0.034489986 0.13000001 6.7348478e-39
0.0058720238 0.035089791 0.13000001 7.1958246e-39
0.0066043413 0.035508256 0.13000001 7.1954644e-39
0.0066899378 0.036611494 0.13000001 7.7482711e-39
0.0066328733 0.037562557 0.13000001 7.0117864e-39
0.0073889699 0.037600596 0.13000001 8.024858e-39
0.0058720238 0.038437534 0.13000001 7.1961791e-39
0.0066043413 0.03843753 0.13000001 7.012148e-39
0.0073366612 0.038437534 0.13000001 7.4727674e-39
0.0057823518 0.039543483 0.13000001 7.3805732e-39
0.0066043413 0.039483704 0.13000001 7.1961847e-39
0.0074412781 0.039483704 0.13000001 7.65716e-39
0.0057674069 0.040582176 0.13000001 8.3021805e-39
0.0066043413 0.040582184 0.13000001 7.2880202e-39
0.0074412781 0.040582184 0.13000001 7.6571572e-39
0.0057674064 0.04162835 0.13000001 7.9337567e-39
0.0066043413 0.04162835 0.13000001 7.8415597e-39
0.0075268745 0.04159506 0.13000001 7.4727688e-39
0.0056889439 0.042596061 0.13000001 7.4735003e-39
0.0066043418 0.042552467 0.13000001 8.3025421e-39
0.0073889699 0.042465284 0.13000001 9.408175e-39
0.0048258537 0.043459147 0.13000001 6.6437368e-39
0.0055058645 0.043459143 0.13000001 7.1969106e-39
0.0065480093 0.04337867 0.13000001 8.0259552e-39
0.0047062919 0.04468466 0.13000001 6.7355653e-39
0.0054814536 0.044533212 0.13000001 7.289102e-39
0.0063427994 0.044348389 0.13000001 8.5801981e-39
0.0038215306 0.045656104 0.13000001 9.9613627e-39
0.0045975987 0.045570508 0.13000001 7.8408324e-39
0.0053838114 0.045133013 0.13000001 6.919595e-39
0.0037035989 0.046502545 0.13000001 7.9337679e-39
0.0044073858 0.046179187 0.13000001 8.2099765e-39
0.0029427481 0.04785306 0.13000001 7.1036331e-39
0.003663443 0.047457837 0.13000001 7.5646155e-39
0.0027753613 0.048543535 0.13000001 8.1177753e-39
0.0033612163 0.048166908 0.13000001 7.5646113e-39
0.00064117485 0.049945399 0.13000001 1.2817272e-38
0.0016175997 0.049875658 0.13000001 1.2909113e-38
0.0025242802 0.049589701 0.13000001 1.1342132e-38
-0.00024806944 0.050782334 0.13000001 1.1159191e-38
0.00048424938 0.050625414 0.13000001 1.0974792e-38
0.001388439 0.050363865 0.13000001 1.2264814e-38
0.0023150463 0.050154634 0.13000001 1.2909468e-38
-0.0020788664 0.051828504 0.13000001 1.1067338e-38
-0.0012419306 0.051828504 0.13000001 1.0515222e-38
-0.00037510434 0.051649157 0.13000001 9.9617187e-39
0.00031237863 0.051469814 0.13000001 1.0330141e-38
-0.0022416038 0.052572448 0.13000001 1.0146088e-38
-0.0013465476 0.052456208 0.13000001 9.9623955e-39
-0.00040499491 0.052456211 0.13000001 9.8695132e-39
0.0001529623 0.052177232 0.13000001 1.0237948e-38
-0.0024450256 0.053432632 0.13000001 8.5784115e-39
-0.0013465476 0.053432632 0.13000001 8.2099737e-39
-0.00040499491 0.053432636 0.13000001 8.9475569e-39
-0.018257271 -0.041065861 0.132 1.0506971e-38
-0.016177054 -0.041121155 0.13150001 1.0140041e-38
-0.018097932 -0.040481612 0.132 9.4024184e-39
-0.017682597 -0.040521052 0.13161539 9.4942595e-39
-0.01646314 -0.040515333 0.13133334 9.1251533e-39
-0.015859984 -0.0404846 0.13150001 1.1893587e-38
-0.017549092 -0.039366238 0.13199998 8.0187847e-39
-0.016531268 -0.039446741 0.13152634 8.3875939e-39
-0.015677486 -0.039305538 0.13199998 1.2262732e-38
0.062717639 -0.039305538 0.13199998 6.0971715e-39
0.063385352 -0.039366238 0.13199998 6.2815614e-39
-0.017195007 -0.038622651 0.132 7.9262318e-39
-0.01652932 -0.038431447 0.13199998 1.0970173e-38
-0.015556082 -0.038410205 0.13199998 1.3275811e-38
-0.014858024 -0.038303975 0.132 1.3276171e-38
0.06251733 -0.03840312 0.13199998 6.0975359e-39
0.063324653 -0.038303971 0.13199998 6.1893714e-39
-0.015920289 -0.037666615 0.132 1.3368006e-38
0.061837483 -0.037135482 0.132 6.3741256e-39
0.062527955 -0.037347935 0.13199998 6.1897329e-39
0.063537106 -0.037317581 0.13199998 6.2826474e-39
0.065436549 -0.037265237 0.13183333 6.6496292e-39
0.066429257 -0.037170421 0.13100001 6.6503551e-39
0.061837483 -0.036604349 0.132 6.2826516e-39
0.062527955 -0.036391903 0.13199998 6.4659639e-39
0.063590221 -0.036391899 0.13199998 6.5581567e-39
0.064457737 -0.036321081 0.13199998 6.3741228e-39
0.065491304 -0.036531042 0.13135715 6.557435e-39
0.066333413 -0.036576226 0.13100003 6.5585154e-39
0.062706612 -0.03552277 0.13199998 6.3737682e-39
0.063590229 -0.035488974 0.13199998 6.374127e-39
0.064634755 -0.035474472 0.13174999 6.5588784e-39
0.065395303 -0.035409886 0.13128573 6.5585182e-39
0.062857255 -0.034437332 0.132 6.3748472e-39
0.063590214 -0.034373593 0.13199998 6.3748472e-39
0.064634755 -0.034374382 0.13175 6.5596e-39
0.065445483 -0.034375954 0.13125002 6.5596e-39
0.06609191 -0.034345116 0.13100001 6.2837334e-39
0.062899746 -0.033417556 0.132 6.4670429e-39
0.063590214 -0.033417556 0.13199998 6.2826516e-39
0.064650148 -0.033402439 0.13164285 6.5592413e-39
0.065529719 -0.033421479 0.13110003 6.6517957e-39
0.066007569 -0.033164397 0.13100001 6.5599602e-39
0.062899746 -0.032514632 0.132 6.3752046e-39
0.063590221 -0.032514635 0.13199998 6.3752074e-39
0.064634748 -0.032518946 0.13175 6.4674044e-39
0.065445475 -0.032527559 0.13125002 6.5599602e-39
0.066457368 -0.032503758 0.13100003 6.7432696e-39
0.067272626 -0.032110177 0.13100001 6.8354624e-39
0.062899746 -0.031576298 0.132 6.4670401e-39
0.063590214 -0.031452369 0.13199998 6.4666799e-39
0.064589247 -0.031501163 0.13185713 6.3748458e-39
0.065412521 -0.031443171 0.13136844 6.5595986e-39
0.066481963 -0.031477645 0.13100003 7.019495e-39
0.067356959 -0.031477649 0.13100003 6.8354624e-39
-0.015920289 -0.030018311 0.132 4.8873913e-39
0.063622087 -0.030358236 0.13199998 6.5592385e-39
0.064528555 -0.030336993 0.13199998 6.7436297e-39
0.065456949 -0.030374039 0.13157143 6.7436297e-39
0.06648197 -0.03037072 0.13100003 6.7429067e-39
0.067342907 -0.030470286 0.13100003 6.7429067e-39
0.063749567 -0.029380951 0.13199998 6.8358226e-39
0.064528555 -0.029380951 0.13199998 7.0198523e-39
0.065461047 -0.02940437 0.13159999 6.9272979e-39
0.066481963 -0.0294395 0.13100003 6.6503495e-39
0.067167208 -0.029369215 0.13100001 6.8340205e-39
0.063820377 -0.028531142 0.13199998 6.7436297e-39
0.064528562 -0.028478032 0.13199998 6.9280196e-39
0.06545049 -0.028517729 0.13157895 6.835824e-39
0.066481963 -0.028525844 0.13100003 6.9269364e-39
0.067511581 -0.028497731 0.13100003 7.6630595e-39
0.068432271 -0.028209575 0.13100001 7.2031618e-39
-0.016628465 -0.027610511 0.132 6.4554289e-39
0.063820377 -0.027374454 0.13199998 6.8351065e-39
0.064528562 -0.027415762 0.13199998 6.8351065e-39
0.065456949 -0.02745978 0.13157144 6.7439899e-39
0.066481963 -0.027471621 0.13100003 7.0194936e-39
0.067536183 -0.027471617 0.13100003 7.2953602e-39
0.068643108 -0.027471619 0.13100003 6.8343792e-39
0.06945134 -0.0273662 0.13100003 6.6503481e-39
-0.016982554 -0.02640661 0.132 1.2354552e-38
0.063908897 -0.026353497 0.132 6.6514341e-39
0.064528555 -0.02640661 0.13199998 6.8351051e-39
0.065504871 -0.026436239 0.13168749 7.0187733e-39
0.066481963 -0.026487688 0.13100003 6.9262119e-39
0.067536175 -0.026487688 0.13100003 7.2031632e-39
0.068643108 -0.026487688 0.13100003 7.1109689e-39
0.063908897 -0.025609914 0.132 6.8354638e-39
0.064528562 -0.025503686 0.13199998 7.2950001e-39
0.065469623 -0.025532627 0.13194117 7.2931966e-39
0.066402882 -0.025559962 0.13120003 7.1091627e-39
0.067536183 -0.025574032 0.13100003 7.294277e-39
0.068643115 -0.025574038 0.13100003 7.2024443e-39
0.069471426 -0.025513792 0.13100003 7.4783067e-39
0.063962013 -0.024565354 0.132 7.3875558e-39
0.064528562 -0.024441423 0.13199998 7.9400093e-39
0.065449178 -0.024441427 0.13199998 7.2024443e-39
0.066480026 -0.024510032 0.13138096 7.0184104e-39
0.067536183 -0.024519812 0.13100003 7.3871929e-39
0.068643108 -0.024519814 0.13100003 7.3868356e-39
0.069471426 -0.024580056 0.13100003 7.2939169e-39
0.0065997215 -0.023644723 0.132 1.124675e-38
0.064528562 -0.023379156 0.13199998 7.2953602e-39
0.065449178 -0.023379162 0.13199998 6.8343834e-39
0.06655623 -0.023436284 0.13157143 6.7425465e-39
0.067536183 -0.023465596 0.13100003 7.1113277e-39
0.068643108 -0.023465596 0.13100003 7.4793899e-39
0.069451347 -0.023360172 0.13100003 7.1106046e-39
0.064528555 -0.022370007 0.13199998 7.2028044e-39
0.065449178 -0.022370005 0.13199998 7.1109717e-39
0.066582337 -0.022426074 0.13166665 7.1106074e-39
0.067536183 -0.022481659 0.13100003 7.0180502e-39
0.068643115 -0.022481659 0.13100003 7.6637784e-39
0.069486484 -0.022481659 0.13100003 7.0180516e-39
0.064528562 -0.021467082 0.13199998 7.2024443e-39
0.065449178 -0.021467082 0.13199998 7.2031646e-39
0.066562578 -0.021507448 0.13159999 7.1102487e-39
0.067536183 -0.021568008 0.13100003 7.1106088e-39
0.068643108 -0.021568011 0.13100003 7.6637812e-39
0.069486484 -0.021568008 0.13100003 7.2953588e-39
0.064528555 -0.020404816 0.13199998 7.1109675e-39
0.065449178 -0.020404819 0.13199998 7.1109689e-39
0.066562578 -0.020448409 0.13159999 7.0187747e-39
0.067536175 -0.02051379 0.13100003 7.1116934e-39
0.068643115 -0.020513788 0.13100003 7.2953644e-39
0.06945134 -0.020619212 0.13100003 7.3875572e-39
0.064528555 -0.019466482 0.13199998 7.1106088e-39
0.065449178 -0.019466484 0.13199998 7.2028058e-39
0.066584103 -0.019463232 0.13152942 6.9262189e-39
0.067536183 -0.019459572 0.13100003 7.2024443e-39
0.068622023 -0.019487685 0.13100003 7.3875544e-39
0.069381066 -0.01988126 0.13100001 7.5712282e-39
0.064646579 -0.018545853 0.13199998 7.0187733e-39
0.065449178 -0.018492742 0.13199998 7.2031646e-39
0.06660977 -0.018490041 0.13184209 7.3875558e-39
0.06750638 -0.018448351 0.13107695 7.1106088e-39
0.068537682 -0.018475639 0.13100003 7.1106074e-39
0.064769335 -0.017526081 0.132 7.1109689e-39
0.065449186 -0.017430475 0.13199998 7.1113291e-39
0.06656456 -0.017430477 0.13199998 7.3875558e-39
0.067458712 -0.017535683 0.13120002 7.0191334e-39
0.068597935 -0.017516803 0.13100003 7.1113291e-39
0.064811826 -0.016492143 0.132 7.4779508e-39
0.065449186 -0.016492143 0.13199998 7.2946385e-39
0.066564552 -0.016492143 0.13199998 7.3871929e-39
0.067475013 -0.016505295 0.13115792 7.2946413e-39
0.068643115 -0.016507765 0.13100003 7.2950001e-39
0.06945134 -0.016402343 0.13100003 7.3875558e-39
0.064811826 -0.015571514 0.132 7.386474e-39
0.065449178 -0.015571514 0.13199998 7.4786696e-39
0.066621833 -0.015547921 0.13179998 7.2942798e-39
0.067536183 -0.015453549 0.13100003 7.6630637e-39
0.068643108 -0.015453549 0.13100003 7.5712282e-39
0.069486491 -0.015453548 0.13100003 7.3875558e-39
0.064811826 -0.014456136 0.132 7.4779508e-39
0.065449186 -0.014456133 0.13199998 7.386474e-39
0.066609778 -0.014458262 0.13184209 7.3861139e-39
0.067506388 -0.014439975 0.13107695 7.7545349e-39
0.068643108 -0.014469612 0.13100003 7.663784e-39
