# .PCD v0.7 - Point Cloud Data file format
VERSION 0.7
FIELDS x y z rgb
SIZE 4 4 4 4
TYPE F F F F
COUNT 1 1 1 1
WIDTH 997
HEIGHT 1
VIEWPOINT 0 0 0 1 0 0 0
POINTS 997
DATA ascii
0.044549815 0.024677433 0.14400002 6.7331508e-39
0.045209456 0.024035616 0.14400001 7.8413033e-39
-0.021365566 0.025657985 0.14400001 1.3509551e-38
-0.020334203 0.025797043 0.14400001 1.3877258e-38
-0.019685257 0.025773868 0.14400001 1.3785062e-38
-0.0093400283 0.025615843 0.14400002 9.096756e-39
-0.0084059378 0.025464846 0.14400001 8.728335e-39
0.042814534 0.025812497 0.14400001 8.1160951e-39
0.043432575 0.025580728 0.14400001 7.5621996e-39
0.044514153 0.025580728 0.14400002 6.8242731e-39
-0.021191742 0.026121518 0.14400001 1.3783624e-38
-0.020351585 0.026382254 0.14400001 1.406417e-38
-0.01980114 0.026353287 0.14400001 1.3789024e-38
-0.010182817 0.026585052 0.14400001 9.187874e-39
-0.0093716318 0.026430542 0.14400002 9.0045618e-39
-0.0085604489 0.02643054 0.14400001 8.5450227e-39
0.041964721 0.026816819 0.14400001 8.8536629e-39
0.042582765 0.02643054 0.14400001 8.3930435e-39
0.043432578 0.02643054 0.14400001 7.8395096e-39
0.044514153 0.02643054 0.14400002 7.1941388e-39
-0.020206731 0.027280349 0.14400001 1.3509553e-38
-0.019917022 0.027975652 0.14400001 1.2403564e-38
-0.018294655 0.02785977 0.14400001 1.2402482e-38
-0.017831123 0.027975652 0.14400001 1.221917e-38
-0.015281686 0.027782513 0.14400001 1.1483768e-38
-0.014740898 0.027898395 0.14400001 1.1211142e-38
-0.012268717 0.027666628 0.14400001 9.6459739e-39
-0.011805184 0.02785977 0.14400001 9.1878754e-39
-0.010414585 0.027512118 0.14400002 8.7283392e-39
-0.0093716327 0.02751212 0.14400002 8.4535502e-39
-0.0085604489 0.027512118 0.14400001 8.5461045e-39
0.041865397 0.027578339 0.14400001 8.76111e-39
0.042582765 0.027512116 0.14400002 8.5767173e-39
0.043432578 0.027512116 0.14400002 8.0239023e-39
0.044514157 0.027512122 0.14400002 7.5629227e-39
0.045209456 0.027743885 0.14400001 7.4707257e-39
-0.019646628 0.028632322 0.14400001 1.2317122e-38
-0.018364185 0.028555071 0.14400002 1.2129492e-38
-0.017483473 0.028555073 0.14400001 1.2034779e-38
-0.016539847 0.028604735 0.14400001 1.1941504e-38
-0.015471313 0.028481327 0.14400002 1.1759995e-38
-0.014509131 0.028516442 0.14400001 1.139481e-38
-0.013891086 0.028670952 0.14400001 1.0840917e-38
-0.012546837 0.028555071 0.14400002 9.9214818e-39
-0.011602389 0.028555069 0.14400001 9.1878754e-39
-0.010530468 0.028516442 0.14400002 8.1769647e-39
-0.0094617642 0.028439187 0.14400001 8.0854879e-39
-0.0085604489 0.028207419 0.14400001 8.5464661e-39
0.041732956 0.028516445 0.14400001 8.3930491e-39
0.042582765 0.028516442 0.14400001 8.5770774e-39
0.043432578 0.028516442 0.14400001 8.1160979e-39
0.044359647 0.028516442 0.14400001 8.2082921e-39
-0.01945349 0.029227192 0.14400001 1.231892e-38
-0.018665481 0.029227192 0.14400001 1.2040895e-38
-0.017135821 0.029134486 0.14400001 1.1758192e-38
-0.015127175 0.029211743 0.14400001 1.1484487e-38
-0.014470503 0.029337281 0.14400001 1.1484487e-38
-0.01365932 0.029366255 0.14400001 1.0655447e-38
-0.012546837 0.02938943 0.14400002 1.0013319e-38
-0.011573418 0.029288998 0.14400001 9.0956798e-39
-0.010498863 0.029366255 0.14400002 7.9010981e-39
-0.0097192824 0.029134486 0.14400001 7.9932923e-39
0.016702136 0.02959802 0.14400001 1.3084114e-38
0.019946871 0.029366253 0.14400001 9.3973864e-39
0.02033315 0.029288998 0.14400001 8.8445783e-39
0.041732956 0.029366251 0.14400001 8.3008521e-39
0.042582765 0.029366255 0.14400001 8.300492e-39
0.043432578 0.029366255 0.14400001 7.8391523e-39
0.044359643 0.029366255 0.14400001 8.1160965e-39
-0.01678817 0.030061552 0.14400001 1.2587952e-38
-0.013612965 0.030154258 0.14400001 1.0655447e-38
-0.01267431 0.030428516 0.14400002 1.0104794e-38
-0.010646351 0.030061552 0.14400001 7.809264e-39
0.017745085 0.030293319 0.14400001 1.1700461e-38
0.018479014 0.030138807 0.14400001 1.0503724e-38
0.019135688 0.030061552 0.14400001 9.9505587e-39
0.04155913 0.030467145 0.14400002 8.3934079e-39
0.042582765 0.030467145 0.14400002 8.3934079e-39
0.043432575 0.030467145 0.14400002 8.3934065e-39
0.044497602 0.030458869 0.14400002 9.2228056e-39
-0.012500484 0.031220388 0.14400001 9.8300078e-39
0.040805887 0.031568035 0.14400001 8.5767201e-39
0.041559126 0.031452153 0.14400002 8.4852434e-39
0.042582765 0.031452157 0.14400001 8.3934079e-39
0.043322209 0.031419046 0.14400001 8.2090166e-39
0.04066103 0.032582019 0.14400001 8.7621904e-39
0.041559126 0.032495104 0.14400002 8.392689e-39
0.042554673 0.032463498 0.14400002 8.4845245e-39
0.043123554 0.032263339 0.14400001 8.2086565e-39
0.039801564 0.033692565 0.14400001 8.3934107e-39
0.040574118 0.033538058 0.14400001 8.301215e-39
0.041559126 0.033538062 0.14400002 8.0246281e-39
0.042312369 0.033480112 0.14400001 8.4856049e-39
0.038951751 0.034928657 0.14400001 8.7621932e-39
0.03966812 0.034612611 0.14400002 8.5778019e-39
0.040574118 0.034581006 0.14400002 8.4856049e-39
0.04143798 0.034486193 0.14400002 8.3934093e-39
0.038797241 0.035701212 0.14400001 8.5785208e-39
0.039647058 0.035623956 0.14400001 8.3941295e-39
0.040574118 0.035623953 0.14400001 8.4856035e-39
0.041037653 0.035508074 0.14400001 8.3934079e-39
0.038635705 0.036508888 0.14400002 8.3941295e-39
0.03964705 0.036473766 0.14400001 8.301215e-39
0.040545151 0.036435142 0.14400001 8.4856035e-39
0.03766048 0.037643638 0.14400001 8.2090194e-39
0.038604103 0.037478089 0.14400002 8.2090194e-39
0.03964705 0.037478089 0.14400002 8.1168238e-39
0.040400296 0.037246324 0.14400001 8.301215e-39
0.036634084 0.038868692 0.14400001 7.9331514e-39
0.037476871 0.038594786 0.14400002 8.0249869e-39
0.038604099 0.038559671 0.14400002 8.2090194e-39
0.039580833 0.038504489 0.14400001 8.3004962e-39
0.03654138 0.039471287 0.14400001 8.3015752e-39
0.037445266 0.039409477 0.14400002 8.3934107e-39
0.038604099 0.039409485 0.14400002 8.4856035e-39
0.039473228 0.039332222 0.14400001 8.3934093e-39
0.035707016 0.040954594 0.14400001 9.1298967e-39
0.036402315 0.04043312 0.14400002 8.6703577e-39
0.03744527 0.040433116 0.14400002 8.5781621e-39
0.038507532 0.040355861 0.14400002 8.3934107e-39
0.035707016 0.041495383 0.14400001 9.0376997e-39
0.036402319 0.041495383 0.14400001 8.946583e-39
0.03744527 0.041495387 0.14400002 8.301215e-39
0.038256451 0.041495379 0.14400001 8.2090194e-39
0.035614308 0.042391546 0.14400001 8.854386e-39
0.036402319 0.042345196 0.14400001 8.7621904e-39
0.03741366 0.042324126 0.14400002 8.2090194e-39
0.034548182 0.043735795 0.14400001 8.6699976e-39
0.03540903 0.043421246 0.14400002 8.301215e-39
0.036402315 0.043388143 0.14400002 8.0246281e-39
0.037283029 0.043341789 0.14400002 7.9324325e-39
0.033852883 0.044894628 0.14400001 9.1298939e-39
0.034367923 0.04463711 0.14400001 8.3012136e-39
0.035359368 0.04454698 0.14400002 8.1168238e-39
0.036402315 0.044546977 0.14400002 8.0246281e-39
0.037097618 0.044546977 0.14400001 7.8402369e-39
0.033737 0.045647871 0.14400001 9.6827061e-39
0.034316417 0.045589931 0.14400001 8.6696374e-39
0.035359364 0.045589924 0.14400002 8.1168238e-39
0.036373347 0.04556096 0.14400001 7.8402369e-39
0.032848559 0.046903271 0.14400001 9.3142852e-39
0.033466607 0.046632875 0.14400002 9.4064808e-39
0.034316417 0.046632875 0.14400002 8.7618316e-39
0.035359368 0.046632871 0.14400002 8.484886e-39
0.03617055 0.046516996 0.14400001 8.1157448e-39
0.031882863 0.047907595 0.14400001 1.0695422e-38
0.032616794 0.047675833 0.14400001 9.3139278e-39
0.033466604 0.047675829 0.14400001 9.0380598e-39
0.034316413 0.047675829 0.14400001 8.3930491e-39
0.035243481 0.047675833 0.14400001 8.115742e-39
0.031689722 0.048525639 0.14400001 9.9596546e-39
0.032616794 0.048525643 0.14400001 9.0380598e-39
0.033466607 0.048525646 0.14400001 8.8540301e-39
0.034316417 0.048525646 0.14400001 8.0246267e-39
0.035104424 0.048463836 0.14400001 8.1161007e-39
0.031535212 0.049587909 0.14400002 9.0373381e-39
0.03261679 0.049587905 0.14400002 8.9458628e-39
0.033466604 0.049587905 0.14400002 8.4856035e-39
0.034316417 0.049587905 0.14400002 8.2082977e-39
0.035011716 0.049066432 0.14400001 8.2079376e-39
0.030839913 0.050804682 0.14400001 9.4064794e-39
0.031535216 0.050611544 0.14400002 9.8670988e-39
0.03261679 0.050611544 0.14400001 1.0604304e-38
0.033466604 0.050611544 0.14400001 8.8529469e-39
0.034177355 0.050549738 0.14400001 8.4845245e-39
0.030641258 0.051516537 0.14400001 9.498675e-39
0.031535212 0.05146135 0.14400002 9.9596532e-39
0.032616794 0.051461354 0.14400001 1.0050412e-38
0.033389352 0.051245034 0.14400001 9.0373381e-39
0.029854905 0.052484989 0.14400001 9.4983149e-39
0.030530892 0.052388422 0.14400001 1.0144042e-38
0.031535216 0.052388418 0.14400002 9.406478e-39
0.032415926 0.052311171 0.14400001 9.4061179e-39
0.028985778 0.053933531 0.14400001 9.5905091e-39
0.029702149 0.053448927 0.14400002 9.5901518e-39
0.03053089 0.05341205 0.14400002 1.0052209e-38
0.031535212 0.053412057 0.14400002 9.4990337e-39
0.032230515 0.053006463 0.14400001 9.2224455e-39
0.028985778 0.054397065 0.14400001 9.4990323e-39
0.029681079 0.054397061 0.14400001 9.4068367e-39
0.030530892 0.054397061 0.14400001 9.4990323e-39
0.031448301 0.054310154 0.14400001 9.3150012e-39
0.028869895 0.055440012 0.14400001 9.2220895e-39
0.029681081 0.055440012 0.14400002 9.0376969e-39
0.03053089 0.055440012 0.14400002 8.6692731e-39
0.03107168 0.055440016 0.14400001 9.4064808e-39
0.028985778 0.056251198 0.14400001 9.0376983e-39
0.029449312 0.056251198 0.14400001 8.7611114e-39
0.03072403 0.056714732 0.14400001 9.3153642e-39
0.029820139 0.057688154 0.14400001 9.5901476e-39
0.030566007 0.05755752 0.14400002 8.9458586e-39
0.029796962 0.0583371 0.14400001 9.3146411e-39
0.030541928 0.058502644 0.14400001 8.8536629e-39
0.049646389 -0.051333595 0.14500001 3.1378464e-39
0.050457649 -0.051478066 0.145 3.0452962e-39
0.051474504 -0.051644772 0.145 3.5966665e-39
0.052641384 -0.051761456 0.145 3.5966679e-39
0.053691581 -0.051878139 0.14500001 3.5959491e-39
0.0485573 -0.050594568 0.14500001 3.6892237e-39
0.049403287 -0.050769601 0.145 3.5973854e-39
0.050190933 -0.050944634 0.14500001 3.5055485e-39
-0.021630626 -0.035483457 0.14500001 3.783234e-39
-0.020988841 -0.035541799 0.14500001 3.6910384e-39
0.0086499518 -0.034141541 0.14500001 4.8892032e-39
0.0079498226 -0.033908166 0.14500001 5.0732119e-39
0.0086499518 -0.033908166 0.14500001 5.0735903e-39
0.0091167036 -0.033908166 0.14500001 5.0732441e-39
-0.014454304 -0.023406232 0.14500001 7.0997585e-39
0.059525989 -0.015238062 0.14500001 5.5360454e-39
0.056958847 -0.013137676 0.14500001 6.1814148e-39
0.057503391 -0.013254363 0.145 6.0892192e-39
0.058125731 -0.013137676 0.14500001 6.1814148e-39
0.055714171 -0.012281962 0.14500001 6.3658061e-39
0.056562107 -0.012390871 0.145 6.1814148e-39
0.057503387 -0.012437547 0.145 6.1814148e-39
0.058242422 -0.012437548 0.145 5.9977424e-39
0.029653819 -0.011037289 0.14500001 6.5469421e-39
0.054858461 -0.011037289 0.14500001 6.2743293e-39
0.055516157 -0.011397962 0.145 6.2739692e-39
0.056492098 -0.011445697 0.145 6.2736104e-39
0.057468034 -0.011482826 0.145 6.2736104e-39
0.058320209 -0.01162073 0.145 6.1817735e-39
0.010983715 -0.01033716 0.14500001 7.1905122e-39
0.011606052 -0.010220473 0.145 6.5458659e-39
0.012150596 -0.01033716 0.14500001 6.3621963e-39
0.029568952 -0.010315944 0.145 7.5606975e-39
0.030587323 -0.010337159 0.145 6.547661e-39
0.03128745 -0.010414951 0.14500001 6.4565541e-39
0.054858461 -0.01033716 0.14500001 6.2743293e-39
0.055480797 -0.01033716 0.145 6.2743293e-39
0.05649209 -0.01033716 0.145 6.4583604e-39
0.057192225 -0.01033716 0.14500001 6.2739706e-39
0.029770508 -0.0098704081 0.14500001 8.1134943e-39
0.030620662 -0.0095703527 0.145 7.3766635e-39
0.054800116 -0.0094036553 0.14500001 6.3661676e-39
0.055480797 -0.0094814468 0.145 6.4583632e-39
0.056492101 -0.0094814477 0.145 6.5505602e-39
0.030820699 -0.0089369025 0.14500001 8.2067493e-39
0.053924955 -0.008120086 0.14500001 6.6427573e-39
0.054582652 -0.0084277177 0.145 6.5505602e-39
0.055480793 -0.0084701506 0.145 6.6427573e-39
0.056258719 -0.0085401628 0.145 6.7345928e-39
0.05375826 -0.0074032876 0.145 6.7349571e-39
0.054547295 -0.0074588531 0.145 6.7349557e-39
0.055480797 -0.0074588526 0.145 6.734597e-39
0.056103136 -0.007692229 0.14500001 6.8264325e-39
0.011800531 -0.0063697631 0.14500001 8.3894072e-39
0.052933104 -0.0064281076 0.14500001 6.5512889e-39
0.053691581 -0.0065253475 0.145 6.5512889e-39
0.054547295 -0.0065253479 0.145 6.4590919e-39
0.055391897 -0.0065698 0.145 6.4587318e-39
0.011917219 -0.0056696343 0.14500001 8.296857e-39
0.012150596 -0.0054362579 0.14500001 8.2968542e-39
0.05273214 -0.0056177727 0.145 6.4590947e-39
0.053691581 -0.0056696339 0.145 6.3668991e-39
0.054547291 -0.0056696339 0.145 6.2739832e-39
0.055091836 -0.0059030107 0.14500001 6.0903122e-39
0.012695141 -0.0043471684 0.14500001 8.4812581e-39
0.013084101 -0.0042693764 0.14500001 8.5734593e-39
0.051620364 -0.004473581 0.145 6.7353257e-39
0.052641388 -0.004619441 0.145 6.459459e-39
0.053691577 -0.004619441 0.145 6.0906751e-39
0.054547291 -0.0046194405 0.145 5.9981179e-39
-0.024289448 -0.0035025687 0.145 1.327508e-38
-0.023555985 -0.0035692474 0.145 1.3459472e-38
0.012617349 -0.0035692479 0.145 8.6652808e-39
0.013177453 -0.0036159228 0.14500001 8.7578492e-39
0.050657686 -0.0034525595 0.14500001 6.9207959e-39
0.051474508 -0.0035692474 0.145 6.7364047e-39
0.052641381 -0.0035692479 0.145 6.7360445e-39
0.053691581 -0.0035692474 0.145 7.1044683e-39
0.054275021 -0.0036275918 0.14500001 6.4598178e-39
-0.024209436 -0.0027757683 0.14500001 1.3643503e-38
-0.023462633 -0.0025423919 0.14500001 1.4104482e-38
-0.022855852 -0.00216899 0.14500001 1.484169e-38
0.012850725 -0.0028691187 0.14500001 8.9422292e-39
0.040155753 -0.0024023661 0.14500001 6.8260555e-39
0.050540999 -0.0025190543 0.145 7.0122727e-39
0.051474508 -0.0025190546 0.145 6.8278814e-39
0.052641388 -0.0025190543 0.145 7.1970227e-39
0.053670369 -0.0025508779 0.145 8.9473005e-39
0.054158334 -0.0028691187 0.14500001 8.4863224e-39
0.043773085 -0.0015855492 0.14500001 6.1839497e-39
0.050445531 -0.0013203491 0.145 6.5520148e-39
0.051474508 -0.0013521732 0.145 6.6434916e-39
0.052641388 -0.0013521732 0.145 7.1963052e-39
0.053516544 -0.0015272052 0.14500001 8.487044e-39
0.04972418 -0.00018529157 0.14500001 6.8286003e-39
0.050424311 -0.00030197969 0.145 6.5520134e-39
0.051474508 -0.00030197969 0.145 6.5520134e-39
0.052609559 -0.00032319571 0.145 6.9207959e-39
0.041789386 0.00039814913 0.14500001 1.1799855e-38
0.042022765 0.00063152547 0.14500001 1.2076427e-38
0.048440613 0.00086490175 0.14500001 7.0119125e-39
0.049464874 0.00068338687 0.145 6.7364047e-39
0.050424308 0.00063152547 0.145 6.644209e-39
0.0514745 0.00063152547 0.145 6.8286003e-39
0.052458018 0.00059818604 0.145 6.7364047e-39
0.043773085 0.0016817187 0.14500001 1.096976e-38
0.047507111 0.0015358585 0.145 6.4601793e-39
0.048323922 0.0014872386 0.145 6.8286003e-39
0.049374118 0.0014872384 0.145 6.920077e-39
0.050424311 0.0014872384 0.145 7.1041082e-39
0.051474508 0.0014872383 0.145 6.8286003e-39
0.052291322 0.001098278 0.14500001 6.8286003e-39
0.047623798 0.0020317831 0.14500001 6.5520162e-39
0.048357267 0.0022318198 0.145 6.6442118e-39
0.049374118 0.0024985357 0.145 6.7364047e-39
0.050424308 0.0024985357 0.145 6.7356858e-39
0.051280022 0.0022262633 0.145 6.6434902e-39
-0.010409114 0.0035098332 0.14500001 6.5469547e-39
0.045756783 0.0034320408 0.14500001 1.1062671e-38
0.049568597 0.003393145 0.145 6.6434902e-39
0.050284285 0.0034320406 0.14500001 6.4598178e-39
-0.012237229 0.004248858 0.14500001 5.9022747e-39
-0.011653788 0.0041321698 0.14500001 6.5469435e-39
0.038677704 0.0046767145 0.14500001 1.0506637e-38
0.039222248 0.0045989221 0.14500001 9.4031975e-39
-0.016087938 0.00599918 0.14500001 3.5973882e-39
-0.015434484 0.0053924015 0.14500001 3.3218803e-39
0.038755495 0.0050656749 0.14500001 1.1519331e-38
-0.016601365 0.0064192573 0.14500001 3.7814151e-39
-0.017429853 0.0074577816 0.14500001 5.7146297e-39
-0.016788067 0.0073994375 0.14500001 6.5429456e-39
-0.019432999 0.008721903 0.14500001 1.1976696e-38
-0.01868842 0.008566319 0.145 1.0040239e-38
-0.017604884 0.0087996954 0.14500001 9.3041159e-39
-0.016710276 0.0085274233 0.145 8.4757944e-39
-0.020366503 0.0098109925 0.14500001 1.5386142e-38
-0.019588584 0.0096165119 0.145 1.4096471e-38
-0.018841779 0.0095931748 0.14500001 1.2714261e-38
-0.017524101 0.0095895836 0.145 1.1239501e-38
-0.016710274 0.0095387204 0.145 1.0503021e-38
-0.013170734 0.0099665765 0.14500001 8.9324776e-39
-0.012820669 0.0099665765 0.14500001 8.011966e-39
-0.020522088 0.010433329 0.14500001 1.6122272e-38
-0.019355206 0.010433329 0.14500001 1.6306298e-38
-0.018684251 0.010695877 0.145 1.6675459e-38
-0.017604886 0.010666706 0.145 1.566131e-38
-0.016438004 0.010900081 0.14500001 1.4923027e-38
-0.013414717 0.010687921 0.145 1.1419956e-38
-0.012520614 0.010700045 0.145 1.0496209e-38
-0.020599879 0.011522419 0.14500001 1.6484948e-38
-0.018655078 0.011133458 0.14500001 1.7319756e-38
-0.017534871 0.011226809 0.14500001 1.639744e-38
-0.016438002 0.011522419 0.145 1.5563364e-38
-0.015416982 0.011571039 0.145 1.4544894e-38
-0.014512648 0.011541866 0.14500001 1.3623296e-38
-0.013987551 0.011133458 0.14500001 1.2523065e-38
-0.012213891 0.011460184 0.14500001 1.1317694e-38
-0.011187036 0.011833587 0.14500001 9.1921732e-39
0.045640096 0.011755794 0.145 1.0231471e-38
0.046301331 0.011755794 0.14500001 1.0230397e-38
-0.022272412 0.012767092 0.14500001 1.8219409e-38
-0.021455593 0.012650404 0.14500001 1.77703e-38
-0.020988841 0.012066963 0.14500001 1.7128521e-38
-0.012120541 0.012066963 0.14500001 1.1679641e-38
-0.011420412 0.01230034 0.14500001 1.0478592e-38
-0.010813633 0.012393691 0.14500001 9.4658832e-39
0.045678992 0.012455923 0.145 1.0049262e-38
0.046534702 0.012455923 0.145 1.0415147e-38
0.047234833 0.012222547 0.14500001 9.9541881e-39
-0.023205917 0.013642253 0.14500001 1.7276239e-38
-0.022529125 0.013233845 0.14500001 1.8115349e-38
-0.010393556 0.013560573 0.14500001 1.0106579e-38
-0.0096700899 0.013933974 0.14500001 9.1882243e-39
0.045678988 0.013467222 0.145 9.1298617e-39
0.046281882 0.013233844 0.14500001 9.8648805e-39
-0.024139423 0.014167351 0.14500001 1.6263883e-38
-0.023789357 0.014167351 0.14500001 1.6170969e-38
-0.010020154 0.014167351 0.14500001 9.8303554e-39
-0.0093589211 0.014361831 0.145 9.2800626e-39
-0.0086976876 0.014595207 0.145 8.5460989e-39
0.045471549 0.01447852 0.145 8.3926736e-39
-0.0090866489 0.015412024 0.14500001 9.7392429e-39
-0.0086198961 0.015412022 0.145 9.5562908e-39
-0.0078614233 0.015509265 0.14500001 7.5362686e-39
0.044589903 0.015800985 0.14500001 7.93278e-39
0.0456012 0.015334231 0.14500001 8.0249715e-39
-0.024396135 0.01664114 0.14500001 1.6904954e-38
-0.0090866489 0.016034361 0.14500001 9.9229139e-39
-0.0086198961 0.016034361 0.14500001 9.9236356e-39
-0.007686391 0.016345531 0.145 8.270954e-39
0.016117994 0.016267737 0.14500001 1.2814108e-38
0.043656398 0.016967867 0.14500001 8.2071977e-39
0.04412315 0.016034361 0.14500001 7.9327828e-39
-0.024333902 0.017279034 0.14500001 1.7280915e-38
-0.0068929112 0.017481294 0.14500001 5.7913928e-39
0.042567309 0.017590202 0.14500001 8.2082907e-39
0.043656398 0.017201243 0.14500001 8.0238855e-39
0.044648245 0.017376274 0.14500001 7.3781461e-39
0.045523409 0.017667994 0.14500001 6.5490665e-39
0.046223536 0.017667994 0.14500001 6.3643011e-39
-0.0067528849 0.018368123 0.14500001 6.2505703e-39
0.042489517 0.018601499 0.14500001 7.9327828e-39
0.045290031 0.018134747 0.14500001 5.9955311e-39
-0.0066595348 0.019254953 0.14500001 7.1696483e-39
0.042671029 0.019509073 0.145 7.1948366e-39
0.046340227 0.019768381 0.14500001 6.271395e-39
0.04276957 0.020328486 0.14500001 5.2586864e-39
0.043364678 0.020760231 0.14500001 4.8909885e-39
0.044512112 0.020935262 0.14500001 6.6409286e-39
0.045990162 0.020351823 0.14500001 6.4565023e-39
0.046223536 0.020235134 0.14500001 6.6405376e-39
-0.024022734 0.021635391 0.14500001 1.6735328e-38
-0.0062861331 0.021752078 0.14500001 5.2414602e-39
0.043306332 0.021577047 0.14500001 6.4569087e-39
-0.0086198961 0.022802273 0.14500001 1.0017272e-38
-0.007686391 0.022802273 0.14500001 8.7297769e-39
-0.0066361972 0.022491105 0.145 6.9856186e-39
-0.0057610362 0.022568896 0.14500001 3.1288837e-39
0.042862922 0.022568895 0.14500001 7.6554687e-39
0.043189645 0.02233552 0.14500001 7.5629087e-39
-0.0085615516 0.023152336 0.14500001 9.7406835e-39
-0.007686391 0.023560748 0.145 8.4531901e-39
-0.0066361967 0.023560744 0.145 6.5260824e-39
-0.0057026921 0.023560746 0.145 2.9455728e-39
0.041633803 0.02381357 0.145 8.0249785e-39
0.042343657 0.023560744 0.145 7.7480286e-39
-0.0076863905 0.024591492 0.145 8.3613518e-39
-0.0066361972 0.024591491 0.145 5.7913956e-39
-0.0057610362 0.024494251 0.14500001 2.7622634e-39
0.040700298 0.02470818 0.145 8.3937624e-39
0.041556016 0.024591492 0.145 8.8536573e-39
0.042437658 0.024669282 0.145 8.2993961e-39
0.043189645 0.024902659 0.14500001 8.2979612e-39
-0.022155723 0.025136035 0.14500001 1.3789372e-38
-0.021844557 0.025447203 0.14500001 1.387905e-38
-0.0076863905 0.025447205 0.145 8.2684387e-39
-0.0067269546 0.025369413 0.145 5.6995587e-39
-0.0058193803 0.025136035 0.14500001 2.8544604e-39
0.039689001 0.025836164 0.14500001 8.578155e-39
0.040505815 0.025447205 0.145 8.7621862e-39
0.041556012 0.025447205 0.145 9.3139166e-39
0.042510729 0.025411842 0.145 9.0366095e-39
0.043189645 0.025136035 0.14500001 8.8507805e-39
-0.021572281 0.026419604 0.14500001 1.4522984e-38
-0.0084448634 0.026477948 0.14500001 8.4524684e-39
-0.0077530695 0.026336255 0.145 8.0851264e-39
-0.0069862618 0.026069541 0.14500001 7.1678504e-39
0.039595652 0.026442941 0.14500001 8.3012122e-39
0.040505815 0.026380708 0.145 8.3930477e-39
0.041556012 0.026380708 0.145 8.9458586e-39
0.042139452 0.026302917 0.14500001 9.0380542e-39
-0.0083865197 0.027411453 0.14500001 8.6375813e-39
-0.0077739065 0.027528141 0.145 8.0854865e-39
-0.0068929112 0.027609821 0.14500001 5.9750638e-39
0.038755495 0.027703173 0.14500001 8.0249855e-39
0.039455622 0.027411453 0.145 7.9327884e-39
0.040505819 0.027411455 0.145 8.0246253e-39
0.041509338 0.027353108 0.145 8.5774376e-39
-0.020522088 0.028169926 0.14500001 1.2403564e-38
-0.0090866489 0.028636679 0.14500001 8.2698792e-39
-0.008526545 0.028496653 0.14500001 8.4542705e-39
-0.0077252868 0.028325507 0.145 8.0865669e-39
-0.0069084694 0.02824772 0.14500001 5.9750666e-39
0.03869715 0.028461648 0.14500001 7.9331486e-39
0.039455622 0.028403303 0.145 7.8409529e-39
0.040505819 0.028403303 0.145 7.8409529e-39
0.041380979 0.028344959 0.14500001 8.116821e-39
-0.018421702 0.029570183 0.14500001 1.2222047e-38
-0.017682677 0.029492391 0.145 1.1944021e-38
-0.016438004 0.029453494 0.145 1.2035142e-38
-0.015621185 0.029570183 0.14500001 1.1208621e-38
-0.010020154 0.029570183 0.14500001 7.9932923e-39
-0.0094133755 0.029383484 0.14500001 7.9932923e-39
-0.0086198961 0.029336806 0.145 8.0865669e-39
-0.0079197669 0.029336805 0.14500001 7.9950916e-39
0.038551293 0.029365979 0.145 8.2093753e-39
0.039455622 0.029336806 0.145 8.0246253e-39
0.040505815 0.02933681 0.145 8.0249841e-39
0.041322634 0.029336805 0.14500001 8.301571e-39
-0.019413551 0.030211966 0.14500001 1.2498278e-38
-0.018701755 0.030340325 0.145 1.2037657e-38
-0.017604884 0.030370329 0.145 1.1762145e-38
-0.016414665 0.03039478 0.145 1.2866701e-38
-0.015409024 0.030355174 0.145 1.1668162e-38
-0.014454304 0.030464791 0.145 1.1392292e-38
-0.013754175 0.030737065 0.14500001 1.0655806e-38
-0.012237229 0.030270312 0.14500001 9.6463354e-39
-0.011498204 0.030270314 0.14500001 8.7276203e-39
-0.010380826 0.030503688 0.145 7.7177872e-39
-0.0079197669 0.030036936 0.14500001 7.2600489e-39
0.016818123 0.030270312 0.14500001 1.3452174e-38
0.017284876 0.030503688 0.14500001 1.2806448e-38
0.018568445 0.030620376 0.145 1.0502645e-38
0.037588615 0.030737065 0.14500001 8.116821e-39
0.038405433 0.030387001 0.145 8.3934079e-39
0.039455622 0.030387001 0.145 8.116821e-39
0.040505815 0.030386999 0.145 8.116821e-39
0.041322634 0.030036936 0.14500001 8.3934079e-39
-0.01873287 0.031281609 0.14500001 1.2312444e-38
-0.017348172 0.031390518 0.14500001 1.2958893e-38
-0.016601365 0.03129717 0.14500001 1.2771628e-38
-0.013240747 0.031390518 0.14500001 1.0105153e-38
-0.012412262 0.031612225 0.145 9.4626658e-39
-0.010409114 0.031281609 0.14500001 8.0865697e-39
0.03751082 0.031631675 0.145 8.209018e-39
0.03840543 0.031553879 0.145 8.3934079e-39
0.039455622 0.031553879 0.145 8.3012136e-39
0.040455807 0.031520538 0.145 8.3008535e-39
0.03735524 0.032604076 0.145 8.3934107e-39
0.038405433 0.032604076 0.145 8.5778019e-39
0.039455622 0.032604076 0.145 8.6699961e-39
0.040322449 0.032570738 0.145 8.4856035e-39
0.036771797 0.033537582 0.14500001 8.3934107e-39
0.03735524 0.03345979 0.145 8.5778019e-39
0.03840543 0.033459786 0.145 8.7621932e-39
0.039455622 0.03345979 0.145 8.6699976e-39
0.040155753 0.033304207 0.14500001 8.3934093e-39
0.035954978 0.034821153 0.14500001 8.5785236e-39
0.036527812 0.034577169 0.145 8.5781621e-39
0.03735524 0.034529429 0.145 8.7625519e-39
0.038405426 0.034529433 0.145 8.7625519e-39
0.039300039 0.034432191 0.145 8.6699976e-39
0.035654925 0.035604626 0.145 8.3941323e-39
0.036499526 0.035560176 0.145 8.946946e-39
0.037355237 0.035560176 0.145 9.1313358e-39
0.038373608 0.035531886 0.145 8.762912e-39
0.034788098 0.036804847 0.14500001 9.0387801e-39
0.035429884 0.036415886 0.145 8.5781621e-39
0.036499519 0.03641589 0.145 9.2231713e-39
0.03735524 0.03641589 0.145 9.0387801e-39
0.03814872 0.036338098 0.14500001 8.7625533e-39
0.033776801 0.03789394 0.14500001 9.7752633e-39
0.034427423 0.037547413 0.145 9.4075598e-39
0.035429884 0.037504978 0.145 8.7621932e-39
0.036499526 0.037504975 0.145 8.5774418e-39
0.037334025 0.037462544 0.145 8.3934107e-39
0.038055368 0.037038226 0.14500001 8.7621932e-39
0.033737902 0.038516272 0.145 9.3157243e-39
0.034399137 0.038516272 0.145 9.1316932e-39
0.035429884 0.038516279 0.145 8.4863238e-39
0.036499526 0.038516276 0.145 8.1171825e-39
0.037121862 0.038321793 0.14500001 8.0246281e-39
0.033543423 0.039371986 0.145 9.2235315e-39
0.034399137 0.03937199 0.145 9.1316946e-39
0.03542988 0.039371993 0.145 8.3015752e-39
0.036281709 0.039325312 0.14500001 8.1175426e-39
0.032862745 0.040363837 0.14500001 9.3153642e-39
0.033543423 0.040305495 0.145 9.5001156e-39
0.034399137 0.040305495 0.145 9.2238874e-39
0.03542988 0.040305495 0.145 8.2090194e-39
0.036188357 0.040072117 0.14500001 8.2090194e-39
0.03190979 0.041627958 0.14500001 9.6837865e-39
0.032645281 0.04138751 0.145 9.683425e-39
0.033543427 0.041355688 0.145 1.1343306e-38
0.034399133 0.041355684 0.145 1.0513188e-38
0.035308704 0.041328754 0.145 8.7611142e-39
0.031664446 0.042585395 0.145 9.5905133e-39
0.032609921 0.042522565 0.145 9.0384171e-39
0.033543423 0.042522565 0.145 9.3153642e-39
0.034399137 0.042522565 0.145 9.315004e-39
0.035208173 0.04247589 0.145 8.9465816e-39
0.030762354 0.043631107 0.14500001 1.0326639e-38
0.031579174 0.043572757 0.145 9.4061207e-39
0.032609921 0.043572757 0.145 9.0384199e-39
0.033543423 0.043572761 0.145 9.4997582e-39
0.034399137 0.043572757 0.145 9.0387801e-39
0.035021473 0.04345607 0.14500001 8.7621932e-39
0.030633997 0.044622954 0.145 1.0142608e-38
0.031579174 0.044564608 0.145 9.313925e-39
0.032609921 0.044564605 0.145 9.3139264e-39
0.033543423 0.044564605 0.145 9.4068423e-39
0.034181319 0.044366241 0.14500001 9.0387787e-39
0.030587323 0.045673147 0.145 9.6827103e-39
0.03157917 0.045673147 0.145 8.8543888e-39
0.032609921 0.045673151 0.145 1.0144405e-38
0.033387836 0.045673147 0.145 1.0789412e-38
0.029887194 0.046528857 0.14500001 9.1295352e-39
0.030587323 0.046528861 0.145 8.8525881e-39
0.031579174 0.046528861 0.145 8.7621918e-39
0.032609921 0.046528861 0.145 9.6834292e-39
0.033154462 0.0461399 0.14500001 1.1526617e-38
0.029720498 0.047440138 0.145 9.2217266e-39
0.030587323 0.047384571 0.145 8.5756439e-39
0.03157917 0.047384571 0.145 1.0789771e-38
0.032376543 0.047151197 0.14500001 9.8678135e-39
0.028720314 0.048940416 0.14500001 9.7752633e-39
0.029560467 0.048504774 0.145 9.2217308e-39
0.030587321 0.04847366 0.145 1.0420633e-38
0.031374969 0.048269462 0.145 1.1988316e-38
0.028603626 0.049484957 0.145 9.6830649e-39
0.029537128 0.049484968 0.145 9.3146425e-39
0.030587323 0.049484961 0.145 9.9600133e-39
0.031054076 0.049173791 0.14500001 1.023732e-38
0.02851611 0.050369844 0.145 9.590872e-39
0.029537128 0.050340679 0.145 9.5908706e-39
0.030587323 0.050340675 0.145 9.5912294e-39
0.027786808 0.051974308 0.14500001 9.2224455e-39
0.028486937 0.051449206 0.145 9.4986764e-39
0.029537128 0.051449217 0.145 9.4064794e-39
0.03043174 0.051351968 0.145 9.4064808e-39
0.027631223 0.052518856 0.145 9.0384171e-39
0.028486937 0.052441061 0.145 9.3142838e-39
0.029467117 0.052417718 0.145 9.9600091e-39
0.026503239 0.053841319 0.14500001 9.0380542e-39
0.027460085 0.053514589 0.145 9.0380556e-39
0.028486937 0.05349125 0.145 9.4986764e-39
0.02926486 0.053413466 0.145 9.7749032e-39
0.026453229 0.054574784 0.145 9.0380542e-39
0.027436746 0.054541439 0.145 8.9458586e-39
0.028486937 0.054541443 0.145 9.5905091e-39
0.027460082 0.055537179 0.145 8.9455012e-39
0.028409144 0.055474952 0.145 9.3146439e-39
0.046594936 -0.052386679 0.147 2.8616322e-39
0.047508106 -0.052343823 0.1468889 3.1364171e-39
0.048415996 -0.05223725 0.14625001 2.769431e-39
0.049362149 -0.052118432 0.14600001 3.3208027e-39
0.050302092 -0.05223592 0.14600001 2.8616224e-39
0.047834743 -0.051765949 0.14600001 2.860905e-39
0.048563197 -0.051577963 0.14600001 3.0460151e-39
0.049244657 -0.051765949 0.14600001 3.4129969e-39
0.0076257177 -0.036544655 0.147 4.8888403e-39
0.0081777731 -0.036662951 0.147 4.7966559e-39
0.0078228805 -0.034849055 0.147 4.9810219e-39
0.0081777731 -0.034849055 0.147 4.9806688e-39
0.0078228805 -0.033902675 0.147 5.3501519e-39
0.0084145674 -0.033748921 0.14633334 5.257606e-39
-0.013470697 -0.029880555 0.147 5.3487548e-39
-0.014462714 -0.024659203 0.14666668 6.3625508e-39
-0.014653673 -0.023492482 0.147 7.0997613e-39
0.01137181 -0.023255885 0.147 5.3484045e-39
-0.015023961 -0.021687768 0.14600001 6.6387832e-39
0.052657686 -0.016158028 0.147 5.8119092e-39
0.053627729 -0.016252667 0.147 5.7197136e-39
0.057821643 -0.016753066 0.14600001 5.7207926e-39
0.024739444 -0.015566539 0.147 5.9015755e-39
0.025488662 -0.015605971 0.147 6.1788883e-39
0.051514145 -0.015527107 0.147 5.7197136e-39
0.052453354 -0.015663328 0.14699998 5.8119092e-39
0.053571805 -0.015663328 0.14699998 5.8119092e-39
0.054826479 -0.015527107 0.147 5.9041048e-39
0.055471785 -0.01544386 0.14600001 5.8119092e-39
0.056176741 -0.015343152 0.14600001 5.8119092e-39
0.024763104 -0.014785776 0.147 5.6253417e-39
0.02556753 -0.014561008 0.14699998 5.9022986e-39
0.026494192 -0.014442711 0.14699998 6.1788868e-39
0.027460288 -0.01402867 0.147 6.1799673e-39
0.050567761 -0.014449283 0.147 5.9041048e-39
0.051356409 -0.01456101 0.14699998 5.9041034e-39
0.052421093 -0.01456101 0.147 6.0888534e-39
0.053604066 -0.014561008 0.147 5.904465e-39
0.054551013 -0.014671971 0.14633334 5.8129882e-39
0.055530529 -0.014638194 0.14600001 5.7207926e-39
0.05652922 -0.01460882 0.14600001 5.8129882e-39
0.057116684 -0.014403208 0.14600001 5.9970235e-39
0.025662165 -0.013650117 0.147 6.3621795e-39
0.026573056 -0.013555479 0.14699998 5.9941299e-39
0.027618017 -0.013555478 0.147 6.0877716e-39
0.028426735 -0.01333273 0.14650001 6.4565555e-39
0.049936842 -0.013555479 0.147 6.0884961e-39
0.0504889 -0.01355548 0.147 5.9966606e-39
0.051356412 -0.013555478 0.147 5.8129882e-39
0.052421093 -0.013555481 0.14699998 5.9973795e-39
0.053538565 -0.013509641 0.14650001 5.9051838e-39
0.054453518 -0.013580758 0.14600001 5.9051852e-39
0.055530533 -0.013580756 0.146 6.1810547e-39
0.056568384 -0.013580759 0.14600001 6.3647257e-39
0.057312507 -0.013737415 0.14600001 6.0892178e-39
0.026573058 -0.012845694 0.147 7.0990088e-39
0.027696881 -0.012582812 0.147 6.1788798e-39
0.028523127 -0.012413113 0.14608335 6.2714412e-39
0.029336138 -0.012314447 0.14600001 6.5480309e-39
0.030093314 -0.012053352 0.14600001 6.9164533e-39
0.048990462 -0.012135909 0.147 6.3647271e-39
0.049571194 -0.012458539 0.14699998 6.2728888e-39
0.0504889 -0.012490802 0.14699998 6.0892164e-39
0.051356416 -0.012490802 0.14699998 6.0895765e-39
0.052495737 -0.012461342 0.14664999 5.9973795e-39
0.053591903 -0.01240583 0.14600001 5.9973795e-39
0.054453511 -0.012405831 0.14600001 6.0892178e-39
0.055386331 -0.012480598 0.14600001 6.1817721e-39
0.056411728 -0.012758309 0.14600001 6.2736104e-39
0.02855527 -0.011396998 0.14625001 7.1000892e-39
0.02935479 -0.011415533 0.14600001 6.4551038e-39
0.030387046 -0.011319022 0.14600001 6.5480295e-39
0.031127516 -0.011307825 0.147 6.5487512e-39
0.047807485 -0.011189528 0.147 6.4580045e-39
0.048648711 -0.011373546 0.147 6.2736104e-39
0.049542516 -0.011426124 0.147 6.1814148e-39
0.050488897 -0.011426122 0.147 6.1814148e-39
0.051356412 -0.011426125 0.147 6.1814148e-39
0.052448861 -0.011369228 0.14626667 6.1817735e-39
0.053591896 -0.011348395 0.14600001 6.1817735e-39
0.054453511 -0.011348393 0.14600001 6.1817735e-39
0.055001814 -0.011465887 0.14600001 6.273609e-39
0.010824478 -0.010643437 0.14600001 7.4674466e-39
0.011646929 -0.010643437 0.14600001 6.2696433e-39
0.028747812 -0.010589409 0.14633334 9.3105857e-39
0.029153369 -0.010643437 0.14600001 8.2042508e-39
0.046861105 -0.010006552 0.147 6.4580045e-39
0.047527865 -0.01032918 0.14699998 6.3658089e-39
0.048517272 -0.010361443 0.147 6.3658089e-39
0.049542516 -0.010361443 0.14699998 6.3658075e-39
0.0504889 -0.010361443 0.14699998 6.2736104e-39
0.051402427 -0.010416047 0.14661537 6.1814148e-39
0.052534457 -0.010408452 0.14600001 6.1821351e-39
0.0535919 -0.010408452 0.14600001 6.1821351e-39
0.054453511 -0.01040845 0.14600001 6.1821337e-39
0.030321082 -0.009248931 0.14625001 8.6670044e-39
0.046766467 -0.0092494469 0.147 6.6420398e-39
0.04749202 -0.0092967656 0.147 6.4580045e-39
0.048517268 -0.0092967665 0.14699998 6.3665277e-39
0.049542516 -0.0092967665 0.147 6.2743335e-39
0.050439607 -0.0093263406 0.147 6.3665291e-39
0.051391568 -0.0095112333 0.14600001 6.2743321e-39
0.052534457 -0.0095468359 0.14600001 6.2743321e-39
0.053591896 -0.0095468359 0.14600001 6.3661676e-39
0.054414347 -0.0095860008 0.14600001 6.366169e-39
0.030680779 -0.0088810436 0.14600001 8.3907762e-39
0.031498022 -0.0081898859 0.14625001 8.2989365e-39
0.046594936 -0.0083799586 0.147 6.7345984e-39
0.04749202 -0.0084292488 0.147 6.5505659e-39
0.048517272 -0.0084292488 0.14699998 6.5505659e-39
0.049542516 -0.0084292488 0.147 6.5505645e-39
0.050336223 -0.0084405728 0.14610001 6.5505645e-39
0.051359534 -0.0085285651 0.146 6.4587276e-39
0.052534461 -0.0085285651 0.146 6.2743363e-39
0.053591892 -0.0085285651 0.14600001 6.4587262e-39
0.054218531 -0.0089202076 0.14600001 6.4583646e-39
0.045855574 -0.0074040033 0.147 7.1959367e-39
0.046545643 -0.0074828682 0.147 6.73532e-39
0.047492024 -0.0074828682 0.147 6.5512875e-39
0.048517268 -0.0074828677 0.14699998 6.7353186e-39
0.049418006 -0.0074865925 0.14655556 6.643123e-39
0.050302092 -0.0075102937 0.14600001 6.6427629e-39
0.051359531 -0.0075102937 0.14600001 6.550926e-39
0.052534461 -0.0075102937 0.14600001 6.3668963e-39
0.053450905 -0.0075886222 0.14600001 6.5509274e-39
0.010824478 -0.0061787069 0.14600001 9.8640846e-39
0.011294451 -0.0064136926 0.14600001 9.1262057e-39
0.035967957 -0.0066486788 0.14600001 5.9970235e-39
0.036555424 -0.0065311855 0.14600001 5.9059125e-39
0.044968341 -0.0062210266 0.147 7.2881351e-39
0.045678124 -0.0066153519 0.147 7.1959381e-39
0.046545643 -0.0066153519 0.147 6.7353215e-39
0.047492027 -0.0066153524 0.147 6.5512903e-39
0.048517272 -0.0066153524 0.14699998 6.7356816e-39
0.049384352 -0.0065806485 0.14622223 6.6431258e-39
0.050302092 -0.0065703504 0.14600001 6.7349613e-39
0.051359523 -0.0065703504 0.14600001 6.4587346e-39
0.052502416 -0.0066059544 0.14600001 6.3668991e-39
0.01145022 -0.0057874345 0.14650001 9.1262085e-39
0.012081595 -0.00503805 0.147 8.3894029e-39
0.036813907 -0.0057557323 0.14600001 5.9970249e-39
0.03750965 -0.0056956378 0.14666668 5.8133609e-39
0.043785363 -0.00503805 0.147 6.9193526e-39
0.044677142 -0.0054930407 0.14699998 6.9193526e-39
0.045678124 -0.0055703893 0.14699998 6.9197127e-39
0.046545643 -0.0055703893 0.14699998 6.7356816e-39
0.047492024 -0.0055703893 0.14699998 6.643486e-39
0.048472274 -0.0055591757 0.14668749 6.643486e-39
0.049362153 -0.0055324952 0.14600001 6.4594548e-39
0.050302092 -0.0055324952 0.14600001 6.1828679e-39
0.051359527 -0.0055324943 0.146 6.4590947e-39
0.052338634 -0.0057870634 0.14600001 6.3668991e-39
0.012318191 -0.004801455 0.147 8.4819517e-39
0.040709622 -0.004801455 0.147 6.2754265e-39
0.041301116 -0.004801455 0.147 6.3676221e-39
0.042500991 -0.0044634617 0.147 6.6438489e-39
0.043578342 -0.0045352853 0.147 6.7353257e-39
0.044613451 -0.0045648599 0.14699998 6.9193554e-39
0.045678124 -0.0045648604 0.147 6.9193554e-39
0.046545647 -0.0045648599 0.147 6.9193554e-39
0.047529019 -0.0045353114 0.1468 6.8275185e-39
0.048417546 -0.0045609609 0.14618184 6.6434874e-39
0.049362149 -0.0045338064 0.14600001 6.1832309e-39
0.050302092 -0.0045338064 0.14600001 5.9984795e-39
0.051271405 -0.0046219262 0.14600001 6.5509344e-39
0.037870482 -0.0035001808 0.147 1.1706931e-38
0.038334519 -0.0036102736 0.14666666 1.004781e-38
0.039022774 -0.0033588773 0.14600001 7.6536386e-39
0.042669985 -0.0036522779 0.147 6.4605366e-39
0.04354877 -0.0036184788 0.147 6.5523721e-39
0.044613451 -0.0036184785 0.14699998 6.7353257e-39
0.045678124 -0.0036184783 0.147 6.6434902e-39
0.046545643 -0.0036184783 0.147 6.6438489e-39
0.047489379 -0.0035960486 0.14608335 6.7353257e-39
0.048500538 -0.0035938632 0.14600001 6.7353257e-39
0.049362153 -0.0035938632 0.14600001 6.6434888e-39
0.050302092 -0.0035938632 0.14600001 6.5520134e-39
0.051007051 -0.0038288489 0.14600001 6.4598178e-39
-0.023718435 -0.0028889058 0.14600001 1.392009e-38
0.039673615 -0.002665502 0.14666666 8.9429271e-39
0.040236436 -0.0021989071 0.147 9.4953623e-39
0.042838983 -0.0029086929 0.147 6.2761454e-39
0.043630667 -0.0025981274 0.1468 6.368341e-39
0.044603664 -0.0026023618 0.14685713 6.4605366e-39
0.045671675 -0.0025525538 0.14691664 6.5520134e-39
0.046425257 -0.0025412398 0.14625001 6.644209e-39
0.047482267 -0.0025364268 0.146 6.8282402e-39
0.048500534 -0.0025364272 0.14600001 6.9197169e-39
0.049362149 -0.002536427 0.14600001 6.9197169e-39
0.050184596 -0.002536427 0.14600001 7.0119125e-39
-0.022778492 -0.0014789911 0.14600001 1.5947315e-38
0.035345692 -0.0010924921 0.14666666 9.2188175e-39
0.038659129 -0.0014102563 0.147 1.0971201e-38
0.039112605 -0.0012525261 0.147 1.1892052e-38
0.040551893 -0.0014891214 0.147 1.1431091e-38
0.041182816 -0.0010159308 0.147 1.1246331e-38
0.044685934 -0.0014319941 0.14600001 6.3683424e-39
0.045530364 -0.0013624766 0.14608335 6.3683438e-39
0.046385664 -0.0013614983 0.14600001 6.5523749e-39
0.047482263 -0.0013614981 0.146 6.8286003e-39
0.048500538 -0.0013614983 0.14600001 6.9204358e-39
0.049362149 -0.0013614985 0.14600001 7.0119125e-39
0.050114106 -0.0014319939 0.14600001 7.0119125e-39
0.035543408 -0.00038439469 0.14683335 1.0138606e-38
0.041371915 -0.00026663355 0.14683335 1.2260823e-38
0.045641541 -0.00038239092 0.14600001 6.3683438e-39
0.046385661 -0.00030406233 0.14600001 6.7364075e-39
0.047482267 -0.00030406236 0.14600001 6.8282444e-39
0.048500538 -0.00030406233 0.14600001 6.9204358e-39
0.049362149 -0.00030406233 0.14600001 6.9204358e-39
0.050067108 -0.00053904811 0.14600001 7.0119125e-39
0.040946219 0.00075853372 0.147 1.0694242e-38
0.041419413 0.00064023607 0.147 1.1892405e-38
0.042292938 0.00081619131 0.14675 1.2353731e-38
0.046503156 0.00055755215 0.14600001 6.368341e-39
0.047482267 0.00063588086 0.14600001 6.6445678e-39
0.048455775 0.00056874199 0.14600001 6.7364047e-39
0.049205493 0.00047922358 0.14600001 6.8286003e-39
-0.0011677416 0.0018232125 0.147 1.1340065e-38
-0.00093114632 0.0018232125 0.147 1.1340065e-38
0.014505923 0.0018108097 0.14600001 1.0324065e-38
0.040709622 0.0015077521 0.147 8.2068124e-39
0.041419409 0.0015077521 0.147 9.6808424e-39
0.04248409 0.0015077521 0.14699998 1.2076797e-38
0.043454681 0.0015484222 0.14657143 1.2076439e-38
0.047129788 0.0011058524 0.14600001 6.4605394e-39
-0.0011677416 0.0020598078 0.147 1.1247867e-38
-0.00061568595 0.0020598078 0.147 1.1708845e-38
0.014550478 0.002226745 0.14625001 1.0415529e-38
0.039999839 0.0027695936 0.147 7.0108237e-39
0.040591326 0.0024147006 0.147 7.1022921e-39
0.041419413 0.0023752681 0.147 7.6550973e-39
0.04248409 0.0023752681 0.14699998 9.9574223e-39
0.043589637 0.002342321 0.14689998 1.2261184e-38
0.044520464 0.0025718149 0.14622223 1.2444864e-38
0.038816862 0.0039525698 0.147 1.0138958e-38
0.039556041 0.0035091329 0.14693332 7.747307e-39
0.040551897 0.0034793792 0.14699998 7.5636388e-39
0.041419413 0.0034793792 0.14699998 7.3796063e-39
0.042484086 0.003479379 0.147 7.7476559e-39
0.043574676 0.0034328806 0.14639999 9.9584957e-39
0.044610508 0.003438066 0.14618182 1.2353381e-38
0.045406554 0.0036515314 0.14600001 1.2537413e-38
-0.012325167 0.0046540243 0.14675 5.9022775e-39
-0.011264187 0.0041606673 0.14600001 6.5469477e-39
0.038427323 0.0044140392 0.14660001 1.1520056e-38
0.039622612 0.0043270919 0.14633335 8.5756159e-39
0.040591329 0.0044553345 0.147 8.6692605e-39
0.041419409 0.0045046252 0.147 8.1168112e-39
0.04248409 0.0045046252 0.14699998 7.3796063e-39
0.043606076 0.004455531 0.14654544 8.0242344e-39
0.044622049 0.0045164782 0.14610001 9.8659413e-39
0.04552405 0.0044739814 0.14600001 1.1984965e-38
0.046268169 0.0045914748 0.14600001 1.2629605e-38
-0.015245162 0.005608737 0.147 3.4140759e-39
-0.014319003 0.0055705821 0.14600001 3.3218803e-39
-0.013578209 0.0055213748 0.14625001 3.6906572e-39
-0.012889169 0.005202766 0.14666666 4.88812e-39
0.038659129 0.0052144118 0.147 1.1797714e-38
0.039508451 0.0053741555 0.14645456 1.124384e-38
0.040546626 0.0053874077 0.14662501 1.0417362e-38
0.041419413 0.005372142 0.147 9.0373213e-39
0.04248409 0.005372142 0.14699998 7.7473112e-39
0.043548767 0.005372142 0.147 7.5629157e-39
0.044572745 0.0053509581 0.14641668 8.2075494e-39
0.045524046 0.0053355964 0.14600001 1.0141815e-38
0.046385664 0.0053355969 0.14600001 1.2261554e-38
0.04707104 0.0053943433 0.14600001 1.3459009e-38
-0.016379079 0.0065761763 0.1467143 4.1498347e-39
-0.01576429 0.0060543451 0.14633334 3.5973854e-39
0.039802678 0.0062396578 0.147 1.1889549e-38
0.0404789 0.0064226273 0.14666666 1.1613338e-38
0.04143922 0.0064771208 0.14658333 9.8638226e-39
0.042493157 0.0063795215 0.14685713 8.207925e-39
0.043590125 0.0064335102 0.14639999 7.7473098e-39
0.044631366 0.0063691013 0.14607693 7.7476629e-39
0.04552405 0.0063930317 0.14600001 8.300108e-39
0.046350058 0.0063609886 0.14600001 9.6815711e-39
0.047129784 0.0061580464 0.14600001 1.2169362e-38
-0.016521066 0.0074903369 0.14677778 7.0031979e-39
0.039920975 0.007659229 0.147 1.1247106e-38
0.040551897 0.0075014988 0.147 1.1613695e-38
0.041505318 0.0074676126 0.14633334 1.0783579e-38
0.042547565 0.0074504679 0.14600001 8.8518356e-39
0.043546248 0.0074504684 0.14600001 8.0235337e-39
0.044662431 0.0074504679 0.14600001 8.0238967e-39
0.04552405 0.0074504679 0.14600001 7.8395026e-39
0.046273764 0.0074840374 0.14600001 8.1160839e-39
0.047012292 0.0076854536 0.14600001 8.3004723e-39
-0.016439645 0.0085451202 0.14681818 8.6605458e-39
-0.013518748 0.0086642457 0.14666668 8.7502359e-39
-0.012909088 0.0087428894 0.14600001 7.1818396e-39
0.039594252 0.0085999761 0.14699998 9.3153543e-39
0.040551897 0.0085661775 0.14699998 9.9588993e-39
0.04147641 0.008520293 0.14678571 1.0785385e-38
0.042491592 0.0085543627 0.14621429 1.0691738e-38
0.043546248 0.0085079046 0.146 9.2191706e-39
0.044662435 0.0085079027 0.14600001 8.3923134e-39
0.045524046 0.0085079027 0.14600001 8.0238953e-39
0.046385664 0.0085079037 0.14600001 7.8398613e-39
0.047129791 0.0085079037 0.14600001 8.024247e-39
-0.021041747 0.0096308561 0.147 1.5017354e-38
-0.020428633 0.0095653404 0.14600001 1.4742204e-38
-0.018454755 0.0096123368 0.14600001 1.1792308e-38
-0.016311117 0.00961594 0.14677778 1.0226434e-38
-0.015481757 0.0098674512 0.147 1.0040616e-38
-0.013546906 0.0095989099 0.14600001 8.1048721e-39
-0.012791595 0.0095653394 0.14600001 6.7223062e-39
0.038816862 0.0097491536 0.147 8.9469376e-39
0.039526649 0.009630857 0.14699998 8.8547405e-39
0.040551893 0.0096308552 0.147 8.8543762e-39
0.041419413 0.0096308561 0.147 9.2217098e-39
0.042465407 0.0096091507 0.14666666 1.0234378e-38
0.043546248 0.0095653413 0.14600001 1.0507344e-38
0.044662435 0.0095653404 0.14600001 9.1276897e-39
0.04552405 0.0095653394 0.14600001 8.2997493e-39
0.046385661 0.0095653404 0.14600001 8.0235309e-39
0.047129784 0.0095653394 0.14600001 8.0238925e-39
-0.021436073 0.010734968 0.147 1.6768013e-38
-0.020663619 0.010975255 0.14600001 1.6120121e-38
-0.01847042 0.010191969 0.14600001 1.446419e-38
-0.017138833 0.010622776 0.14600001 1.4832269e-38
-0.016498245 0.010434592 0.14611113 1.3634445e-38
-0.015570553 0.010663778 0.14657143 1.3079836e-38
-0.014529343 0.010568771 0.14642859 1.1697262e-38
-0.013849031 0.010035312 0.14600001 1.0038822e-38
-0.012674103 0.010035312 0.14600001 7.5509879e-39
-0.011104744 0.010695535 0.147 3.9611372e-39
-0.010553622 0.010735496 0.14685714 3.5927191e-39
-0.0098429024 0.010734968 0.147 3.4086921e-39
0.03851267 0.010543438 0.147 8.8547433e-39
0.039526649 0.010498372 0.14699998 8.9469376e-39
0.040551897 0.010498372 0.147 8.7625449e-39
0.041419413 0.010498372 0.147 8.8543776e-39
0.042498365 0.010524109 0.14676923 9.2220643e-39
0.043546248 0.010564028 0.146 1.0140736e-38
0.044662435 0.010564029 0.14600001 1.0231477e-38
0.045524046 0.010564028 0.14600001 9.4946561e-39
0.046385664 0.010564029 0.14600001 8.6670871e-39
0.047298204 0.010533334 0.14609092 8.207918e-39
0.048044078 0.010813832 0.147 7.9324087e-39
-0.022500752 0.011839078 0.147 1.8327068e-38
-0.021627782 0.011578435 0.1468 1.7316872e-38
-0.015293784 0.011313627 0.14633334 1.3813085e-38
-0.014788975 0.011445226 0.14600001 1.35347e-38
-0.012127629 0.011484422 0.14650001 1.0673047e-38
-0.011499134 0.011503191 0.146375 8.5532792e-39
-0.010427914 0.011647311 0.14608335 5.1517701e-39
-0.0096576745 0.011537706 0.14690907 3.4083334e-39
-0.0089753866 0.011523618 0.147 3.1339045e-39
0.037870482 0.011878511 0.147 8.6699947e-39
0.038422536 0.011582767 0.14699998 8.8540259e-39
0.039526649 0.011582767 0.147 8.8540259e-39
0.040551897 0.011582766 0.14699998 8.7621876e-39
0.041419413 0.011582766 0.14699998 8.578155e-39
0.042431079 0.011575482 0.14646667 8.5774306e-39
0.043546248 0.011680213 0.14600001 9.2213454e-39
0.044662431 0.011680212 0.14600001 9.773401e-39
0.045461386 0.011539219 0.14600001 1.0048162e-38
0.046483573 0.011503973 0.14600001 9.770157e-39
0.047400869 0.011641233 0.1464 9.3102802e-39
0.048044074 0.011444754 0.147 8.2997493e-39
-0.024196351 0.012627729 0.147 1.8487729e-38
-0.023475351 0.012633197 0.14650001 1.8489165e-38
-0.022620035 0.012405393 0.14680001 1.8410631e-38
-0.021721058 0.012385169 0.14600001 1.7863572e-38
-0.011734159 0.012150183 0.14600001 1.0664059e-38
-0.010324243 0.012541827 0.14600001 7.629532e-39
-0.0095232194 0.012570103 0.14633335 4.6918738e-39
-0.0085613448 0.012765743 0.147 3.1310333e-39
-0.0077135446 0.012864324 0.147 2.947728e-39
-0.0062939734 0.012548864 0.147 3.1339199e-39
0.037667684 0.012672795 0.147 8.4856035e-39
0.038422536 0.012627731 0.147 8.5777991e-39
0.039526649 0.012627729 0.14699998 8.7618302e-39
0.040551897 0.012627729 0.147 8.6696346e-39
0.041517146 0.012591712 0.14658333 8.3934079e-39
0.042547565 0.012541827 0.14600001 8.3015682e-39
0.043546245 0.012541827 0.14600001 8.6699835e-39
0.044662431 0.012541827 0.14600001 9.0376716e-39
0.04513241 0.012541826 0.14600001 9.3138914e-39
-0.024496038 0.01341638 0.147 1.8014527e-38
-0.023624441 0.013278115 0.14600001 1.7831931e-38
-0.010290675 0.013291544 0.14600001 9.3726128e-39
-0.0094136735 0.013442606 0.14600001 6.9863248e-39
-0.0085989302 0.013442218 0.14681818 3.8646382e-39
-0.0075558145 0.013495246 0.147 2.8551722e-39
-0.0066882982 0.013731842 0.147 2.856254e-39
0.036924101 0.013652977 0.147 8.3012122e-39
0.03755502 0.013495247 0.147 8.3012122e-39
0.03842254 0.013495247 0.147 8.4856035e-39
0.039526653 0.013495245 0.14699998 8.3934079e-39
