# .PCD v0.7 - Point Cloud Data file format
VERSION 0.7
FIELDS x y z rgb
SIZE 4 4 4 4
TYPE F F F F
COUNT 1 1 1 1
WIDTH 1011
HEIGHT 1
VIEWPOINT 0 0 0 1 0 0 0
POINTS 1011
DATA ascii
-0.01337834 -0.039566845 0.12300002 3.0452962e-39
-0.012351914 -0.039674044 0.12291668 2.6765137e-39
-0.011372026 -0.03952134 0.12266668 2.4006457e-39
-0.010393121 -0.039546974 0.12279999 2.3084514e-39
-0.0094458601 -0.039557919 0.12275001 2.4006471e-39
-0.0085722972 -0.039537761 0.1228421 2.30845e-39
-0.0076090004 -0.039503209 0.12300002 2.2166145e-39
-0.0066191633 -0.039503213 0.12300002 2.5843181e-39
-0.0056293262 -0.039503213 0.12300002 2.5843181e-39
-0.0045899972 -0.039503213 0.12300002 4.333884e-39
-0.0036661485 -0.03961869 0.12300002 5.5324314e-39
-0.0026928084 -0.039783668 0.123 4.8874194e-39
-0.0014927675 -0.039722033 0.12200001 3.9654603e-39
-0.017160933 -0.038562868 0.12300001 3.2286155e-39
-0.016537337 -0.038622253 0.123 3.1371387e-39
-0.011073432 -0.038859818 0.123 2.5843181e-39
-0.010338125 -0.03854873 0.12300002 2.4921224e-39
-0.0094896918 -0.038513374 0.12300002 2.5843181e-39
-0.0086384322 -0.038701445 0.12300001 2.5843167e-39
-0.0076090009 -0.038760833 0.12300001 2.5843167e-39
-0.0066191638 -0.03876083 0.12300001 3.689588e-39
-0.0056293262 -0.03876083 0.12300001 3.6892279e-39
-0.0047384724 -0.038859818 0.123 5.0710932e-39
-0.010303559 -0.037562028 0.12300001 2.8605448e-39
-0.0095689856 -0.037447169 0.12275001 2.9523789e-39
-0.010050704 -0.036334857 0.12200001 4.6108241e-39
-0.0095556807 -0.03674816 0.123 3.9658106e-39
-0.010197972 -0.035794873 0.12200001 6.3621935e-39
0.032281451 -0.026189901 0.123 7.4677619e-39
0.032083482 -0.022428518 0.123 7.5588842e-39
0.023900824 -0.016159549 0.123 5.3508862e-39
0.024461731 -0.016357517 0.123 6.7327585e-39
0.031331744 -0.016649971 0.12200001 7.2841316e-39
0.021640696 -0.015549149 0.123 5.9959039e-39
0.023900824 -0.015829602 0.123 5.8111497e-39
0.024461733 -0.015499655 0.12300001 7.1933793e-39
0.031338252 -0.01532621 0.12266666 6.824238e-39
0.033432811 -0.015466227 0.12208333 4.8899207e-39
0.034466852 -0.015709311 0.12242857 4.5207682e-39
0.024560716 -0.014905754 0.123 7.3784908e-39
0.031626284 -0.014195496 0.12200001 6.8242493e-39
0.032365054 -0.014689677 0.12214286 5.9959277e-39
0.033328053 -0.014980928 0.12200001 4.7055308e-39
0.031429924 -0.013999138 0.12200001 6.8238849e-39
0.024758684 -0.01213421 0.123 7.746923e-39
0.024597328 -0.011505165 0.12220001 7.4699732e-39
0.0259319 -0.011151947 0.12200001 9.312818e-39
0.026520975 -0.011397395 0.12199999 7.838027e-39
0.027240952 -0.011184674 0.122 6.9164197e-39
0.033884399 -0.011053768 0.12200001 2.6765095e-39
0.034680739 -0.01120649 0.12199999 2.4006429e-39
0.03555344 -0.011250126 0.12199999 2.3088074e-39
0.036366921 -0.011194022 0.12199999 2.401003e-39
0.024755813 -0.010704746 0.1225 7.6536456e-39
0.025762042 -0.010492573 0.12233334 8.7599917e-39
0.026522459 -0.010422486 0.12208333 7.1926352e-39
0.027257919 -0.010488512 0.12228571 6.1795623e-39
0.03280443 -0.010415605 0.12200001 2.7697799e-39
0.033472046 -0.010415603 0.12199999 2.5846712e-39
0.034563843 -0.010470592 0.12207142 2.3077298e-39
0.035497535 -0.010479434 0.12253845 2.3077298e-39
0.036437299 -0.010405109 0.12252942 2.492121e-39
0.026713613 -0.0097338548 0.12300001 6.6398089e-39
0.027332261 -0.0099565685 0.123 5.9022467e-39
0.032781981 -0.0094256634 0.12280001 2.8605392e-39
0.033412687 -0.0095040714 0.12300002 2.5839537e-39
0.034310613 -0.0097338557 0.12300001 2.3992065e-39
0.035399437 -0.0099565685 0.123 2.2155355e-39
0.036438763 -0.0096794143 0.12300001 2.4917623e-39
0.037032668 -0.0096266223 0.123 2.5843181e-39
0.031410392 -0.0087291701 0.123 4.0579978e-39
0.032677382 -0.0089667309 0.123 2.9523747e-39
0.033172302 -0.0089667309 0.123 2.6757878e-39
0.03692795 -0.0010395113 0.12200001 8.7286867e-39
0.036558546 -0.00054322713 0.12238462 9.0953099e-39
0.037500661 -0.00045043742 0.12199999 7.6266594e-39
0.038494498 -0.00056871609 0.12230001 5.8832241e-39
0.036240697 0.00053135247 0.12200001 9.6459655e-39
0.037909739 0.00013863647 0.12200001 7.4429926e-39
0.038562596 0.00055603927 0.122125 7.2603992e-39
0.029707871 0.0019214802 0.123 1.2680489e-38
0.030169794 0.0017895019 0.123 1.2954917e-38
0.031621557 0.0017895019 0.123 1.3968363e-38
0.032420028 0.0016443258 0.12300001 1.3509902e-38
0.033139307 0.0017895019 0.123 1.2770537e-38
0.035844862 0.0019214802 0.123 1.1026022e-38
0.036449142 0.0015215464 0.12264706 1.0290615e-38
0.03756611 0.0019058583 0.12200001 9.4648098e-39
0.038523357 0.0014640529 0.12199999 8.455341e-39
0.039012343 0.0019214802 0.123 8.7312105e-39
0.029668277 0.0025945692 0.123 1.3137515e-38
0.030318273 0.0025813722 0.12300002 1.3320469e-38
0.031621557 0.0024163991 0.123 1.3786487e-38
0.032429926 0.0025153828 0.12300002 1.3234395e-38
0.033271287 0.0025153828 0.12300002 1.2771621e-38
0.035844862 0.0025153826 0.123 1.0933826e-38
0.036389273 0.0025153828 0.12300002 1.0750512e-38
0.037443917 0.0024890513 0.12282354 9.8317959e-39
0.03843721 0.0025406294 0.12293335 9.4662504e-39
0.026698764 0.0036240004 0.123 1.3320843e-38
0.029608887 0.0035052202 0.12300001 1.3411951e-38
0.030400755 0.0035052199 0.12300002 1.3135723e-38
0.03141344 0.0035965894 0.12300002 1.2770899e-38
0.032429926 0.0035052199 0.12300002 1.2496836e-38
0.033197049 0.0035794578 0.12300001 1.2403564e-38
0.035558715 0.003652496 0.12241667 1.1119658e-38
0.036438465 0.00344529 0.12266669 1.0476086e-38
0.037455 0.0034788244 0.12300002 1.0019063e-38
0.038392048 0.0034788242 0.12300002 9.4691258e-39
0.026804347 0.0044510644 0.12300001 1.3508474e-38
0.027512228 0.0045310515 0.12300002 1.4246758e-38
0.028346846 0.0047425162 0.12300001 1.3320843e-38
0.029453341 0.0045374786 0.12300002 1.3319404e-38
0.030400757 0.0044950568 0.12300002 1.3229363e-38
0.031390596 0.0044950573 0.12300002 1.3047491e-38
0.032421261 0.0044900868 0.12287501 1.2495038e-38
0.033442855 0.0044686617 0.12300002 1.1760711e-38
0.034063157 0.0046270355 0.123 1.1487719e-38
0.035550635 0.0044483095 0.12235295 1.1214732e-38
0.036493156 0.0044865631 0.12199999 1.0017985e-38
0.037486326 0.0045131557 0.12216666 9.2829381e-39
0.038277037 0.0043536518 0.12300001 9.0992657e-39
0.026936326 0.0050889594 0.123 1.3604265e-38
0.027596217 0.0054409015 0.12300001 1.3507035e-38
0.028421083 0.0054848939 0.12300002 1.2951701e-38
0.029410921 0.0054848948 0.12300002 1.3416996e-38
0.030400757 0.0054848948 0.12300002 1.2681589e-38
0.0313906 0.0054848953 0.12300002 1.2770907e-38
0.032412902 0.0054744505 0.12275001 1.2402842e-38
0.033442855 0.0055112904 0.12300002 1.148736e-38
0.034063157 0.0053529162 0.123 1.1029259e-38
0.035514917 0.0054848944 0.12300002 1.0659759e-38
0.036280394 0.0053463173 0.12300001 1.0199501e-38
0.037545059 0.0052980408 0.12253846 9.6499228e-39
0.038368952 0.00563337 0.12300001 9.3754925e-39
0.027569821 0.006474732 0.12300001 1.2862025e-38
0.028421083 0.0065242229 0.12300002 1.2589759e-38
0.029410921 0.0065242234 0.12300002 1.3145809e-38
0.030400757 0.0065242229 0.12300002 1.2402844e-38
0.031407483 0.0065173414 0.12287501 1.2494319e-38
0.03242306 0.0064770174 0.12278573 1.1670309e-38
0.033419762 0.0065242238 0.12300002 1.0935262e-38
0.034063157 0.0068706665 0.123 1.1026022e-38
0.03562215 0.0064252405 0.12300001 1.0290976e-38
0.036141817 0.0065242238 0.12300001 1.0108744e-38
0.03824247 0.0064307395 0.12300001 9.2815018e-39
0.057545539 0.0068148077 0.12200001 7.5636472e-39
0.059897918 0.0068706665 0.123 7.3770531e-39
0.027596217 0.0075305575 0.12300001 1.2586876e-38
0.028421082 0.0075140614 0.12300002 1.2682672e-38
0.029410921 0.0075140614 0.12300002 1.3697184e-38
0.030400757 0.0075140614 0.12300002 1.2492161e-38
0.031407487 0.007506676 0.12287501 1.2035499e-38
0.03243383 0.0075424286 0.12276924 1.1394441e-38
0.033419758 0.0075140605 0.12300002 1.102638e-38
0.034374248 0.0075776936 0.12300002 1.0381734e-38
0.035481922 0.0075965472 0.12300002 1.0106946e-38
0.036141817 0.0075140605 0.12300001 1.0015831e-38
0.056760106 0.0077311448 0.12200001 7.4721676e-39
0.057349183 0.0070111654 0.12200001 7.4718075e-39
0.06461443 0.0074038813 0.12200001 8.7595349e-39
0.027662208 0.0084874025 0.123 1.2315684e-38
0.028421082 0.008503899 0.12300002 1.3050372e-38
0.029410919 0.008503899 0.12300002 1.2215933e-38
0.030400757 0.008503898 0.12300002 1.1388329e-38
0.031390596 0.0085038999 0.12300002 1.1205738e-38
0.032429926 0.008503899 0.12300002 1.1575238e-38
0.033419762 0.008503898 0.12300002 1.111534e-38
0.034409598 0.008503899 0.12300002 1.0289178e-38
0.035399437 0.008503898 0.12300002 9.7388842e-39
0.036042832 0.0080584716 0.123 9.9229167e-39
0.05636739 0.0083856713 0.12200001 7.6565617e-39
0.027574221 0.0094002523 0.12300001 1.1761789e-38
0.028421082 0.0094937366 0.12300002 1.12061e-38
0.029311936 0.0094082495 0.12300002 1.1205378e-38
0.030474998 0.0092710229 0.12300001 1.1113541e-38
0.031390596 0.0094937356 0.12300002 1.1297214e-38
0.032425493 0.0094888369 0.12293752 1.1666356e-38
0.033271287 0.0094442442 0.12300001 1.1393362e-38
0.034657061 0.0090483092 0.123 1.0472851e-38
0.035211366 0.0092066834 0.123 9.9221951e-39
0.056037553 0.0098401783 0.123 5.8082967e-39
0.031456582 0.010170124 0.123 1.1664557e-38
0.032325443 0.010302101 0.12300001 1.1666714e-38
0.033073317 0.010038146 0.123 1.1304043e-38
0.056235518 0.010632048 0.123 6.3636032e-39
0.056235518 0.011819853 0.123 6.1803204e-39
0.058244143 0.012561143 0.12275 7.4696103e-39
0.058444377 0.013506395 0.12258334 7.3766916e-39
0.058638867 0.01416661 0.12275001 7.3763328e-39
0.059174955 0.01438715 0.12266668 8.3893791e-39
0.063043565 0.018007211 0.12200001 1.1057611e-38
0.0024271926 -0.041503549 0.125 4.4253594e-39
-0.022140196 -0.040872157 0.12400001 8.7596414e-39
-0.021511106 -0.040581562 0.12407141 8.0213589e-39
-0.020423833 -0.040253468 0.124 5.9937669e-39
-0.0194958 -0.040373214 0.12400001 3.8732632e-39
-0.018428061 -0.040253468 0.124 3.6892307e-39
-0.017463969 -0.040405452 0.12410001 3.0445802e-39
-0.016552038 -0.040306687 0.12400001 2.860549e-39
-0.0019829187 -0.040173639 0.12400001 4.3342428e-39
0.002407775 -0.040971946 0.12400001 4.4253594e-39
-0.02114231 -0.03997406 0.12400001 9.3110215e-39
-0.020458836 -0.039505843 0.12431579 9.1269862e-39
-0.01953144 -0.03944657 0.12433334 6.3621893e-39
-0.018541131 -0.039462093 0.12430435 4.1502102e-39
-0.017724555 -0.039674692 0.12400001 3.2282525e-39
-0.016385725 -0.039608169 0.12400001 2.9531048e-39
-0.015560968 -0.039254133 0.12425 2.7694324e-39
-0.014456481 -0.039175753 0.12400001 3.3218831e-39
-0.013392069 -0.039242279 0.12400001 3.6906656e-39
-0.012560501 -0.039275538 0.12400001 2.6765137e-39
-0.011812086 -0.039225645 0.12400001 2.5843181e-39
-0.0041782656 -0.039175753 0.12400001 5.9934138e-39
-0.0035027515 -0.039366845 0.12409999 5.9012168e-39
-0.0025982813 -0.039558273 0.12399999 5.2558445e-39
-0.020441003 -0.038552817 0.125 1.1247131e-38
-0.019602727 -0.038385157 0.125 9.4035759e-39
-0.018772833 -0.038460605 0.125 6.7309774e-39
-0.017949078 -0.038377445 0.12400001 4.7033854e-39
-0.015240535 -0.038634043 0.12400001 3.0456592e-39
-0.014433752 -0.038547985 0.12405881 4.70374e-39
-0.013450908 -0.038469069 0.12423808 5.9941256e-39
-0.012610972 -0.038478758 0.12424999 3.7817865e-39
-0.011662405 -0.038577024 0.12399998 2.5846782e-39
-0.010963883 -0.038443971 0.12400001 2.4924826e-39
-0.0093672676 -0.038177866 0.12400001 2.7687065e-39
-0.0086288331 -0.038377445 0.124 2.6765081e-39
-0.0075734626 -0.038353823 0.12424999 3.6903027e-39
-0.0065293242 -0.038349751 0.12429411 5.3483933e-39
-0.0055061337 -0.038370263 0.12438095 5.440233e-39
-0.0046715555 -0.038622275 0.12418748 5.9008552e-39
-0.0035795346 -0.038976174 0.12400001 5.9012182e-39
-0.0028810152 -0.038976174 0.12400001 5.6246313e-39
-0.014341407 -0.037617646 0.12453846 8.2983045e-39
-0.013565114 -0.037625805 0.12476922 7.3763482e-39
-0.012474976 -0.03742234 0.125 5.7168241e-39
-0.011654329 -0.037592035 0.12426665 3.8739807e-39
-0.010897358 -0.037479345 0.12400001 3.5051954e-39
-0.0092767719 -0.037458293 0.1244 3.5973882e-39
-0.0085346345 -0.037486378 0.12448149 3.7817795e-39
-0.0074928203 -0.037512355 0.12476192 5.8093743e-39
-0.0064243898 -0.037499037 0.12480001 6.3625536e-39
-0.0054190801 -0.037379231 0.125 6.1778064e-39
-0.012259421 -0.036675073 0.125 7.191957e-39
-0.011625316 -0.036776852 0.12466667 6.2692762e-39
-0.010913989 -0.036780827 0.12400001 5.0718092e-39
-0.0095718894 -0.036661156 0.12450001 5.4405903e-39
-0.0089681139 -0.036980405 0.12400001 3.873615e-39
-0.0052581308 -0.036594599 0.125 6.6384231e-39
0.032806352 -0.031645413 0.125 7.1004242e-39
0.032605167 -0.029834734 0.125 7.5603205e-39
0.033309318 -0.029834734 0.125 7.0067838e-39
0.05936297 -0.024000328 0.125 7.5588842e-39
0.05875941 -0.023195583 0.125 6.546212e-39
0.059436128 -0.023506505 0.125 7.3752174e-39
0.03174559 -0.022012133 0.12400001 8.7577749e-39
0.05875941 -0.022994397 0.125 6.3628998e-39
0.059420448 -0.022908175 0.125 7.1915506e-39
0.060167715 -0.022994397 0.125 8.1127586e-39
0.057610769 -0.020096196 0.124 6.0874171e-39
0.058189545 -0.020116154 0.12400001 6.5487302e-39
0.057730515 -0.019617209 0.124 6.0877744e-39
0.058249414 -0.019736955 0.124 6.7323983e-39
0.02194228 -0.017159989 0.125 4.5211269e-39
0.022702318 -0.017361175 0.125 4.7058783e-39
0.023853552 -0.017159989 0.125 4.7065902e-39
0.024361243 -0.01702271 0.12400001 5.996257e-39
0.021835374 -0.016432948 0.12425 5.350889e-39
0.022606943 -0.016432837 0.1244375 5.350889e-39
0.023488043 -0.016484933 0.12418181 4.7980698e-39
0.033940937 -0.016224401 0.12400001 5.2587144e-39
0.034657229 -0.016311631 0.12466667 4.705521e-39
0.021916427 -0.015326306 0.12400001 5.9959053e-39
0.022614943 -0.015376198 0.12399998 5.5352817e-39
0.023589548 -0.015346262 0.12399998 5.8118672e-39
0.024361243 -0.01502694 0.12400001 6.9189448e-39
0.02196632 -0.014378315 0.12400001 5.8104364e-39
0.022614943 -0.014378315 0.12399998 5.8107924e-39
0.023612833 -0.014378315 0.12399998 6.181014e-39
0.024461031 -0.014378314 0.12400001 6.9178672e-39
0.02196632 -0.013031171 0.12400001 4.8884801e-39
0.022614943 -0.01338043 0.12399998 5.1654244e-39
0.023612831 -0.01338043 0.12399998 5.719317e-39
0.024494294 -0.013430324 0.12400001 6.7331144e-39
0.022614945 -0.012632016 0.12400001 4.7962831e-39
0.023686027 -0.012468461 0.12436363 5.44237e-39
0.024460239 -0.012394676 0.124125 6.6405614e-39
0.026569569 -0.012331515 0.125 9.7745234e-39
0.024155332 -0.011426175 0.125 5.3505373e-39
0.024708595 -0.010571133 0.125 5.6264039e-39
0.02561784 -0.010272245 0.12442858 8.299015e-39
0.027895184 -0.01019755 0.12433334 5.6263843e-39
0.024960078 -0.0093137175 0.125 6.1788588e-39
0.025722956 -0.0094591212 0.1248 7.0078894e-39
0.026672151 -0.009330391 0.12433333 7.0075069e-39
0.027620813 -0.0093950126 0.12475 5.8096853e-39
0.033940937 -0.0091394195 0.12400001 2.6754319e-39
0.034575954 -0.009239208 0.124 2.3988478e-39
0.035487659 -0.0093389964 0.12399998 2.4910434e-39
0.036435649 -0.0091992933 0.124 2.5832391e-39
0.026971944 -0.0087101581 0.125 6.729841e-39
0.02747491 -0.008609565 0.125 6.3606983e-39
0.031398047 -0.0085089719 0.125 4.5178913e-39
0.032570157 -0.0085268663 0.12442858 3.0442088e-39
0.033451065 -0.0084590437 0.124 2.7676233e-39
0.034268875 -0.0084505975 0.12457144 2.8594602e-39
0.035472143 -0.0085191578 0.12441666 2.8594602e-39
0.036269333 -0.0085074259 0.12400001 2.7676247e-39
0.033496134 -0.0077042258 0.125 4.1476697e-39
0.034080531 -0.0076371636 0.125 4.7008393e-39
0.036025334 -0.0079054125 0.125 3.5037408e-39
0.026770756 -0.0042840564 0.125 1.5934657e-38
0.027374316 -0.0042840564 0.125 1.5566594e-38
0.02687135 -0.0035296071 0.125 1.6385925e-38
0.02747491 -0.0035296073 0.125 1.6020738e-38
0.026837818 -0.0024733786 0.125 1.6000244e-38
0.02747491 -0.0025236751 0.125 1.591524e-38
0.030794486 -0.0022721919 0.125 1.5558686e-38
0.031297453 -0.0022721919 0.125 1.5094473e-38
0.024893016 -0.0011991974 0.125 1.4790913e-38
0.025691666 -0.0013759976 0.125 1.3965111e-38
0.026670163 -0.0015177426 0.125 1.4793794e-38
0.027508441 -0.0014674461 0.125 1.5169769e-38
0.0305933 -0.0014308668 0.125 1.5359191e-38
0.031398047 -0.0015177428 0.125 1.498645e-38
0.032705758 -0.0010650731 0.125 1.3780718e-38
0.033309318 -0.0010650731 0.125 1.3320103e-38
0.024799129 -0.00046151379 0.125 1.4605085e-38
0.025664233 -0.00051181036 0.125 1.4055513e-38
0.026670162 -0.00051181042 0.125 1.4423938e-38
0.027676096 -0.00051181036 0.125 1.4703404e-38
0.028514372 -0.00029385838 0.125 1.5166538e-38
0.029550789 -0.00038835502 0.125 1.5166535e-38
0.030467398 -0.00051033712 0.1244375 1.4793792e-38
0.031498641 -0.00051181042 0.125 1.4423212e-38
0.032487713 -0.00048633796 0.1244 1.3410861e-38
0.033276029 -0.00050857983 0.124125 1.2951324e-38
0.034013469 -5.9140886e-05 0.125 1.2308835e-38
0.036427706 -0.00086388667 0.125 1.0106219e-38
0.024712466 0.00057537021 0.125 1.5342301e-38
0.025664235 0.00054441852 0.125 1.4698734e-38
0.026670162 0.00054441846 0.125 1.4240989e-38
0.027676096 0.00054441858 0.125 1.4333904e-38
0.028581435 0.00054441846 0.125 1.4057675e-38
0.029472651 0.00051713397 0.124625 1.4057311e-38
0.030448342 0.00049016881 0.12399998 1.3779999e-38
0.031414337 0.00055801211 0.12433333 1.3502337e-38
0.032469809 0.00051682029 0.12443749 1.2768375e-38
0.033324067 0.00052191975 0.124 1.2309915e-38
0.034128431 0.00068812305 0.125 1.2401752e-38
0.023954146 0.0016844749 0.125 1.6638082e-38
0.024608001 0.0015503506 0.125 1.5529213e-38
0.025662802 0.0015475221 0.12481249 1.4244216e-38
0.026650487 0.0015651702 0.12406666 1.332442e-38
0.027610295 0.0015403781 0.12424999 1.3320831e-38
0.028581433 0.0015503507 0.125 1.3320831e-38
0.029439541 0.0015146451 0.12426665 1.3048551e-38
0.030498235 0.0014215279 0.12399999 1.3138584e-38
0.031392492 0.0014611874 0.12399999 1.35967e-38
0.032384239 0.0011787094 0.124 1.2956006e-38
0.033481911 0.001458117 0.124 1.2402472e-38
0.034359369 0.0014484556 0.12491667 1.2402832e-38
0.035416652 0.0017146372 0.12475 1.1853259e-38
0.036226522 0.0011479779 0.125 1.1301885e-38
0.023954146 0.0025562828 0.125 1.5158986e-38
0.024608003 0.002556283 0.125 1.5344096e-38
0.02566647 0.0025697963 0.12433334 1.387436e-38
0.026656378 0.0025358328 0.12399998 1.3228274e-38
0.027602397 0.0025223014 0.12407692 1.295241e-38
0.028581435 0.0025562828 0.125 1.2586506e-38
0.029338688 0.0025028253 0.12418181 1.2586501e-38
0.030747708 0.0021366787 0.12400001 1.3413384e-38
0.031306524 0.0025957059 0.124 1.3505581e-38
0.033940937 0.0025358326 0.12400001 1.2495034e-38
0.034384068 0.0024904967 0.12457144 1.2219168e-38
0.035359778 0.0024488731 0.12466666 1.1392643e-38
0.039744206 0.0025122776 0.1248 8.9159563e-39
0.040129539 0.0027574697 0.125 8.6411658e-39
0.023913909 0.0036426899 0.125 1.6365089e-38
0.024608003 0.003562215 0.125 1.6273974e-38
0.025659945 0.0035441022 0.12437499 1.3964773e-38
0.026578765 0.0034671917 0.12400001 1.3227565e-38
0.027619613 0.0035684344 0.12415385 1.286346e-38
0.028567784 0.0035123893 0.12454545 1.2402119e-38
0.029250881 0.0035337175 0.12400001 1.304461e-38
0.031346437 0.0031345636 0.12400001 1.3137878e-38
0.033861108 0.0034938019 0.124 1.2126977e-38
0.034512576 0.0036509144 0.124625 1.1667438e-38
0.035279285 0.0034143785 0.12450001 1.1116782e-38
0.039538804 0.0037475433 0.12450001 8.8244767e-39
0.040049065 0.0035622152 0.125 8.5489716e-39
0.02367558 0.0046455269 0.125 1.516475e-38
0.024607984 0.0045610941 0.1248125 1.5167631e-38
0.025658496 0.0045316028 0.12399998 1.3688549e-38
0.026442546 0.004588624 0.12400001 1.3506674e-38
0.027953628 0.0041324482 0.12400001 1.3877255e-38
0.028592277 0.0042122789 0.124 1.3321562e-38
0.029151091 0.0042322366 0.12400001 1.3228647e-38
0.034705985 0.0043320251 0.12400001 1.1393728e-38
0.035108652 0.0046908231 0.12425001 1.167319e-38
0.038830575 0.0045316019 0.12400001 9.0070701e-39
0.039435782 0.0045437841 0.12433332 8.8241166e-39
0.040210016 0.0045681475 0.125 8.3638615e-39
0.022948213 0.0056243762 0.125 1.5444574e-38
0.023602068 0.0056243762 0.125 1.4704493e-38
0.024607977 0.0056006541 0.12475 1.479849e-38
0.025658496 0.0055294875 0.12399998 1.3783623e-38
0.026636422 0.0055560977 0.12399998 1.314113e-38
0.027354898 0.0056625381 0.12400001 1.360103e-38
0.034664407 0.0055294866 0.12400001 1.1120735e-38
0.035114601 0.0056188805 0.1242 1.1213291e-38
0.036834806 0.0057290643 0.12400001 1.0016189e-38
0.037293833 0.0058488105 0.124 9.9247118e-39
0.039484087 0.0055766148 0.12455556 8.9163122e-39
0.040149655 0.0056243767 0.125 8.4564158e-39
0.02288115 0.006546481 0.125 1.5814438e-38
0.023602068 0.0066303085 0.125 1.6000272e-38
0.024608001 0.0066303089 0.125 1.5537134e-38
0.025658494 0.0065772664 0.12399998 1.396729e-38
0.026656378 0.0065772664 0.12399998 1.3229727e-38
0.027354898 0.0068267374 0.12400001 1.313717e-38
0.034389988 0.0065772659 0.12400001 1.0934186e-38
0.035181891 0.0066614728 0.12433333 1.0566123e-38
0.036934596 0.0065772659 0.12400001 9.7414009e-39
0.037483428 0.0065772664 0.12399998 9.6492067e-39
0.038690872 0.0068466952 0.124 9.0971119e-39
0.039488908 0.0066037872 0.12450001 8.7301259e-39
0.040183187 0.0066694277 0.125 8.3631426e-39
0.057890177 0.0069265258 0.12400001 7.5636472e-39
0.022948213 0.0071835713 0.125 1.6550928e-38
0.023666736 0.0076003154 0.125 1.5075794e-38
0.024608001 0.0076362411 0.125 1.4706647e-38
0.025659628 0.0075910268 0.12424999 1.350954e-38
0.026656378 0.0075751501 0.12399998 1.2860582e-38
0.027354898 0.0075252564 0.12400001 1.2677631e-38
0.034938823 0.0071261027 0.12400001 1.047393e-38
0.035271455 0.0072591542 0.12400001 1.0106226e-38
0.036934596 0.0075751515 0.12400001 9.6484878e-39
0.037483431 0.0075751515 0.12399998 9.2804256e-39
0.03853121 0.0075751515 0.12399998 8.9130808e-39
0.039488908 0.0076056956 0.1245 8.6375729e-39
0.040174805 0.0075356471 0.125 8.4546208e-39
0.057552293 0.0077871308 0.125 7.4721704e-39
0.021841686 0.0089942496 0.125 1.4886362e-38
0.02382002 0.0086812936 0.125 1.3691059e-38
0.024608003 0.0086421734 0.125 1.3875803e-38
0.025664231 0.0086421734 0.125 1.2863089e-38
0.026661757 0.0086037116 0.1244375 1.2218806e-38
0.027421422 0.0085896673 0.12400001 1.2223846e-38
0.036626156 0.0086138584 0.124 9.7388842e-39
0.037483435 0.0085730348 0.12399998 9.2804242e-39
0.03853121 0.0085730357 0.12399998 8.7294084e-39
0.039528355 0.0086165983 0.124625 8.4539005e-39
0.040089302 0.0087125879 0.125 7.9940056e-39
0.021866532 0.0094545009 0.12400001 1.4976761e-38
0.022747027 0.0095307473 0.125 1.4242073e-38
0.023501476 0.0094720675 0.125 1.3967287e-38
0.024691829 0.0093295602 0.125 1.3690337e-38
0.025664231 0.0095307464 0.125 1.2676544e-38
0.026666112 0.0095116859 0.12475 1.2035495e-38
0.027421424 0.0098536545 0.12400001 1.1852907e-38
0.029749822 0.0098203914 0.12400001 1.0930949e-38
0.030373499 0.0097954441 0.12400001 1.1113903e-38
0.033940937 0.0095709208 0.12400001 1.0841267e-38
0.034454133 0.0096350694 0.12399999 1.0472846e-38
0.035577469 0.009720603 0.124 9.7374451e-39
0.036485545 0.009570919 0.12399998 9.0949567e-39
0.037419282 0.009535281 0.12399999 9.0042002e-39
0.038496345 0.0094879093 0.12460001 8.7290511e-39
0.039445501 0.0095978091 0.125 8.0851208e-39
0.040149655 0.0095307464 0.125 7.5337491e-39
0.021710839 0.010839887 0.12425001 1.387437e-38
0.022143468 0.010804928 0.125 1.3689618e-38
0.025805062 0.01016113 0.125 1.2216289e-38
0.026690282 0.01042938 0.125 1.1850383e-38
0.02766653 0.010518902 0.12458333 1.1665996e-38
0.028570503 0.010537054 0.124 1.1206817e-38
0.029450456 0.010568806 0.12399998 1.1116422e-38
0.030479848 0.010525085 0.12407142 1.1205381e-38
0.031406309 0.010758403 0.124 1.1296136e-38
0.032503985 0.01087815 0.124 1.1206457e-38
0.033527527 0.010632955 0.12399999 1.102458e-38
0.034489773 0.010568805 0.12399998 1.0104068e-38
0.035487663 0.010568805 0.12399998 9.1857132e-39
0.036485545 0.010568805 0.12399998 8.6361394e-39
0.037333749 0.010568805 0.12399999 8.3606315e-39
0.038389273 0.010452851 0.125 8.4528271e-39
0.039395202 0.010452853 0.125 7.8092542e-39
0.040149655 0.010452852 0.125 7.2582412e-39
0.065773472 0.010918065 0.12400001 9.1279699e-39
0.021904405 0.011513743 0.12450001 1.3322636e-38
0.022603324 0.01149471 0.125 1.3597424e-38
0.026846204 0.011358191 0.125 1.1389409e-38
0.027676094 0.011458785 0.125 1.1021348e-38
0.028561318 0.011549317 0.125 1.0931311e-38
0.029464424 0.011594481 0.12463637 1.074764e-38
0.030460626 0.011516933 0.12492858 1.0746201e-38
0.031454694 0.011532544 0.12416666 1.0562169e-38
0.032444112 0.011616584 0.12399998 1.0287022e-38
0.033491887 0.011616584 0.12399998 1.028738e-38
0.034384444 0.011472445 0.12400001 9.0935176e-39
0.035412472 0.011547006 0.1245 8.6354191e-39
0.036458474 0.011628012 0.12405881 8.5450227e-39
0.03728414 0.011532544 0.12416667 7.9007337e-39
0.038315766 0.011393011 0.125 7.809257e-39
0.039395209 0.011006114 0.125 7.6255846e-39
0.040149659 0.011006114 0.125 7.1664057e-39
0.056493137 0.011516795 0.12400001 6.6405727e-39
0.065673679 0.011317219 0.12400001 9.0354184e-39
0.022143468 0.012012046 0.125 1.3414476e-38
0.027776686 0.012302648 0.125 1.0654724e-38
0.028581433 0.012464717 0.125 1.0471053e-38
0.029486777 0.012464714 0.125 1.0198062e-38
0.030492706 0.012464718 0.125 9.8289176e-39
0.031498641 0.012464717 0.125 1.0103709e-38
0.03247891 0.012573957 0.12458333 1.0011873e-38
0.033342648 0.012553131 0.12437501 9.9196783e-39
0.034237012 0.012459127 0.125 9.3701045e-39
0.036404546 0.012490184 0.12475 8.6357792e-39
0.037340783 0.012507275 0.125 7.8088982e-39
0.0380372 0.012012046 0.125 7.6259447e-39
0.056747545 0.012414419 0.125 6.5487526e-39
0.028656881 0.013395204 0.125 1.0471772e-38
0.029486775 0.01347065 0.125 1.001547e-38
0.030442411 0.013370057 0.125 9.6466858e-39
0.031431578 0.013152103 0.125 1.0104068e-38
0.032720126 0.013449092 0.125 9.8278414e-39
0.033409912 0.013470649 0.125 9.6452494e-39
0.034013469 0.013353289 0.125 9.4619386e-39
0.0365283 0.013470649 0.125 8.1758787e-39
0.037071504 0.013380113 0.125 7.8088968e-39
0.058457628 0.013353289 0.125 7.1012089e-39
0.028581435 0.014426284 0.125 1.1117857e-38
0.02938618 0.014225098 0.125 1.0289536e-38
0.032739289 0.014292159 0.125 1.0196983e-38
0.033275787 0.014292159 0.125 9.9218363e-39
0.036628895 0.01432569 0.125 8.0840432e-39
0.058845177 0.014615983 0.12433334 7.2848757e-39
0.059154164 0.014643501 0.12400001 7.3767014e-39
0.036551017 0.015595437 0.12416667 7.4415549e-39
0.037031267 0.015532809 0.125 7.349362e-39
0.036685124 0.01615696 0.12400001 7.1664085e-39
0.066404499 0.030655324 0.125 6.0888744e-39
0.066404499 0.031527136 0.125 6.1799897e-39
0.066303901 0.032533064 0.125 6.1799897e-39
0.066404499 0.033589296 0.125 6.1799897e-39
0.065465629 0.03675798 0.125 6.1796295e-39
0.06499619 0.0379651 0.125 6.1799897e-39
0.065197378 0.0379651 0.125 6.087794e-39
0.06499619 0.038669251 0.125 5.9955984e-39
0.065197378 0.038769845 0.125 5.9034028e-39
0.037428916 -0.04426913 0.126 5.5316691e-39
0.037327517 -0.043863539 0.126 5.6238648e-39
-0.0171232 -0.040517405 0.126 2.860549e-39
-0.016683809 -0.039740022 0.126 3.1371373e-39
-0.013533713 -0.037414629 0.126 7.6525792e-39
-0.012965884 -0.037374068 0.126 7.0072098e-39
-0.013574272 -0.036968477 0.126 8.3901456e-39
-0.012965884 -0.036968477 0.126 7.8369705e-39
-0.0092865853 -0.03670774 0.126 6.729897e-39
-0.0084536737 -0.036664281 0.12600002 7.4674635e-39
-0.0076931887 -0.036664285 0.126 7.4678264e-39
-0.0060708211 -0.036461487 0.126 7.0994054e-39
-0.0056652292 -0.036562882 0.126 7.0072098e-39
-0.0074396934 -0.035954498 0.126 8.389068e-39
-0.0065440112 -0.035954498 0.126 8.1132e-39
0.032460414 -0.029059434 0.126 7.8365599e-39
0.021712229 -0.018108454 0.126 4.704442e-39
0.022639295 -0.018195365 0.126 4.7055182e-39
0.023131799 -0.018108454 0.126 4.7055182e-39
0.021712229 -0.017558007 0.126 4.4289327e-39
0.022253016 -0.017635262 0.126 4.4289313e-39
0.023571191 -0.017533865 0.126 4.6147575e-39
0.031649228 -0.015674902 0.126 6.6387398e-39
0.022726208 -0.012632962 0.126 4.3363854e-39
0.023638789 -0.012328768 0.126 4.981752e-39
0.023902426 -0.011456746 0.126 5.073949e-39
0.022929003 -0.0107064 0.126 4.980673e-39
0.023624305 -0.01054706 0.12600002 4.980673e-39
0.024510812 -0.010381928 0.12600002 5.0732287e-39
0.025463954 -0.010199411 0.126 7.6536456e-39
0.019518344 -0.0093697924 0.12600002 1.3457671e-38
0.020089859 -0.0093882279 0.126 1.1983256e-38
0.024794726 -0.0097127007 0.126 5.2572599e-39
0.025524791 -0.0097127007 0.126 7.0086265e-39
0.028485611 -0.0093476679 0.126 5.2568745e-39
0.027998902 -0.0085770441 0.126 6.3603382e-39
0.028472094 -0.0087122405 0.126 5.9008006e-39
0.03154783 -0.0083742477 0.126 4.7937538e-39
0.032409713 -0.008424947 0.126 3.7803319e-39
0.035299554 -0.0083742477 0.126 3.3197153e-39
0.032663211 -0.0079686558 0.126 3.8710856e-39
0.033372998 -0.0076644616 0.126 4.331698e-39
0.035705149 -0.0079686558 0.126 3.9629211e-39
0.033677191 -0.006954676 0.126 6.7262466e-39
0.034463026 -0.0066504823 0.126 7.8318739e-39
0.035441514 -0.0067113205 0.12600002 8.1999362e-39
0.03611074 -0.00675188 0.126 7.7389594e-39
0.026883524 -0.0044704257 0.126 1.565879e-38
0.02755275 -0.0043994477 0.126 1.5475116e-38
0.025903344 -0.0032367508 0.126 1.6466975e-38
0.026492419 -0.003507145 0.126 1.6566359e-38
0.027998902 -0.0035578441 0.126 1.5837067e-38
0.031446435 -0.0031015533 0.126 1.5014147e-38
0.024956962 -0.0020875735 0.126 1.571287e-38
0.025687028 -0.002520205 0.12600002 1.5994132e-38
0.026463447 -0.0026090487 0.126 1.6089562e-38
0.027998902 -0.0025438645 0.126 1.6010313e-38
0.028472094 -0.0024593661 0.126 1.5739121e-38
0.030736648 -0.0023917675 0.126 1.5561564e-38
0.031547833 -0.0026706117 0.126 1.5100947e-38
0.022929003 -0.0017833796 0.126 1.6179597e-38
0.023131799 -0.0016819816 0.126 1.5811174e-38
0.024794726 -0.0015603041 0.126 1.534229e-38
0.025605911 -0.0018442184 0.126 1.5252971e-38
0.027998902 -0.0016819816 0.126 1.5727258e-38
0.028566729 -0.0014791855 0.12600002 1.5639016e-38
0.029469173 -0.0010735937 0.126 1.5913088e-38
0.030331057 -0.0015805836 0.126 1.5827003e-38
0.032497287 -0.0015160576 0.12600002 1.4615151e-38
0.033499744 -0.0016566322 0.126 1.3416252e-38
0.034123342 -0.0014386264 0.126 1.2953837e-38
0.024416173 -0.00053280458 0.126 1.5064623e-38
0.02865799 -0.00082009879 0.126 1.5354163e-38
0.029296795 -0.00078967941 0.126 1.5725462e-38
0.032257617 -0.00087079784 0.126 1.4147703e-38
0.034285575 -0.00057787035 0.126 1.2675817e-38
0.036313538 -0.00039760725 0.126 1.0105139e-38
0.023841586 0.00095436565 0.126 1.6911423e-38
0.024145776 0.00041357649 0.126 1.5708198e-38
0.034589771 0.00039667686 0.126 1.2494665e-38
0.035096761 0.00095436565 0.126 1.1942573e-38
0.022929003 0.0018669474 0.126 1.6918985e-38
0.023537392 0.0015627533 0.12600002 1.6825349e-38
0.035421234 0.0011977206 0.126 1.2404992e-38
0.03611074 0.0011571615 0.126 1.1762142e-38
0.022847887 0.0023739373 0.126 1.5809399e-38
0.023469793 0.0025767332 0.12600002 1.525514e-38
0.03516436 0.0028471278 0.126 1.1851825e-38
0.023514859 0.0035456473 0.126 1.5256219e-38
0.03516436 0.0032527198 0.126 1.1668157e-38
0.022878306 0.0046046926 0.126 1.6458728e-38
0.023266995 0.004334298 0.126 1.7195933e-38
0.022675507 0.0054158764 0.126 1.6091022e-38
0.02259101 0.0064298562 0.126 1.5354536e-38
0.059635073 0.0068354481 0.126 7.5636472e-39
0.021915024 0.0078494279 0.126 1.5904114e-38
0.022685647 0.0075046755 0.12600002 1.5533898e-38
0.023131799 0.0078494279 0.126 1.5254073e-38
0.022692407 0.0085085146 0.12600002 1.4977842e-38
0.023305627 0.0085157575 0.126 1.4702694e-38
0.022726208 0.0090662036 0.126 1.5070395e-38
0.023659069 0.0096340319 0.126 1.4612655e-38
0.02459193 0.0098368283 0.126 1.4244233e-38
0.021813625 0.010418177 0.126 1.4609415e-38
0.022604531 0.010512814 0.12600002 1.3873652e-38
0.023588089 0.010536475 0.12600002 1.4335349e-38
0.02460207 0.010536475 0.12600002 1.3320117e-38
0.025602223 0.010670137 0.12600002 1.2308124e-38
0.026376534 0.010891367 0.126 1.1666352e-38
0.056795932 0.010485775 0.126 5.4402498e-39
0.023693386 0.011515356 0.12600002 1.3227562e-38
0.024609312 0.011267989 0.126 1.2675109e-38
0.025690148 0.011468558 0.12600002 1.1941145e-38
0.026503282 0.011651853 0.126 1.1389769e-38
0.038949884 0.011803949 0.126 7.5337491e-39
0.03953984 0.011720988 0.12600002 7.4419136e-39
0.040247779 0.011661991 0.126 7.0742101e-39
0.056998726 0.011094163 0.126 6.1799448e-39
0.022726208 0.012108142 0.126 1.3597784e-38
0.023469791 0.012108142 0.126 1.3043173e-38
0.026701007 0.012540773 0.12600002 1.1296496e-38
0.027564341 0.012774472 0.126 1.0929513e-38
0.03469117 0.012817929 0.126 9.1871538e-39
0.035380673 0.012540773 0.12600002 9.0042016e-39
0.036212139 0.012716531 0.126 8.9123647e-39
0.03852981 0.012629618 0.12600002 7.349718e-39
0.039485846 0.012513735 0.12600002 6.9827347e-39
0.040166661 0.012310939 0.126 6.7990637e-39
0.058621094 0.012919326 0.126 7.1008474e-39
0.026849726 0.013358719 0.126 1.0837677e-38
0.027723679 0.013527717 0.12600002 1.0654724e-38
0.028455194 0.01373051 0.126 1.0562888e-38
0.030736648 0.013933306 0.126 9.7381625e-39
0.031581629 0.013798109 0.126 9.9207559e-39
0.032392815 0.013595315 0.126 1.0011873e-38
0.034508653 0.013649392 0.12600002 9.3701031e-39
0.035394195 0.013554756 0.12600002 9.1864321e-39
0.036212139 0.013578413 0.126 8.4510264e-39
0.037611432 0.013568273 0.126 7.4415535e-39
0.038240097 0.013122123 0.126 7.2582412e-39
0.027998902 0.014541694 0.126 1.1115702e-38
0.028526172 0.014785049 0.126 1.1393722e-38
0.029510653 0.014762924 0.12600002 1.0474642e-38
0.030483155 0.014558594 0.12600002 1.0012949e-38
0.031568114 0.01462281 0.12600002 9.8296365e-39
0.032507215 0.01469769 0.12600002 1.0658321e-38
0.033503365 0.014802432 0.126 1.0106948e-38
0.034285575 0.014578566 0.12600002 9.5537741e-39
0.036414936 0.014338898 0.126 8.2673555e-39
0.037428912 0.014643092 0.12600002 7.6248657e-39
0.038138703 0.014845887 0.126 6.6143151e-39
0.028708689 0.015352878 0.126 1.1763217e-38
0.029350877 0.015352878 0.126 1.0843423e-38
0.0316782 0.015497731 0.126 1.0935267e-38
0.032607902 0.015610981 0.12600002 1.0658322e-38
0.033474397 0.015657073 0.12600002 1.0012952e-38
0.034245014 0.015697632 0.12600002 9.3690227e-39
0.037530314 0.015504973 0.126 6.9816585e-39
0.038138703 0.015352878 0.126 6.522481e-39
0.031852026 0.016366858 0.126 1.0196264e-38
0.032688558 0.016544303 0.126 9.8282002e-39
0.033474397 0.016569652 0.126 9.5523335e-39
0.034260228 0.016544305 0.126 9.6452522e-39
0.066732936 0.021538155 0.126 8.3872309e-39
0.066732936 0.022450736 0.126 6.730983e-39
0.066732936 0.023363318 0.126 6.5462457e-39
0.066570699 0.024417855 0.12600002 6.179268e-39
0.066449024 0.025411557 0.12600002 6.1803498e-39
0.065718956 0.026574254 0.126 6.639893e-39
0.066428743 0.026455954 0.12600002 6.2721881e-39
0.065617554 0.027469933 0.126 6.5484163e-39
0.066428743 0.027469937 0.12600002 6.364025e-39
0.065583758 0.028534614 0.126 6.3643851e-39
0.066428743 0.02848391 0.12600002 6.2718294e-39
0.065435037 0.029521557 0.12600002 6.4562206e-39
0.066428736 0.029497895 0.12600002 6.1799939e-39
0.064637385 0.03076537 0.126 6.1810701e-39
0.065435037 0.03053553 0.12600002 6.0888758e-39
0.066385284 0.030475659 0.12600002 6.0888758e-39
0.064542741 0.031515714 0.12600002 6.2725454e-39
0.065414757 0.031576555 0.12600002 6.088873e-39
0.066327333 0.031576555 0.12600002 6.0885129e-39
0.06452062 0.032627404 0.12600002 6.1799897e-39
0.065414764 0.032590527 0.12600002 6.1803498e-39
0.066327341 0.032627404 0.12600002 6.2721853e-39
0.063843094 0.033553813 0.126 6.2718266e-39
0.06450218 0.033469316 0.126 6.1799897e-39
0.065414757 0.033469319 0.12600002 6.1799897e-39
0.066301994 0.033503111 0.126 6.2718252e-39
0.063674092 0.034432594 0.12600002 6.2718252e-39
0.06450218 0.034364998 0.12600002 6.2721853e-39
0.065414757 0.034364995 0.12600002 6.2721853e-39
0.066385284 0.034401212 0.12600002 6.1799897e-39
0.062879808 0.03583527 0.126 6.3643809e-39
0.063589588 0.035378974 0.12600002 6.2718266e-39
0.06450218 0.035378978 0.12600002 6.3640222e-39
0.065353915 0.035226882 0.12600002 6.2714664e-39
0.066440009 0.035159279 0.126 6.2714664e-39
0.062812209 0.036545053 0.126 6.4558577e-39
0.063589595 0.036443658 0.12600002 6.3636621e-39
0.064502187 0.036443658 0.12600002 6.4558577e-39
0.065414764 0.036501598 0.12600002 6.271465e-39
0.066124544 0.036308456 0.126 6.0870738e-39
0.062717572 0.037518475 0.12600002 6.2718266e-39
0.063589595 0.037457634 0.12600002 6.1796309e-39
0.064473204 0.037225869 0.126 6.2721853e-39
0.065272808 0.037133165 0.126 6.2718266e-39
0.062575608 0.038471613 0.12600002 6.3636621e-39
0.063589603 0.038471613 0.12600002 6.1796309e-39
0.06450218 0.038471617 0.12600002 6.2721853e-39
0.065110564 0.038606811 0.126 6.1799897e-39
0.061865829 0.039789788 0.126 6.2718266e-39
0.062575616 0.039485592 0.12600002 6.2714664e-39
0.063589595 0.039485596 0.12600002 6.1792708e-39
0.064502172 0.039485592 0.12600002 6.1796309e-39
0.065110564 0.039350394 0.126 6.1799897e-39
0.061865829 0.040296778 0.126 6.2721853e-39
0.062575608 0.040550277 0.12600002 6.2718252e-39
0.063589588 0.040550273 0.12600002 6.1792708e-39
0.064457119 0.040454511 0.126 6.0870752e-39
0.063792393 0.041107964 0.126 6.1792708e-39
0.035579711 -0.044007253 0.127 5.1636055e-39
0.036669876 -0.044279795 0.127 5.0703308e-39
0.037266061 -0.044620469 0.127 5.3469205e-39
0.035477512 -0.043530315 0.12699999 5.0717714e-39
0.03627469 -0.043598443 0.127 4.9781324e-39
0.035620593 -0.042678617 0.12699999 5.0714084e-39
0.036192928 -0.04278082 0.127 5.1628838e-39
0.035784118 -0.041963201 0.127 5.2550794e-39
-0.017565709 -0.040532362 0.127 2.860549e-39
0.057553306 -0.040736768 0.127 6.7294949e-39
-0.0072432319 -0.037159674 0.127 6.9153701e-39
-0.0064596776 -0.037193742 0.127 6.7309788e-39
-0.0072432319 -0.036750861 0.127 7.5600234e-39
0.032615833 -0.029085657 0.127 7.7443614e-39
0.021782344 -0.018456576 0.127 4.8888319e-39
0.022088952 -0.018456576 0.127 4.7966348e-39
0.023673095 -0.018303273 0.127 4.8899081e-39
0.023928601 -0.01784336 0.127 4.7069503e-39
0.032718036 -0.015799306 0.127 7.1004718e-39
0.02311098 -0.012528819 0.127 4.5207738e-39
0.026790278 -0.012528819 0.127 9.7745234e-39
0.023621993 -0.011404589 0.127 4.7973635e-39
0.024133006 -0.009871548 0.127 5.16506e-39
0.028629927 -0.0085429121 0.127 6.1766672e-39
0.031900413 -0.0080318991 0.127 5.1610943e-39
0.032309227 -0.0080318991 0.127 4.8845103e-39
0.033535659 -0.0074186828 0.127 5.5280762e-39
0.035443444 -0.0071461424 0.127 6.910282e-39
0.066802658 -0.0073675811 0.127 5.3509395e-39
0.06726256 -0.0074697835 0.12699999 5.8111917e-39
0.034251079 -0.0067032641 0.127 7.1868647e-39
0.06726256 -0.0066010612 0.12699999 5.6268075e-39
0.067466967 -0.0059878449 0.127 5.6268103e-39
0.027505696 -0.0049658176 0.127 1.4832262e-38
0.028221115 -0.0043526012 0.127 1.5198887e-38
0.02576825 -0.0034668446 0.127 1.6378372e-38
0.026381467 -0.0039437902 0.127 1.6481354e-38
0.028527725 -0.0035860809 0.12699999 1.5377527e-38
0.03169601 -0.0033305741 0.127 1.492231e-38
0.032309227 -0.0033305741 0.127 1.4369137e-38
0.024950629 -0.0026151552 0.127 1.589906e-38
0.025359439 -0.0029217633 0.127 1.6364711e-38
0.028834332 -0.0028195605 0.127 1.5373933e-38
0.030673981 -0.0025640537 0.127 1.5655557e-38
0.032513633 -0.0024311901 0.12699999 1.4540218e-38
0.033535659 -0.0021041415 0.127 1.3791142e-38
0.034148876 -0.0021041415 0.127 1.3143262e-38
0.022753268 -0.0016442293 0.127 1.5535306e-38
0.023560673 -0.0015113656 0.12699999 1.5256561e-38
0.024419174 -0.0015318063 0.127 1.5618875e-38
0.029488429 -0.0015318063 0.127 1.5735527e-38
0.030367374 -0.0017975334 0.127 1.5739481e-38
0.03282024 -0.0018997361 0.127 1.4620183e-38
0.033331253 -0.0018997361 0.127 1.406665e-38
0.034625821 -0.00142279 0.127 1.267797e-38
0.024133006 -0.00060516834 0.127 1.5340848e-38
0.034762092 -0.00057110074 0.127 1.2583981e-38
0.02274305 0.00088017789 0.127 1.6261732e-38
0.023610637 0.00064397597 0.12699999 1.6354645e-38
0.035170902 0.00055312912 0.127 1.2402831e-38
0.021884548 0.0017114267 0.127 1.6726315e-38
0.02249776 0.0015313551 0.12699999 1.7467118e-38
0.02311098 0.0011663454 0.127 1.7652944e-38
0.021884548 0.002460913 0.127 1.6731714e-38
0.022351759 0.0025095812 0.12699999 1.6824268e-38
0.021721022 0.0034148053 0.12699999 1.5628593e-38
0.022548862 0.0033637038 0.12699999 1.5071825e-38
0.02311098 0.0036192108 0.127 1.4332462e-38
0.021782344 0.0044368329 0.12699999 1.4613004e-38
0.022446662 0.0043686978 0.12699999 1.4978192e-38
0.021782344 0.0054588597 0.12699999 1.5532448e-38
0.022170715 0.0053770975 0.127 1.5993429e-38
0.021632971 0.0065123341 0.12699999 1.5535683e-38
0.022088952 0.0064808871 0.127 1.5352731e-38
0.059699561 0.0068896976 0.127 7.4714516e-39
0.02150299 0.0074756597 0.12699999 1.4889956e-38
0.022088952 0.0073666438 0.127 1.498359e-38
0.021748278 0.0085249413 0.12699999 1.5349142e-38
0.022191156 0.0084738405 0.127 1.5348423e-38
0.057757709 0.0083205365 0.127 7.6565617e-39
0.05704229 0.010875603 0.127 5.8104687e-39
0.024717024 0.011853831 0.12699999 1.2491439e-38
0.025563844 0.011999833 0.127 1.1849668e-38
0.057246696 0.011591023 0.127 6.9160833e-39
0.02274305 0.012694811 0.127 1.3321562e-38
0.023570891 0.012715253 0.12699999 1.2951339e-38
0.024496395 0.01247678 0.12699999 1.2584717e-38
0.02576825 0.012306441 0.127 1.1849671e-38
0.022906573 0.013839482 0.127 1.2492523e-38
0.023474367 0.013294401 0.12699999 1.2767309e-38
0.024133006 0.01302186 0.127 1.3043896e-38
0.02653477 0.013481773 0.127 1.1112825e-38
0.036192928 0.01302186 0.127 9.1878726e-39
0.038382988 0.013693479 0.12699999 7.1664057e-39
0.039429348 0.013498806 0.12699999 6.7072296e-39
0.026892481 0.014384563 0.12699999 1.0746919e-38
0.027589316 0.014545608 0.12699999 1.1669955e-38
0.034762092 0.014861509 0.127 9.829282e-39
0.035416186 0.01449358 0.127 9.4615784e-39
0.036192928 0.014452699 0.127 8.7261756e-39
0.038236983 0.014370936 0.127 6.9820172e-39
0.027812306 0.015270321 0.127 1.176035e-38
0.028425524 0.015638251 0.12699999 1.1669227e-38
0.029549751 0.015781336 0.12699999 1.084091e-38
0.03060098 0.015591529 0.12699999 1.0012591e-38
0.0313894 0.015645063 0.12699999 1.0197702e-38
0.032513633 0.015883537 0.127 1.0657242e-38
0.034762092 0.015406591 0.127 9.3690241e-39
0.059290748 0.015065915 0.127 7.5625542e-39
0.028834332 0.016087942 0.127 1.1208971e-38
0.029590633 0.016374111 0.12699999 1.0379576e-38
0.030571779 0.016547853 0.12699999 9.8289218e-39
0.031573366 0.016551262 0.12699999 1.0196984e-38
0.03236033 0.01675226 0.127 1.0104068e-38
0.034762092 0.016905565 0.127 9.6459697e-39
0.035170902 0.016292349 0.127 8.9112857e-39
0.028425522 0.017314374 0.127 1.074764e-38
0.030725082 0.017365476 0.127 1.0382456e-38
0.031614248 0.017600542 0.12699999 1.0656524e-38
0.032550797 0.017518781 0.12699999 1.0103352e-38
0.033586759 0.017365476 0.127 9.8282016e-39
0.034353282 0.017620983 0.12699999 9.9203972e-39
0.03174711 0.018387504 0.127 1.0471053e-38
0.034353275 0.018540807 0.12699999 9.5519734e-39
0.067466967 0.018949619 0.127 1.1056885e-38
0.065729529 0.019869443 0.127 9.9527223e-39
0.06656418 0.019750208 0.12699999 1.0965418e-38
0.06726256 0.019665036 0.12699999 1.0872858e-38
0.065672748 0.020721132 0.12699999 8.756375e-39
0.066496044 0.020687064 0.12699999 9.4006346e-39
0.067139924 0.020625744 0.127 9.9523566e-39
0.065685727 0.021577688 0.12699999 7.0994012e-39
0.066496037 0.021606887 0.12699999 7.7429531e-39
0.065729529 0.022526713 0.12699999 6.6387972e-39
0.066496044 0.022526713 0.12699999 6.7309872e-39
0.06559325 0.023599843 0.12699999 6.4554948e-39
0.066496044 0.023548745 0.12699999 6.5462485e-39
0.064722098 0.024614571 0.12699999 6.4572954e-39
0.065474018 0.024570767 0.12699999 6.4565766e-39
0.066322297 0.024529886 0.12699999 6.4558549e-39
0.064605288 0.025490591 0.12699999 6.5494939e-39
0.065474018 0.025490591 0.12699999 6.2729056e-39
0.066138335 0.02543949 0.127 6.3647411e-39
0.063992076 0.026410418 0.127 6.9186337e-39
0.064605296 0.026410416 0.12699999 6.5494953e-39
0.065474018 0.026410418 0.12699999 6.3647439e-39
0.066036128 0.026206013 0.127 6.4562206e-39
0.063889876 0.027432445 0.12699999 6.7335264e-39
0.064605288 0.027432447 0.12699999 6.6413308e-39
0.065391466 0.027408859 0.12699999 6.3647439e-39
0.063700065 0.028483674 0.12699999 6.4572996e-39
0.064605288 0.02845447 0.12699999 6.365104e-39
0.065354779 0.028454475 0.12699999 6.365104e-39
0.06297005 0.029680904 0.127 7.102669e-39
0.063634366 0.029476499 0.12699999 6.6420496e-39
0.064605296 0.029476499 0.12699999 6.4569395e-39
0.065150373 0.029408364 0.12699999 6.365104e-39
0.062918946 0.030447427 0.127 7.102669e-39
0.063634366 0.030396327 0.12699999 6.6416909e-39
0.064605296 0.030396322 0.12699999 6.3647453e-39
0.065150373 0.03032819 0.127 6.2729084e-39
0.062806524 0.031357031 0.12699999 7.1015872e-39
0.063634366 0.03131615 0.12699999 6.3651012e-39
0.064517684 0.031213949 0.12699999 6.1807113e-39
0.065014102 0.03100954 0.127 6.1807127e-39
0.062678039 0.032367378 0.12699999 6.8253591e-39
0.063634373 0.032338176 0.12699999 6.4565766e-39
0.064488485 0.032294374 0.12699999 6.2721853e-39
0.06194802 0.033666812 0.127 7.101946e-39
0.062612347 0.033360202 0.12699999 6.7331635e-39
0.063634366 0.033360202 0.12699999 6.3643823e-39
0.064400889 0.033155799 0.127 6.3640236e-39
0.061820265 0.034535535 0.12699999 7.3785329e-39
0.06261234 0.034433331 0.12699999 6.7331635e-39
0.063460626 0.034382232 0.12699999 6.3640208e-39
0.060925994 0.03591527 0.127 9.2217238e-39
0.061656017 0.035491858 0.12699999 7.8391509e-39
0.06261234 0.035455357 0.12699999 6.5487722e-39
0.063174456 0.035455361 0.127 6.2718266e-39
0.06083839 0.03652849 0.12699999 9.0380542e-39
0.061590314 0.036477391 0.12699999 8.1157406e-39
0.062588491 0.036446728 0.12699999 6.5480547e-39
0.060740173 0.037531935 0.12699999 7.3788916e-39
0.06159031 0.037499413 0.12699999 7.0093916e-39
0.062468328 0.037457604 0.12699999 6.5480533e-39
0.060598947 0.038545292 0.12699999 6.6406091e-39
0.061590314 0.038521439 0.12699999 6.8242801e-39
0.062234186 0.038449902 0.127 6.6398888e-39
0.059903964 0.039458301 0.127 6.5487722e-39
0.060568284 0.039458293 0.12699999 6.5484121e-39
0.061590314 0.039458301 0.12699999 6.5480533e-39
0.062152427 0.039458301 0.127 6.4558577e-39
0.059903964 0.040361088 0.127 6.4565766e-39
0.060568288 0.04036108 0.12699999 6.4565766e-39
0.061590314 0.040361091 0.12699999 6.3643809e-39
0.060568288 0.04138311 0.12699999 6.3643809e-39
0.061554942 0.041276984 0.12699999 6.3640208e-39
0.062152427 0.041127607 0.127 6.3636621e-39
0.060483117 0.042115569 0.12699999 6.2721853e-39
0.056837883 0.045828935 0.127 7.8387907e-39
0.057496529 0.04577215 0.12699999 7.4696481e-39
0.058146078 0.045726731 0.127 7.2852554e-39
0.05673568 0.046237744 0.127 7.3778098e-39
0.05736934 0.046176426 0.127 7.2852526e-39
0.058064315 0.046135541 0.127 7.1012215e-39
0.035653852 -0.045452517 0.12800001 5.2558081e-39
0.03658092 -0.045452517 0.12800001 4.8862983e-39
0.037370645 -0.045521185 0.12800001 5.2547277e-39
0.035653852 -0.044868812 0.12800001 5.1636125e-39
0.036448482 -0.044795234 0.12800001 4.8859382e-39
0.05749144 -0.041366555 0.12800001 6.3607151e-39
-0.017498005 -0.040027454 0.12800001 3.2293343e-39
0.05749144 -0.040851515 0.12800001 6.7287872e-39
-0.0068882359 -0.037246253 0.12800001 7.0997627e-39
-0.0068882355 -0.036937233 0.12800001 7.5603836e-39
0.033593703 -0.032507911 0.12800001 7.0997081e-39
0.032769643 -0.030344754 0.12800001 7.284112e-39
0.033387687 -0.030344754 0.12800001 7.6521546e-39
0.032769643 -0.029108666 0.12800001 7.8365571e-39
0.033456363 -0.02924601 0.12800001 7.7443474e-39
0.033387687 -0.028696636 0.12800001 7.744346e-39
0.033387687 -0.027254531 0.12800001 7.9280142e-39
0.03256363 -0.026430471 0.12800001 8.0223987e-39
0.033284679 -0.026842501 0.12800001 8.0202098e-39
0.03256363 -0.023340248 0.12800001 8.6663051e-39
0.032357614 -0.022619195 0.12800001 9.1265602e-39
0.059345573 -0.021692127 0.12800001 5.8115533e-39
0.031533554 -0.015511679 0.12800001 6.3621529e-39
0.022757318 -0.012421456 0.12800001 4.3363854e-39
0.023447467 -0.012215441 0.12800001 4.6129708e-39
0.023430301 -0.011597395 0.12800001 4.7966432e-39
0.024529045 -0.0097432621 0.12800001 5.1650572e-39
0.029267389 -0.0087131876 0.12800001 5.9007992e-39
0.03173957 -0.0080951424 0.12800001 5.4376784e-39
0.03544784 -0.0080951424 0.12800001 4.2398667e-39
0.031945582 -0.0078891274 0.12800001 5.6209907e-39
0.03256363 -0.0077419751 0.12800001 5.3440465e-39
0.033346485 -0.0075595034 0.12800001 5.1600139e-39
