# .PCD v0.7 - Point Cloud Data file format
VERSION 0.7
FIELDS x y z rgb
SIZE 4 4 4 4
TYPE F F F F
COUNT 1 1 1 1
WIDTH 966
HEIGHT 1
VIEWPOINT 0 0 0 1 0 0 0
POINTS 966
DATA ascii
0.0023050723 0.017980523 0.15800001 1.5947686e-38
-0.061015554 0.018743422 0.15800001 6.8948635e-39
-0.060506955 0.018743422 0.15800001 6.6186395e-39
-0.0022723228 0.018539984 0.15800001 8.2958088e-39
-0.0012551236 0.018404355 0.15800001 9.6773097e-39
-0.00059394439 0.018438261 0.15800001 1.1431902e-38
0.00039782445 0.018489122 0.15800001 1.1799601e-38
0.0015421732 0.018489122 0.15800001 1.5025728e-38
0.0024067922 0.018438261 0.15800001 1.5947686e-38
-0.059998356 0.019252023 0.15800001 5.6084505e-39
-0.058854006 0.019252023 0.15800001 2.5785938e-39
-0.0022723225 0.019506322 0.15800001 6.3618642e-39
0.00049318682 0.019410959 0.15800001 1.0969122e-38
0.0015103857 0.019474534 0.15800001 1.456367e-38
-0.060252655 0.02052352 0.15800001 4.8744854e-39
-0.059998356 0.02052352 0.15800001 4.5978985e-39
-0.0030352217 0.02065067 0.15800001 5.0722072e-39
-0.002653772 0.020332795 0.15800001 5.6250208e-39
0.00062669424 0.02057438 0.15800001 1.0137562e-38
0.0013514484 0.020332795 0.15800001 1.2442811e-38
-0.066101544 0.02179502 0.15800001 7.5377148e-39
-0.065084346 0.02179502 0.15800001 7.6302733e-39
-0.062032752 0.02179502 0.15800001 6.254173e-39
-0.061354619 0.021455953 0.15800001 5.8861136e-39
-0.060379803 0.02154072 0.15800001 4.4153051e-39
-0.059744053 0.021032119 0.15800001 2.9459357e-39
-0.0031623715 0.021032119 0.15800001 4.7045065e-39
-0.0026113887 0.021371186 0.15800001 5.4417142e-39
-0.0010008239 0.02166787 0.15800001 1.1524103e-38
-0.00061937439 0.02166787 0.15800001 1.1524459e-38
0.00036314724 0.02142513 0.15800001 1.0046807e-38
-0.066101544 0.022049319 0.15800001 7.5384336e-39
-0.065508179 0.022473151 0.15800001 7.3544025e-39
-0.062159903 0.022812217 0.15800001 6.2538199e-39
-0.0031199884 0.022642685 0.15800001 4.1520516e-39
-0.0024418558 0.022218853 0.15800001 5.9026951e-39
-0.0010008239 0.022430768 0.15800001 1.1156756e-38
-0.00059394439 0.022405338 0.15800001 1.1156033e-38
0.00036314724 0.022419209 0.15800001 9.7705816e-39
-0.065338641 0.023193667 0.15800001 7.3544039e-39
-0.06483005 0.023575116 0.15800001 7.2632901e-39
-0.062032752 0.023066517 0.15800001 6.3460155e-39
-0.061524153 0.023320816 0.15800001 5.1517883e-39
-0.0031369417 0.023269957 0.15800001 3.9680204e-39
-0.0010643988 0.02338439 0.15800001 9.0355347e-39
-0.00061937439 0.023320816 0.15800001 9.495431e-39
0.00039782445 0.023320815 0.15800001 1.1338626e-38
0.0012878735 0.023447966 0.15800001 1.4472199e-38
-0.065253876 0.024507551 0.15800001 7.5395168e-39
-0.06483005 0.024338014 0.15800001 7.3558444e-39
-0.063304253 0.024592316 0.15800001 6.3496154e-39
-0.062541351 0.024465166 0.15800001 5.5223743e-39
-0.061269853 0.024083715 0.15800001 3.7756964e-39
-0.0010855905 0.024422782 0.15800001 1.0509944e-38
-0.00061937439 0.024338016 0.15800001 1.1799604e-38
0.00039782445 0.024338014 0.15800001 1.2721921e-38
0.0013514484 0.02427444 0.15800001 1.3733915e-38
-0.065338641 0.02554594 0.15800001 7.6345921e-39
-0.064512171 0.025609514 0.15800001 7.7307464e-39
-0.063812852 0.025355214 0.15800001 6.9975016e-39
-0.062159903 0.025100915 0.15800001 4.9742396e-39
-0.0030352217 0.025863813 0.15800001 4.3357239e-39
-0.0022723223 0.025800239 0.15800001 5.9023336e-39
-0.0012551236 0.025581257 0.15800001 8.9426216e-39
-0.00061937439 0.025482364 0.15800001 1.1153515e-38
0.00039782445 0.025482368 0.15800001 1.1891799e-38
0.0012878735 0.025482364 0.15800001 1.308998e-38
-0.064067148 0.026372412 0.15800001 7.7426266e-39
-0.063812852 0.026372412 0.15800001 7.4660397e-39
-0.0030352219 0.026626712 0.15800001 4.3353652e-39
-0.002357089 0.02662671 0.15800001 5.7183011e-39
-0.0013398903 0.026626714 0.15800001 8.8515105e-39
-0.00061937439 0.026626712 0.15800001 1.0233362e-38
0.00039782445 0.026626712 0.15800001 1.189252e-38
0.0013514485 0.026690286 0.15800001 1.3459126e-38
-0.0030352217 0.027135313 0.15800001 4.4272007e-39
-0.0023570892 0.02738961 0.15800001 5.6261054e-39
-0.0012551236 0.027338753 0.15800001 8.943346e-39
-0.00066175772 0.027304845 0.15800001 1.0509951e-38
0.00052497425 0.027347228 0.15800001 1.2629725e-38
0.0015103859 0.027612124 0.15800001 1.3920104e-38
-0.0010008239 0.028915409 0.15800001 1.0509951e-38
-0.00061937439 0.028915409 0.15800001 1.1340068e-38
0.00039782445 0.02853396 0.15800001 1.2906313e-38
0.0012878735 0.02853396 0.15800001 1.4012299e-38
-0.0046881698 0.029932609 0.15800001 3.5956324e-39
-0.0010008239 0.029169708 0.15800001 1.0694343e-38
-0.00057699112 0.029254476 0.15800001 1.1432265e-38
0.00019801753 0.029460337 0.15800001 1.23535e-38
0.0015421732 0.029169708 0.15800001 1.4381085e-38
-0.004338508 0.030472996 0.15800001 3.8732997e-39
0.00035544115 0.030271674 0.15800001 1.31829e-38
-0.0042340634 0.031422079 0.15800001 4.5186691e-39
-0.0035438212 0.031712707 0.15800001 5.2569586e-39
-0.0044084401 0.032628186 0.15800001 5.0711254e-39
-0.0035438212 0.032602753 0.15800001 5.7179367e-39
-0.0043793777 0.033638116 0.15800001 5.9923656e-39
-0.0035438212 0.033492804 0.15800001 6.5477002e-39
-0.0045101605 0.034306563 0.15800001 6.2700315e-39
-0.0053874943 0.035336476 0.15800001 6.2711077e-39
-0.0045610205 0.035200242 0.15800001 7.5611277e-39
-0.0021451726 0.038324498 0.15800001 1.4566555e-38
-0.0017637231 0.040867496 0.15800001 1.4658751e-38
0.0076453662 0.040867496 0.15800001 1.4290328e-38
0.0086262366 0.041339766 0.15800001 1.3921546e-38
0.0095102303 0.041206565 0.15800001 1.3830429e-38
0.00077927404 0.043537639 0.15800001 1.3554561e-38
0.00137264 0.043580025 0.15800001 1.5305919e-38
0.0015421732 0.044300541 0.15800001 1.5213003e-38
0.010508756 -0.036286376 0.15900001 4.1509375e-39
0.010636711 -0.035518646 0.15900001 4.0590992e-39
0.010764665 -0.034878876 0.15900001 4.059095e-39
0.011276484 -0.034111146 0.15900001 4.2424003e-39
0.011276484 -0.033855237 0.15900001 4.2427534e-39
0.010764665 -0.0272016 0.15900001 5.3490954e-39
0.01156438 -0.027585462 0.15900002 7.6521448e-39
0.012044211 -0.027457509 0.15900001 8.3897014e-39
0.021001033 -0.01722114 0.15900001 9.2183677e-39
0.011532392 -0.014534094 0.15900001 6.0852535e-39
0.02368808 -0.014534094 0.15900001 1.0046696e-38
0.011660348 -0.013638412 0.15900002 6.0856108e-39
0.011788302 -0.012870685 0.15900001 5.993418e-39
0.0035139043 -0.0091173509 0.15900001 1.3275811e-38
0.0041110255 -0.0090320483 0.15900001 1.3275811e-38
0.00078420615 -0.0080084112 0.15900001 1.2907028e-38
0.001328013 -0.0083922753 0.15900002 1.3275811e-38
0.0034164153 -0.0084836716 0.15900002 1.3091779e-38
0.00078420615 -0.0074965931 0.15900001 1.2907028e-38
0.0013813275 -0.0074965931 0.15900002 1.3183615e-38
0.0022831026 -0.0074234754 0.15900002 1.3275811e-38
0.0032701811 -0.0075331512 0.15900002 1.290739e-38
-0.00023943068 -0.0062170471 0.15900001 1.2907388e-38
0.00044299389 -0.0064729569 0.15900002 1.2907388e-38
0.0013813275 -0.0064729564 0.15900002 1.2722997e-38
0.0022684794 -0.0066265017 0.15900001 1.2815193e-38
0.014091484 -0.0062170471 0.15900001 7.6529449e-39
0.00044299386 -0.0057052285 0.15900001 1.2722997e-38
0.0013813275 -0.0057052285 0.15900001 1.2630801e-38
0.014091484 -0.0055772746 0.15900001 7.9291703e-39
-0.0012630675 -0.0021225007 0.15900001 1.2262022e-38
-0.0043979553 -0.0016106823 0.15900001 1.1985432e-38
-0.0037368566 -0.0014400762 0.15900001 1.2077628e-38
-0.0010071583 -0.0014827277 0.15900001 1.2999587e-38
-0.00036738531 -0.0016106822 0.15900002 1.2723e-38
0.00044299389 -0.001610682 0.15900002 1.2907391e-38
0.0011254185 -0.0014400762 0.15900001 1.2815195e-38
-0.0034200165 -0.00066016242 0.15900002 1.1248949e-38
-0.0026279166 -0.00050174253 0.15900002 1.1709928e-38
-0.0012950561 -0.00049107958 0.15900002 1.2170545e-38
-0.00036738525 -0.00058704562 0.15900002 1.2538608e-38
0.00044299389 -0.00058704556 0.15900002 1.2723e-38
0.0012594661 -0.00058704556 0.15900002 1.2723e-38
-0.0040780688 0.00056454568 0.15900001 1.0051487e-38
-0.0034565751 0.00069250027 0.15900002 1.0604302e-38
-0.0025193489 0.0005761779 0.15900002 1.1341507e-38
-0.001391022 0.00056454563 0.15900001 1.1986516e-38
-0.00036738528 0.00056454568 0.15900002 1.2355299e-38
0.00044299386 0.00056454574 0.15900002 1.2447493e-38
0.0011680699 0.00056454574 0.15900002 1.2446773e-38
-0.0033103414 0.0014602278 0.15900001 1.124823e-38
-0.0025060552 0.0016430201 0.15900002 1.1525537e-38
-0.0013910221 0.001716137 0.15900002 1.2170908e-38
-0.00036738531 0.001716137 0.15900002 1.253969e-38
0.00044299389 0.001716137 0.15900002 1.2447495e-38
0.0012594661 0.0017526953 0.15900002 1.2447495e-38
-0.0022867045 0.0027397736 0.15900001 1.2169826e-38
-0.0014259189 0.0026234512 0.15900002 1.2446413e-38
-0.00036738528 0.0024838643 0.15900001 1.2723e-38
0.00040034234 0.002611819 0.15900002 1.2723e-38
0.0012594659 0.0026666566 0.15900002 1.2631524e-38
0.0015519337 0.0037634103 0.15900001 1.3091782e-38
-0.00036738528 0.0045311376 0.15900001 1.2814835e-38
0.00044299391 0.0044031832 0.15900002 1.2999226e-38
0.0013813275 0.0041046226 0.15900001 1.3091782e-38
-0.062553324 0.0058106836 0.15900001 7.8351151e-39
-0.0022867045 0.0058106836 0.15900001 9.0355235e-39
-0.0013561253 0.0055082454 0.15900002 1.0141518e-38
-0.00039297622 0.0052476837 0.15900001 1.1892879e-38
0.00056485541 0.0053354236 0.15900002 1.2907031e-38
0.0013472063 0.0055035921 0.15900002 1.3183618e-38
-0.063321054 0.0063225022 0.15900001 7.1901129e-39
-0.062527731 0.0065272292 0.15900001 7.3737839e-39
-0.060889911 0.0068343203 0.15900001 6.3596375e-39
-0.056027636 0.0063225022 0.15900001 3.0435068e-39
-0.055131957 0.0063225022 0.15900001 2.6747326e-39
-0.054748092 0.0063225022 0.15900001 2.7665709e-39
-0.053724453 0.0067063654 0.15900001 2.8602113e-39
-0.0061253426 0.0063225022 0.15900001 4.5179054e-39
-0.0040780688 0.0068343203 0.15900001 4.8884829e-39
-0.0033529929 0.0066637141 0.15900002 6.9139253e-39
-0.0025426133 0.0065784114 0.15900002 8.4816266e-39
-0.0015189765 0.0065784114 0.15900002 9.219563e-39
0.0018078429 0.0063225022 0.15900001 1.35524e-38
-0.062425368 0.0073461388 0.15900001 5.4373309e-39
-0.061273776 0.0076020476 0.15900001 4.7916084e-39
-0.059866276 0.0073461388 0.15900001 5.0689155e-39
-0.057818998 0.0076020476 0.15900001 4.4249853e-39
-0.052803181 0.0075508663 0.15900001 3.4148144e-39
-0.0042827963 0.0075508663 0.15900001 6.546589e-39
-0.0034809473 0.0076020476 0.15900002 8.0210086e-39
-0.0025426135 0.0076020476 0.15900002 9.4961457e-39
-0.0015189766 0.0076020476 0.15900002 1.1615212e-38
-0.055004001 0.0086256843 0.15900001 3.0460221e-39
-0.054492183 0.0086256843 0.15900001 3.0460235e-39
-0.053877998 0.0084721381 0.15900001 3.2304148e-39
-0.052700818 0.0087536387 0.15900001 3.3222559e-39
-0.011414133 0.0084550781 0.15900001 6.2692482e-39
-0.0033743188 0.0082418201 0.15900001 9.8634863e-39
-0.0025106247 0.0084977299 0.15900002 1.1615926e-38
-0.001391022 0.0085403817 0.15900002 1.2906306e-38
-0.00036738528 0.0087536387 0.15900001 1.3643871e-38
0.00018708466 0.0087962905 0.15900001 1.3643513e-38
-0.059098549 0.0091375029 0.15900001 2.8591197e-39
-0.05871468 0.0091375029 0.15900001 2.7672842e-39
-0.057691045 0.0099052303 0.15900001 2.4910631e-39
-0.055515818 0.0096493214 0.15900001 2.2159097e-39
-0.052700818 0.0094787152 0.15900001 2.8616392e-39
-0.0022867045 0.0091375029 0.15900001 1.2998499e-38
-0.0010924614 0.0092228055 0.15900001 1.3643869e-38
-0.00034179437 0.0093934126 0.15900001 1.4104847e-38
0.00027238773 0.0094787152 0.15900002 1.3920458e-38
-0.061401732 0.010161139 0.15900001 5.9858356e-39
-0.059098549 0.010928867 0.15900001 2.4899799e-39
-0.058458775 0.010289093 0.15900001 2.3066718e-39
-0.057371162 0.010481026 0.15900001 2.0308052e-39
-0.056283548 0.010928867 0.15900001 1.7545798e-39
-0.055515818 0.010672959 0.15900001 1.7545784e-39
-0.054236274 0.010417049 0.15900001 2.1233595e-39
-0.053788431 0.010289093 0.15900001 2.3077522e-39
-0.052700818 0.010502352 0.15900001 2.4925036e-39
0.00044299389 0.010502352 0.15900002 1.4749141e-38
-0.059098549 0.011440685 0.15900001 2.3059487e-39
-0.056411501 0.011312731 0.15900001 1.7545812e-39
-0.052786123 0.011440684 0.15900001 2.5843433e-39
-0.0022867045 0.011696595 0.15900001 1.4104128e-38
-0.0016469313 0.011568639 0.15900001 1.4380715e-38
-0.059098549 0.012464322 0.15900001 2.6732921e-39
-0.057051275 0.012336368 0.15900001 2.0300905e-39
-0.056411501 0.012720231 0.15900002 1.7542239e-39
-0.052786123 0.012293716 0.15900001 3.9658456e-39
-0.0030544321 0.012976141 0.15900001 1.2444971e-38
-0.0024857449 0.012691797 0.15900002 1.3182537e-38
-0.0016042797 0.012634928 0.15900002 1.4196328e-38
0.0011254185 0.01267758 0.15900002 1.5394512e-38
-0.057051275 0.013743869 0.15900001 1.9378949e-39
-0.056539457 0.013487959 0.15900001 1.7545826e-39
-0.054236274 0.013871823 0.15900001 2.5825566e-39
-0.053724453 0.013999778 0.15900001 3.0435348e-39
-0.0040780688 0.013999778 0.15900001 1.2536802e-38
-0.0034382958 0.013775857 0.15900002 1.207583e-38
-0.0025426133 0.013743868 0.15900002 1.2629364e-38
-0.001391022 0.013743869 0.15900002 1.4012299e-38
0.00069890311 0.013914474 0.15900001 1.4933534e-38
0.0011424791 0.013692687 0.15900001 1.521048e-38
-0.056539457 0.014767505 0.15900001 1.7545826e-39
-0.054236274 0.014511596 0.15900001 2.5825566e-39
-0.053724449 0.01463955 0.15900002 2.9513392e-39
-0.052871425 0.014682203 0.15900001 4.1498851e-39
-0.004248675 0.014682203 0.15900001 1.2351696e-38
-0.0034809476 0.01463955 0.15900002 1.1891437e-38
-0.0025426138 0.01463955 0.15900002 1.2444971e-38
-0.0014458598 0.014657832 0.15900002 1.4287806e-38
0.00052829698 0.014665142 0.15900001 1.4564391e-38
-0.058842637 0.015023414 0.15900001 3.0384817e-39
-0.056539457 0.015791142 0.15900001 1.8467783e-39
-0.054236274 0.015791142 0.15900001 2.3992444e-39
-0.053724449 0.015151369 0.15900002 2.8595051e-39
-0.052786123 0.015108717 0.15900001 4.3342792e-39
-0.0043339781 0.015364625 0.15900002 1.1153875e-38
-0.0034809476 0.015364625 0.15900002 1.1338266e-38
-0.0025426135 0.015364625 0.15900002 1.2259861e-38
-0.0014259189 0.015325854 0.15900002 1.4378921e-38
-0.00036738528 0.015023414 0.15900001 1.4748424e-38
0.0015519337 0.01544993 0.15900001 1.4933534e-38
0.002149055 0.015620537 0.15900001 1.5394512e-38
-0.057243206 0.016366936 0.15900001 2.0297276e-39
-0.056283545 0.01630296 0.15900001 1.7542253e-39
-0.055515818 0.016558869 0.15900001 1.8464251e-39
-0.054236274 0.016047051 0.15900001 2.5825566e-39
-0.0040780688 0.016047051 0.15900001 1.0416673e-38
-0.0034127049 0.016149415 0.15900001 1.0693257e-38
-0.0025426135 0.01630296 0.15900002 1.2442453e-38
-0.0016725224 0.016251778 0.15900001 1.3734266e-38
0.0018078429 0.016047051 0.15900001 1.5117925e-38
0.0021917066 0.016047051 0.15900001 1.5302317e-38
-0.056283545 0.017411901 0.15900002 1.6620325e-39
-0.055311091 0.017224234 0.15900001 1.8460678e-39
-0.058842637 0.018862052 0.15900001 2.2108916e-39
-0.056368846 0.018179627 0.15900001 1.6620339e-39
-0.0041804323 0.01850378 0.15900001 5.4409911e-39
-0.0035197213 0.018513085 0.15900002 8.0206653e-39
-0.0027985228 0.018734097 0.15900001 9.8634947e-39
-0.062169459 0.01937387 0.15900001 6.8948635e-39
-0.061593663 0.019693758 0.15900001 6.6186395e-39
-0.0033529929 0.019544477 0.15900002 5.9945222e-39
-0.0027985228 0.019501824 0.15900001 6.1778317e-39
-0.061273776 0.020397507 0.15900001 6.0679853e-39
-0.060889911 0.020141598 0.15900001 5.9757911e-39
-0.059610367 0.020909326 0.15900001 2.2108916e-39
-0.054236274 0.020141598 0.15900001 2.6772788e-39
-0.0030544321 0.020141598 0.15900001 5.5324665e-39
-0.066008098 0.021932961 0.15900001 7.5377148e-39
-0.065752186 0.021677053 0.15900001 7.4458821e-39
-0.061316431 0.021847658 0.15900001 5.4265759e-39
-0.060442068 0.021868983 0.15900001 3.4969501e-39
-0.059866276 0.021165235 0.15900001 2.9459357e-39
-0.062297411 0.022444781 0.15900001 6.346733e-39
-0.061657641 0.02218887 0.15900001 5.794641e-39
-0.066136047 0.023468416 0.15900001 7.446238e-39
-0.065752186 0.023724327 0.15900001 7.3544067e-39
-0.062169459 0.023212507 0.15900001 5.5198548e-39
-0.061401732 0.023724327 0.15900001 3.8664501e-39
-0.066093393 0.024492053 0.15900001 7.4466023e-39
-0.065752186 0.024236144 0.15900001 7.1710944e-39
-0.063321054 0.024747962 0.15900001 5.9822707e-39
-0.061401732 0.024236144 0.15900001 3.7756964e-39
-0.066264004 0.025259782 0.15900001 7.5405958e-39
-0.065624237 0.025387736 0.15900001 7.8175443e-39
-0.064216733 0.02551569 0.15900001 6.9056647e-39
-0.063602552 0.025566872 0.15900001 6.1706248e-39
-0.066008098 0.026027508 0.15900001 7.5423965e-39
-0.064216733 0.026027508 0.15900001 7.1862117e-39
-0.063576959 0.026027508 0.15900001 6.4497256e-39
0.0014879564 0.028714554 0.15900001 1.3919386e-38
0.00052829692 0.029610235 0.15900001 1.2905955e-38
0.0018078429 0.029098418 0.15900001 1.4104495e-38
0.00052829692 0.030122053 0.15900001 1.3459128e-38
-0.0022867045 0.038822964 0.15900001 1.4750943e-38
0.010059811 -0.03638583 0.16000001 4.2431332e-39
0.01031733 -0.035613276 0.16000001 4.2434891e-39
0.010832367 -0.0345832 0.16000001 4.4267887e-39
0.023193264 -0.015011782 0.16000001 9.7715359e-39
-0.0077948184 -0.011234842 0.16000001 9.5883399e-39
-0.0082240161 -0.010376446 0.16000001 9.4965016e-39
-0.007966497 -0.010505206 0.16000001 9.4961415e-39
0.033751532 -0.0062561482 0.16000001 9.2187334e-39
-0.0047475137 -0.001492053 0.16000001 1.180068e-38
-0.0043612355 -0.00084825628 0.16000001 1.0695772e-38
-0.0083527751 0.00095437432 0.16000001 1.5392702e-38
-0.0076231384 0.00082561496 0.16000001 1.5484896e-38
-0.0066467142 0.00072904548 0.16000001 1.5393059e-38
-0.005648829 0.00069685566 0.16000001 1.3089616e-38
-0.0046923314 0.00073364406 0.16000001 1.0141882e-38
-0.0084386142 0.0016410908 0.16000001 1.5483816e-38
-0.0076721902 0.0016533535 0.16000001 1.5299424e-38
-0.0066789044 0.0017269304 0.16000001 1.3733179e-38
-0.005648829 0.0017269304 0.16000001 1.1153866e-38
-0.0044899946 0.0017269304 0.16 1.0878724e-38
-0.0033826646 0.0018814415 0.16000001 1.1340424e-38
-0.0028161234 0.0019844489 0.16000001 1.1524457e-38
-0.004361236 0.0022419677 0.16000001 1.0971277e-38
-0.0033311611 0.0024994863 0.16000001 1.143226e-38
-0.0026444446 0.0024136468 0.16000001 1.1708848e-38
-0.0010134926 0.0031432828 0.16000001 1.2630804e-38
-0.00065296644 0.0032720421 0.16000001 1.2630804e-38
0.00034767762 0.0034927723 0.16000001 1.2723e-38
0.0013041756 0.0032720421 0.16000001 1.2907391e-38
-0.060757827 0.004302117 0.16000001 9.5889775e-39
-0.00049845525 0.004302117 0.16000001 1.2814835e-38
0.0004028602 0.0040445984 0.16000001 1.2907031e-38
-0.063075498 0.0055897101 0.16000001 7.7436398e-39
-0.055452943 0.0057442216 0.16000001 2.9513153e-39
-0.054503802 0.0055161333 0.16000001 3.2275505e-39
-0.060757827 0.006619785 0.16000001 7.0060803e-39
-0.054384239 0.0064266459 0.16000001 3.0435222e-39
-0.053547304 0.006619785 0.16000001 3.3219083e-39
-0.052645989 0.0068773036 0.16000001 4.3349813e-39
-0.0059063477 0.006619785 0.16000001 4.2424003e-39
-0.062174179 0.0076498594 0.16000001 5.068554e-39
-0.061787903 0.0073923408 0.16000001 5.1603881e-39
-0.059212714 0.0079073785 0.16000001 4.7019309e-39
-0.058697678 0.007778619 0.16000001 4.7944824e-39
-0.052517232 0.0073923408 0.16000001 3.8747178e-39
-0.0047475137 0.0076498594 0.16000001 5.6249886e-39
-0.062045421 0.0085940948 0.16000001 4.8841669e-39
-0.05844016 0.0081648966 0.16000001 4.2413185e-39
-0.056122489 0.0089374529 0.16000001 2.7694352e-39
-0.052590806 0.0086431457 0.16000001 3.5066471e-39
-0.010799203 0.0089374529 0.16000001 5.1632622e-39
-0.0042324765 0.0084224157 0.16000001 9.0344402e-39
-0.0035028399 0.0088516129 0.16000001 1.1062029e-38
-0.057410084 0.0099675274 0.16000001 2.3070277e-39
-0.05625125 0.0095812492 0.16000001 2.3084627e-39
-0.052774746 0.0095383292 0.16000001 2.9538349e-39
-0.0030736423 0.0091949711 0.16000001 1.2260934e-38
-0.059212714 0.010482565 0.16000001 2.4899799e-39
-0.05844016 0.010568404 0.16000001 2.1229994e-39
-0.057281323 0.010353805 0.16000001 2.0308038e-39
-0.056637526 0.010353805 0.16000001 1.9386095e-39
-0.054384239 0.010868843 0.16000001 2.1233623e-39
-0.053804822 0.010997602 0.16000001 2.3077536e-39
-0.052774746 0.010568404 0.16000001 2.4928623e-39
-0.0044899946 0.010997602 0.16000001 1.4564024e-38
-0.054614164 0.011512638 0.16000001 1.9389753e-39
-0.053804826 0.01151264 0.16000001 2.3077564e-39
-0.052774746 0.01138388 0.16000001 2.5850608e-39
-0.0053913104 0.011255121 0.16000001 1.4563308e-38
-0.0044899951 0.011512638 0.16 1.4471471e-38
-0.0033311609 0.011641398 0.16000001 1.4195965e-38
-0.0026873644 0.011512639 0.16000001 1.4195963e-38
-0.057667602 0.012800233 0.16000001 2.1219246e-39
-0.054620299 0.012456874 0.16000001 2.3074033e-39
-0.053676061 0.012413954 0.16000001 3.2282806e-39
-0.0053913104 0.012671473 0.16000001 1.4378917e-38
-0.0044899951 0.012542714 0.16 1.3641711e-38
-0.0033633506 0.012510524 0.16000001 1.2720479e-38
-0.0028161234 0.012285195 0.16000001 1.3642795e-38
-0.057410084 0.013315271 0.16000001 1.9378949e-39
-0.054430224 0.013388849 0.16000001 2.7676626e-39
-0.053701818 0.013469781 0.16000001 3.4123145e-39
-0.0053913104 0.013057752 0.16000001 1.3457325e-38
-0.0045251106 0.013455735 0.16 1.3458038e-38
-0.0035886795 0.013057752 0.16000001 1.2260215e-38
-0.053547304 0.014087827 0.16000001 3.5967086e-39
-0.05260307 0.014774543 0.16000001 5.5313833e-39
-0.0047732657 0.014448354 0.16000001 1.2720477e-38
-0.057152566 0.015246661 0.16000001 1.9378921e-39
-0.053461466 0.015718779 0.16000001 3.5970715e-39
-0.052774746 0.01546126 0.16000001 5.0707652e-39
-0.0048762732 0.015246661 0.16000001 1.1153875e-38
-0.058568917 0.016405495 0.16000001 2.0290087e-39
-0.057410087 0.016577175 0.16000001 2.0297276e-39
-0.056895047 0.016663013 0.16000001 1.7545826e-39
-0.052774746 0.016147977 0.16000001 4.9785696e-39
-0.004296856 0.016405495 0.16000001 9.7716634e-39
-0.0034599202 0.016663013 0.16000001 9.9560532e-39
-0.057345703 0.017371189 0.16000001 1.7535064e-39
-0.056465846 0.017435569 0.16000001 1.6620339e-39
-0.055521611 0.017693087 0.16000001 1.8460706e-39
-0.058354318 0.018894842 0.16000001 2.0286584e-39
-0.057538845 0.018497832 0.16000001 1.8446273e-39
-0.056444388 0.018594403 0.16000001 1.6613192e-39
-0.055607453 0.018465644 0.16000001 1.846072e-39
-0.061530381 0.019650228 0.16000001 6.3434932e-39
-0.059405852 0.019688856 0.16000001 2.3945654e-39
-0.05861184 0.019581558 0.16000001 1.8439098e-39
-0.056895047 0.019495718 0.16000001 2.0283039e-39
-0.061015345 0.020525793 0.16000001 5.1499905e-39
-0.060586151 0.020268274 0.16000001 4.0476044e-39
-0.059587285 0.020408738 0.16 2.3030859e-39
-0.058633301 0.020525793 0.16000001 1.8439084e-39
-0.055349935 0.020654552 0.16000001 2.2162993e-39
-0.067367472 0.021470027 0.16000001 7.81358e-39
-0.06680952 0.021298349 0.16000001 7.7210242e-39
-0.059598994 0.021375606 0.16 2.0279395e-39
-0.058491658 0.021143839 0.16000001 1.8442741e-39
-0.055607453 0.021105211 0.16000001 2.1248239e-39
-0.067195795 0.022585943 0.16000001 7.7228249e-39
-0.062174179 0.022585943 0.16000001 5.7953613e-39
-0.061375868 0.022482935 0.16000001 4.0486834e-39
-0.06062907 0.022457182 0.16000001 2.7622662e-39
-0.059985273 0.022199664 0.16000001 2.211972e-39
-0.067195795 0.0233585 0.16000001 7.6306279e-39
-0.066852443 0.023272658 0.16000001 7.446238e-39
-0.062217101 0.023272658 0.16000001 4.9681201e-39
-0.06144454 0.023186818 0.16000001 3.3143595e-39
-0.060757827 0.02310098 0.16000001 2.6707908e-39
-0.066938274 0.024388572 0.16000001 7.4469583e-39
-0.063590534 0.025676167 0.16000001 5.6192503e-39
0.010122685 -0.036354117 0.16100001 4.2431332e-39
0.010185559 -0.035667334 0.162 4.4275146e-39
0.010446297 -0.034754753 0.162 4.703356e-39
-0.0065016523 -0.024064511 0.162 7.2841596e-39
-0.005849808 -0.024064511 0.162 7.5607493e-39
-0.0065016523 -0.023673404 0.162 7.0075727e-39
-0.005849808 -0.023673404 0.162 7.5607479e-39
0.024115607 -0.013809966 0.16100001 1.1799117e-38
-0.0073684677 -0.011348248 0.16100001 1.0049315e-38
-0.0066476488 -0.011328287 0.16133334 1.0877997e-38
-0.0074116858 -0.010429388 0.16118182 1.0233707e-38
-0.0066250637 -0.010495074 0.16183333 1.106311e-38
-0.0059149922 -0.010506151 0.162 1.1339335e-38
-0.0082754157 -0.0099230427 0.16100001 1.0418101e-38
-0.0073905466 -0.0096939271 0.16150001 1.0970913e-38
-0.0066320212 -0.0099846767 0.162 1.1801395e-38
-0.05434702 -0.0064647188 0.162 1.106382e-38
-0.053449549 -0.0065519148 0.16175 1.1616635e-38
0.032869738 -0.00633435 0.162 9.4027561e-39
0.033260845 -0.00633435 0.162 8.9421437e-39
-0.053173702 -0.0054652244 0.162 9.4968547e-39
-0.0065016523 -0.0050306618 0.162 1.2353854e-38
0.032869738 -0.0056825057 0.162 1.0047045e-38
0.033217389 -0.0057259616 0.162 9.2176572e-39
-0.053304069 -0.0043788175 0.162 8.2993905e-39
-0.0071100406 -0.0043353611 0.162 1.2722274e-38
-0.0066754776 -0.004422274 0.162 1.2538603e-38
0.033391211 -0.0042484486 0.162 1.2350501e-38
-0.053397186 -0.0036152289 0.16200002 7.8380509e-39
0.03370335 -0.0034448395 0.16100001 1.2624581e-38
-0.053173702 -0.0025971106 0.162 7.3774314e-39
-0.053173698 -0.0019018101 0.162 7.2852358e-39
-0.052845463 -0.0015013783 0.16100001 7.2852358e-39
-0.0075446032 -0.0013803347 0.162 1.2445323e-38
-0.0054418538 -0.0015056385 0.16150001 1.180068e-38
-0.0073707779 -0.0007284907 0.162 1.3273646e-38
-0.0054587014 -0.00085885945 0.162 1.106347e-38
-0.0049372264 -0.00085885945 0.162 1.0787243e-38
-0.0084049795 0.00057164696 0.16100001 1.5300506e-38
-0.0074980315 0.00044208288 0.16100001 1.5484896e-38
-0.0076275957 0.0019968518 0.16100001 1.5115033e-38
-0.050305583 0.0021396233 0.162 1.5119353e-38
-0.0082754157 0.0022559799 0.16100001 1.5023916e-38
-0.0074980319 0.0022559799 0.16100001 1.4470743e-38
-0.0067206468 0.0022559799 0.16100001 1.2995615e-38
-0.00050157058 0.0038107489 0.16100001 1.2630804e-38
0.00079407037 0.0038107489 0.16100001 1.2907391e-38
-0.061396696 0.0045881332 0.16100001 1.0049234e-38
-0.06043452 0.0043343827 0.16120002 9.2202034e-39
-0.00050157058 0.0040698769 0.16100001 1.2814835e-38
-0.061396696 0.0051063895 0.16100001 9.6804515e-39
-0.060527544 0.0054630022 0.16133334 9.3113102e-39
-0.05927496 0.0054509914 0.162 8.0209413e-39
-0.058616593 0.005431436 0.162 7.0997137e-39
-0.056778207 0.0057716779 0.16150001 3.6903041e-39
-0.055631094 0.0053007361 0.16100001 3.228261e-39
-0.054788925 0.0057542101 0.16100001 3.3197461e-39
-0.043396033 0.0056595816 0.162 1.843732e-38
-0.063472837 0.0065721637 0.162 7.1897513e-39
-0.062777571 0.0067756535 0.16166668 7.0053615e-39
-0.061526261 0.0065315943 0.16100001 7.6510854e-39
-0.060434986 0.0065951925 0.161375 7.3748601e-39
-0.059496589 0.0066699395 0.162 6.6380153e-39
-0.058562279 0.0065721627 0.16199999 5.623513e-39
-0.057736609 0.0065069785 0.162 4.2416744e-39
-0.054998863 0.0064417943 0.162 3.0431634e-39
-0.0070231277 0.0067025321 0.162 3.8736178e-39
-0.0064815856 0.0068122139 0.16150001 3.8736178e-39
-0.0059432625 0.0069202865 0.16100001 4.058009e-39
-0.06295146 0.0076976712 0.16100001 5.0681953e-39
-0.060165837 0.0076328889 0.16100001 5.2533068e-39
-0.059496421 0.0075249188 0.16100001 5.4387686e-39
-0.05821928 0.0077177021 0.16142859 3.8728975e-39
-0.053434439 0.007745483 0.162 3.7832368e-39
-0.052413583 0.0075249188 0.16100001 4.24278e-39
-0.0066320212 0.0076151141 0.162 3.5970309e-39
-0.0055726245 0.0075916108 0.16150001 4.150206e-39
-0.063603207 0.0087884329 0.162 6.7251901e-39
-0.060101051 0.0086478079 0.16100001 3.5037618e-39
-0.05935606 0.008701792 0.16100001 3.3204496e-39
-0.058320384 0.0085498281 0.16133335 3.504838e-39
-0.057866979 0.0080062207 0.162 3.8736178e-39
-0.053304069 0.0080062207 0.162 3.5995616e-39
-0.0070883124 0.0082669584 0.162 3.8736192e-39
-0.0066972058 0.0082669575 0.162 4.2424017e-39
-0.0054587014 0.0080062207 0.162 5.3484045e-39
-0.0046552406 0.0086829644 0.16125001 9.1269946e-39
-0.059064541 0.0092524402 0.16100001 2.7680031e-39
-0.058217395 0.0093049379 0.16116668 2.7683618e-39
-0.057598669 0.0093963705 0.16125001 2.5850467e-39
-0.056991514 0.0095115686 0.16100001 2.4928511e-39
-0.052833814 0.0094430419 0.16160001 3.2300616e-39
-0.0070231277 0.0090491707 0.162 7.0061308e-39
-0.0044745235 0.009360726 0.16175 1.1338252e-38
-0.0037838609 0.0094251921 0.16100001 1.1983626e-38
-0.057250645 0.010029824 0.16100001 2.3070277e-39
-0.053173698 0.010483228 0.162 2.585058e-39
-0.052879214 0.010060973 0.16150001 2.8616434e-39
-0.0082754157 0.01054808 0.16100001 1.0047871e-38
-0.0075498573 0.01044443 0.16100001 1.2165852e-38
-0.0054426584 0.010580839 0.16150001 1.3642428e-38
-0.0046006804 0.010360883 0.161625 1.3274003e-38
-0.0038054548 0.010353735 0.16100001 1.38279e-38
-0.054659363 0.011584593 0.16100001 2.0311695e-39
-0.053173698 0.011135072 0.162 2.5850594e-39
-0.0083617913 0.011152714 0.16100001 9.4014235e-39
-0.0074744746 0.011419695 0.16100001 1.1981102e-38
-0.0064874315 0.011532767 0.16100001 1.4102326e-38
-0.0057211528 0.011473539 0.16100001 1.447111e-38
-0.0035247328 0.011195901 0.16100001 1.4748417e-38
-0.054529801 0.012793858 0.16100001 2.7683814e-39
-0.053622849 0.012880234 0.16100001 4.1491579e-39
-0.0081529906 0.012873323 0.162 6.7284761e-39
-0.0074709035 0.012647506 0.16133334 9.7698515e-39
-0.0064615184 0.012621108 0.16100001 1.2626837e-38
-0.0058136987 0.012556324 0.16100001 1.4102329e-38
-0.054216649 0.013742448 0.162 3.5970631e-39
-0.053622849 0.013916746 0.16100001 4.3331974e-39
-0.007442703 0.013540883 0.16166668 6.8213948e-39
-0.0064245006 0.01358358 0.16100001 9.4014361e-39
-0.0057359603 0.013709444 0.16100001 1.1060234e-38
-0.053398807 0.014262819 0.16150001 4.9785654e-39
-0.0055545704 0.014499784 0.16100001 1.0046447e-38
-0.054529797 0.015989771 0.16100001 2.5836356e-39
-0.053173698 0.015437242 0.162 5.623939e-39
-0.0056100977 0.015619589 0.16100001 7.0990677e-39
-0.054544587 0.016440915 0.16142859 2.8598638e-39
-0.053268712 0.016385738 0.16150001 5.0707638e-39
-0.0054480061 0.016403094 0.16166668 6.3615069e-39
-0.059391003 0.017450893 0.161625 2.3034446e-39
-0.058507632 0.017441817 0.16125001 2.0290143e-39
-0.055405561 0.017617188 0.16166668 2.2148559e-39
-0.054652847 0.017105598 0.16175 2.8602253e-39
-0.05352135 0.017132036 0.162 4.9785682e-39
-0.05912932 0.01851627 0.16100001 2.1204939e-39
-0.058546286 0.01845149 0.16100001 2.0286584e-39
-0.056473259 0.018840181 0.16100001 1.6616793e-39
-0.05563736 0.01859073 0.16133335 2.1226603e-39
-0.058235336 0.019410264 0.16100001 1.9364656e-39
-0.0577689 0.019099308 0.16100001 2.0286584e-39
-0.056695368 0.019654585 0.16100001 1.9371872e-39
-0.055716768 0.019420886 0.16125 2.3074159e-39
-0.061586566 0.020459093 0.16150001 5.5162534e-39
-0.059170667 0.020347802 0.162 1.751717e-39
-0.058788717 0.020391416 0.16166668 1.8439126e-39
-0.05673239 0.020567702 0.16100001 2.0311849e-39
-0.055695876 0.020135822 0.16100001 2.3074159e-39
-0.05491849 0.020135822 0.16100001 2.4928875e-39
-0.067356646 0.021949718 0.16100001 7.5377148e-39
-0.059582796 0.021949718 0.16100001 1.9361026e-39
-0.058327675 0.021381056 0.16140001 1.9379103e-39
-0.057866979 0.02117347 0.162 2.2152161e-39
-0.056818765 0.02125871 0.16100001 2.1248239e-39
-0.060101055 0.022208847 0.16100001 2.1204939e-39
-0.059285417 0.022178149 0.16125001 1.8449916e-39
-0.05890993 0.022086052 0.162 1.8449972e-39
-0.062174078 0.023504488 0.16100001 4.2330774e-39
-0.061785385 0.023634052 0.16100001 2.9470176e-39
-0.062174078 0.024281872 0.16100001 3.867169e-39
-0.061759472 0.024541 0.16100001 3.408716e-39
0.0094613917 -0.036805719 0.163 4.51972e-39
0.010248433 -0.035231635 0.163 4.9795898e-39
-0.0074162763 -0.023513464 0.163 6.6387902e-39
-0.0065417867 -0.023557186 0.163 7.1919654e-39
-0.005387459 -0.02363589 0.163 8.0217275e-39
-0.0074162763 -0.022813872 0.163 7.7458608e-39
-0.006373134 -0.02256402 0.163 8.5752628e-39
-0.005387458 -0.022691444 0.163 8.3908701e-39
-0.0068041333 -0.0095216166 0.163 1.1892152e-38
0.0050014891 -0.0071604922 0.163 1.2722997e-38
-0.05533836 -0.0063734506 0.163 1.0418451e-38
-0.055163462 -0.0055426848 0.163 9.035878e-39
-0.054376423 -0.0054552364 0.163 9.2202678e-39
-0.053764276 -0.0053240624 0.163 9.2202678e-39
-0.0083782161 -0.0055864095 0.163 1.2169463e-38
-0.0075911749 -0.0053240624 0.163 1.226094e-38
-0.0066467249 -0.0052715931 0.163 1.2353854e-38
-0.055076014 -0.0042746738 0.163 7.8380523e-39
-0.054603785 -0.0043271431 0.163 7.930608e-39
-0.0085531138 -0.0041872249 0.163 1.2445325e-38
-0.0077879354 -0.0043402603 0.163 1.2444968e-38
-0.054288972 -0.0033564589 0.163 7.4696271e-39
-0.0091652572 -0.0034876324 0.163 1.2537521e-38
-0.0086405631 -0.0033564586 0.163 1.2260934e-38
-0.054026622 -0.002962938 0.163 7.4696271e-39
-0.051140804 0.0020216575 0.163 1.4933886e-38
-0.057305962 0.003333393 0.163 5.256562e-39
-0.060235504 0.0045576799 0.163 9.128012e-39
-0.059361022 0.0044265059 0.163 7.9305576e-39
-0.058748871 0.0046451287 0.163 7.1004396e-39
-0.064520508 0.0056945174 0.163 7.8351151e-39
-0.062421732 0.0055633439 0.163 9.5882572e-39
-0.060257368 0.0053665838 0.163 8.758498e-39
-0.058617696 0.0051698228 0.163 6.8234911e-39
-0.057437137 0.0054321699 0.163 4.7048077e-39
-0.056650095 0.0051698228 0.163 3.5966777e-39
-0.063471124 0.0067439061 0.163 7.7429251e-39
-0.062421732 0.0062192115 0.163 9.2184027e-39
-0.060126197 0.006415972 0.163 7.9276681e-39
-0.05533836 0.0062192115 0.163 3.1353591e-39
-0.0073288274 0.0077932943 0.163 3.5048352e-39
-0.0065417862 0.0077058449 0.163 3.6892265e-39
-0.057961833 0.0085803354 0.163 3.4130039e-39
-0.007722348 0.0083835749 0.163 3.5966693e-39
-0.0062466459 0.0084491614 0.163 5.440233e-39
-0.0054923976 0.0085803354 0.163 7.6518631e-39
-0.057961833 0.0091050304 0.163 2.7694352e-39
-0.052977234 0.0098920716 0.163 3.1385863e-39
-0.0075037256 0.0092799282 0.163 7.1898004e-39
-0.0066292356 0.0093236528 0.163 9.0333584e-39
-0.0052300505 0.0092362035 0.163 1.0416654e-38
-0.0049677035 0.0098920716 0.163 1.1890707e-38
-0.052977234 0.010154419 0.163 3.0460347e-39
-0.0053612241 0.010285592 0.163 1.2628633e-38
-0.053567518 0.011794088 0.163 3.0456802e-39
-0.054245248 0.01356493 0.163 4.241715e-39
-0.053659339 0.013407523 0.163 5.2551481e-39
-0.052977234 0.014614319 0.163 6.7299236e-39
-0.052977234 0.015270187 0.163 6.9143149e-39
-0.059798263 0.017762484 0.163 2.1204939e-39
-0.05528589 0.017657544 0.163 2.6758341e-39
-0.054485731 0.017565725 0.163 3.8729381e-39
-0.053676825 0.017675035 0.163 5.4391876e-39
-0.052977234 0.017762484 0.163 6.8221221e-39
-0.055338357 0.018462079 0.163 2.7680297e-39
-0.05537115 0.019434948 0.163 2.860947e-39
-0.054638769 0.019424016 0.163 3.7821844e-39
-0.062421732 0.02091065 0.163 5.7924788e-39
-0.059011221 0.020123608 0.163 2.0283039e-39
-0.058617696 0.020123608 0.163 1.9361082e-39
-0.056125402 0.020123608 0.163 2.3996129e-39
-0.055469535 0.020123608 0.163 2.8605897e-39
-0.059011221 0.021172997 0.163 2.0283039e-39
-0.057961833 0.021697693 0.163 2.1248239e-39
-0.058486525 0.022222387 0.163 2.2155776e-39
0.0089915236 -0.036503606 0.164 4.7959342e-39
0.0095194373 -0.036371626 0.164 4.703384e-39
0.010311307 -0.034919865 0.164 4.8877445e-39
-0.0056580715 -0.02224995 0.164 8.8514881e-39
-0.0049321908 -0.022513907 0.164 8.2057586e-39
-0.0056580715 -0.021722037 0.164 8.6670969e-39
-0.0031504831 -0.02145808 0.164 6.9153799e-39
0.022717271 -0.015387078 0.164 1.1431413e-38
0.023245184 -0.015123121 0.164 1.115447e-38
0.023377161 -0.014595208 0.164 1.1706927e-38
-0.056258567 -0.0054095159 0.164 8.6670941e-39
-0.05594182 -0.0052247467 0.164 8.4827028e-39
-0.0085615944 -0.0052247467 0.164 1.2352775e-38
-0.056337755 -0.0043008993 0.16400002 7.7458552e-39
-0.05594182 -0.0043008984 0.164 7.7458566e-39
-0.0086935731 -0.0045648552 0.164 1.2444971e-38
-0.056469731 -0.0034034462 0.164 7.3763524e-39
-0.055519484 -0.0034034462 0.164 7.5607437e-39
-0.054710019 -0.0026291732 0.164 7.3770713e-39
-0.0082976371 -0.0029811156 0.164 1.235313e-38
-0.007336081 -0.0026794507 0.16400002 1.2629717e-38
-0.054622035 -0.001573347 0.164 7.1008445e-39
-0.051454552 0.0025619734 0.164 1.3920087e-38
-0.060956996 0.0033538435 0.164 4.1498543e-39
-0.060429081 0.0042776912 0.164 8.7599525e-39
-0.059901167 0.0044096699 0.164 8.2989828e-39
-0.058845341 0.0046736267 0.164 6.455796e-39
-0.058493402 0.0055534821 0.164 5.8100637e-39
-0.063464582 0.0065213228 0.164 8.5730361e-39
-0.0084824078 0.0086857677 0.164 3.7806963e-39
-0.0083768247 0.0092664715 0.164 4.702298e-39
-0.0061595896 0.0095832199 0.164 1.0599967e-38
-0.0057240603 0.0096228141 0.164 1.1153501e-38
-0.05343423 0.01061265 0.164 2.8616448e-39
-0.0063179634 0.010322299 0.164 1.3181806e-38
-0.0057900497 0.010216716 0.164 1.2905938e-38
-0.053460628 0.011589291 0.164 2.9534817e-39
-0.05277434 0.011800456 0.164 4.1505872e-39
-0.054094121 0.012856282 0.164 4.8867229e-39
-0.053566206 0.012328369 0.164 4.4264594e-39
-0.05277434 0.012064412 0.164 5.2569376e-39
-0.053654194 0.013824123 0.164 5.9919929e-39
-0.053566206 0.014176064 0.164 6.0845514e-39
-0.05270835 0.014637988 0.164 7.6515198e-39
-0.05264236 0.015363868 0.164 7.8362712e-39
-0.053434234 0.016419696 0.16400002 6.5451723e-39
-0.052686352 0.016111746 0.164 8.0195835e-39
-0.054754011 0.017871456 0.164 4.0569721e-39
-0.05356621 0.017475523 0.164 6.2689469e-39
-0.055149954 0.018575341 0.164 3.5045185e-39
-0.054622035 0.018399371 0.164 4.3339191e-39
-0.05369819 0.018135414 0.164 6.2689483e-39
-0.055413906 0.019719154 0.164 3.321565e-39
-0.054490056 0.019455198 0.164 4.7037806e-39
-0.059505232 0.021038936 0.164 1.9361082e-39
-0.059373256 0.022358719 0.164 1.9382718e-39
-0.058581386 0.022358719 0.164 2.0311863e-39
0.0093119163 -0.036327839 0.16500001 4.9803142e-39
0.0097102653 -0.035531141 0.16500001 5.3483569e-39
-0.057079624 -0.0056549548 0.16500001 8.9436824e-39
-0.057572816 -0.0044029998 0.16500001 7.6536596e-39
-0.057610758 -0.0033976424 0.16500001 7.1919612e-39
-0.056282923 -0.0032648596 0.16500001 7.4685481e-39
-0.057307247 -0.002581975 0.16500001 6.9153743e-39
-0.056371443 -0.002645205 0.16500001 7.2841568e-39
-0.055645566 -0.0025743875 0.16500001 7.3763524e-39
-0.007949885 -0.0027337272 0.16500001 1.2814108e-38
-0.057300925 -0.0017157238 0.16500001 7.0997641e-39
-0.056371443 -0.0015829406 0.16500001 7.2845155e-39
-0.055619013 -0.0015829407 0.16500001 7.2845155e-39
-0.054955091 -0.0007419812 0.16500001 7.2852358e-39
-0.05141421 0.0027546391 0.16500001 1.3182525e-38
-0.050883081 0.0027546391 0.16500001 1.3735699e-38
-0.061240155 0.0037283821 0.16500001 6.2714132e-39
-0.060664766 0.003905426 0.16500001 7.9298471e-39
-0.050971601 0.0031087273 0.16500001 1.1891786e-38
-0.060266417 0.0041709919 0.16500001 8.2067899e-39
-0.058540236 0.0047021243 0.16500001 5.9948249e-39
-0.058540236 0.0052332566 0.16500001 5.3505345e-39
-0.050706036 0.0068266531 0.16500001 1.1431171e-38
-0.050573252 0.0073577855 0.16500001 8.8504119e-39
-0.05349448 0.01147406 0.16500001 3.0456774e-39
-0.054291178 0.012669108 0.16500001 4.611215e-39
-0.053361699 0.012669108 0.16500001 6.1774589e-39
-0.053560872 0.013731371 0.16500001 6.5451652e-39
-0.053361695 0.016785383 0.16500001 7.3742141e-39
-0.054423962 0.018777128 0.16500001 5.5317434e-39
-0.054955091 0.019175477 0.16500001 4.4264748e-39
-0.059602499 0.020636091 0.16500001 2.0283039e-39
-0.059469718 0.021167222 0.16500001 2.0283039e-39
0.0088339997 -0.036147244 0.16600001 5.9933703e-39
0.0091011757 -0.036280833 0.16600001 5.7167877e-39
0.0095687332 -0.035412513 0.16600001 5.6245794e-39
0.010169879 -0.035078544 0.16600001 5.2561556e-39
-0.0084433584 -0.0023940613 0.16600001 1.2445325e-38
-0.05737213 -0.00066632545 0.16600001 8.022798e-39
-0.056590635 -0.00064628728 0.16600001 7.7454923e-39
-0.055755716 -0.00054609642 0.16600001 7.7451336e-39
-0.052816782 0.002593217 0.16600001 1.2537513e-38
-0.060765259 0.0036619196 0.16600001 5.9008398e-39
-0.052527338 0.0032611557 0.16600001 1.0048589e-38
-0.051509529 0.0034710797 0.16600001 1.0786157e-38
-0.050746169 0.0031275682 0.16600001 1.244496e-38
-0.059562966 0.0044634463 0.16600001 6.5483546e-39
-0.045669831 0.0057993243 0.16600001 1.8068537e-38
-0.056624036 0.0063336757 0.16600001 3.0431606e-39
-0.045402654 0.0063336757 0.16600001 1.779195e-38
-0.044734716 0.0063336757 0.16600001 1.8252928e-38
-0.054753806 0.0087382561 0.16600001 3.6910384e-39
-0.054219455 0.013013066 0.16600001 5.6242851e-39
-0.053417929 0.013547417 0.16600001 6.9150268e-39
-0.053417929 0.014081768 0.16600001 7.558957e-39
-0.042719532 -0.039244838 0.16700003 4.0587447e-39
-0.041913174 -0.039052851 0.16700001 3.9665491e-39
-0.042585135 -0.038515281 0.16700001 4.0587447e-39
0.009424787 -0.035424255 0.16700001 5.8089679e-39
0.0096935723 -0.034752291 0.16700001 5.6238592e-39
0.033615451 -0.0035732184 0.16700001 1.2165786e-38
-0.05804028 -0.00034779732 0.16700001 8.7589268e-39
-0.05804028 0.00018977288 0.16700001 9.8645512e-39
-0.057637107 0.00059295056 0.16700003 9.3120977e-39
-0.056588843 0.00056607206 0.16700004 8.4823385e-39
-0.057502713 0.0016680909 0.16700001 7.2841554e-39
-0.056696355 0.0015336984 0.16700001 7.6529351e-39
-0.05756991 0.0025416424 0.16700001 6.6387846e-39
-0.056965142 0.0023400537 0.16700001 7.3763482e-39
-0.054008506 0.0027432311 0.16700001 1.1247133e-38
-0.053739719 0.0027432311 0.16700001 1.1615915e-38
-0.054098099 0.0033255992 0.16700001 8.5741768e-39
-0.053739719 0.0032808017 0.16700001 8.9429579e-39
-0.056696355 0.00583426 0.16700001 3.4119404e-39
-0.048632801 0.0069094007 0.16700001 1.6501211e-38
-0.051455043 0.0079845414 0.16700001 5.9026671e-39
-0.048274416 0.0073573757 0.16700001 1.6500491e-38
-0.051051866 0.0091940742 0.16700001 4.2431346e-39
-0.0541429 0.013091458 0.16700001 6.1774589e-39
-0.055621214 0.019004729 0.16700001 4.4253958e-39
-0.043245729 -0.040368278 0.16800001 4.5197228e-39
-0.042569742 -0.03969229 0.16800001 4.0587447e-39
-0.043380924 -0.038610712 0.16800001 3.9672707e-39
-0.058387831 0.0016780795 0.16800001 7.191601e-39
-0.057306256 0.0018132768 0.16800003 7.5603836e-39
-0.058387831 0.0024892632 0.16800001 5.9937753e-39
-0.057198096 0.0026785394 0.16800001 7.2841526e-39
-0.05649507 0.002534329 0.16800003 7.9295262e-39
-0.054331914 0.0020836713 0.16800001 1.2260926e-38
-0.060280595 0.0031652497 0.16800001 4.1498613e-39
-0.058387831 0.003300447 0.16800001 5.9937683e-39
-0.057441447 0.0035257761 0.168 5.9934082e-39
-0.05649507 0.0031652497 0.16800001 7.0075699e-39
-0.054872703 0.0031652497 0.16800001 8.8511224e-39
-0.065688491 0.0045172228 0.16800001 9.496063e-39
-0.057306252 0.0042468281 0.16800001 4.3342498e-39
-0.067040458 0.0054636039 0.16800001 8.4811964e-39
-0.066364475 0.005328407 0.168 8.8499775e-39
-0.065688491 0.0054636039 0.168 9.1269245e-39
-0.057576649 0.0055988012 0.16800001 3.1353535e-39
-0.066499673 0.006409985 0.16800001 7.6507267e-39
-0.065688491 0.006409985 0.16800001 8.2038977e-39
-0.052439146 0.0068155769 0.16800001 9.9571196e-39
-0.048743755 0.0067705116 0.16800003 1.6777798e-38
-0.046490464 0.006409985 0.16800001 1.779195e-38
-0.052529275 0.0075816945 0.16800003 6.4558423e-39
-0.052303948 0.00816755 0.16800001 4.9810667e-39
-0.051627964 0.0085731419 0.16800001 4.9803465e-39
-0.048653621 0.0080323527 0.16800001 1.6315741e-38
-0.04321333 -0.041122466 0.17 4.6119185e-39
-0.043231141 -0.040744569 0.16900001 4.5197228e-39
-0.042745024 -0.040592708 0.16950001 4.243136e-39
-0.044471953 -0.038605221 0.17 4.3360547e-39
-0.043639146 -0.038568538 0.16900001 4.0594678e-39
-0.051832162 -0.026073722 0.17 6.5465946e-39
-0.052242581 -0.025252881 0.17 7.0075727e-39
-0.051968966 -0.025526494 0.17 6.9153771e-39
-0.052242581 -0.024979267 0.17 7.3774342e-39
-0.051968966 -0.024979267 0.17 7.4696299e-39
0.023681873 -0.014496176 0.16900001 1.1614372e-38
-0.056894016 0.0029293178 0.17 8.1139175e-39
-0.055471327 0.0025494145 0.16900001 1.0141504e-38
-0.061819062 0.0034765447 0.17 4.3331666e-39
-0.057103351 0.0034560945 0.16900001 6.2699979e-39
-0.056418177 0.0032873191 0.16966666 7.2845155e-39
-0.057103351 0.0040001026 0.16900001 4.8874236e-39
-0.056559339 0.0040001026 0.16900001 5.2562075e-39
-0.053588975 0.004148744 0.16950001 8.3901484e-39
-0.05619552 0.0056571215 0.16975001 4.2427814e-39
-0.047864761 0.0059390669 0.17 1.8068537e-38
-0.048580557 0.0069014798 0.16900001 1.696219e-38
-0.047317535 0.0067599081 0.17 1.779195e-38
-0.046495192 0.0067201438 0.16900001 1.7699755e-38
-0.04595118 0.0067201438 0.16900001 1.7884146e-38
-0.053610653 0.007307135 0.17 7.1015732e-39
-0.048405606 0.007353242 0.16950001 1.6869634e-38
-0.053473845 0.0082647828 0.17 4.703761e-39
-0.052479278 0.0088961767 0.16900001 4.2431332e-39
-0.048671223 0.008080164 0.16900001 1.6500132e-38
-0.053063426 0.0094960434 0.17 4.4278803e-39
-0.052275278 0.0093721841 0.16900001 4.1512949e-39
-0.05193527 0.0097121885 0.16900001 3.9679812e-39
-0.052242581 0.011684952 0.17 4.9799751e-39
-0.051543843 0.011650048 0.16950001 6.7295369e-39
-0.043467529 -0.041501977 0.171 4.6119185e-39
-0.051999442 -0.026502321 0.171 6.5465946e-39
-0.05777913 0.0021208799 0.171 7.8373264e-39
-0.05695346 0.002579585 0.171 8.7589282e-39
-0.055026896 0.0040474413 0.171 7.0994054e-39
-0.055852566 0.0059740026 0.171 5.6246411e-39
-0.049522437 0.0065244487 0.171 1.7238777e-38
-0.048605025 0.0067079309 0.171 1.7515363e-38
-0.055026896 0.0077629532 0.171 5.1636615e-39
-0.054476451 0.0074877301 0.171 6.1785365e-39
-0.055026896 0.0081757875 0.171 4.4271713e-39
-0.054384708 0.0083592692 0.171 4.42753e-39
-0.048605025 0.0083133988 0.171 1.6777079e-38
-0.053650782 0.009414291 0.171 4.3360462e-39
-0.053192079 0.010469313 0.171 4.2445639e-39
-0.052756306 0.010721601 0.171 4.1523668e-39
-0.052733373 0.012212393 0.171 6.7306243e-39
-0.051999442 0.012304134 0.171 1.0601047e-38
-0.043721724 -0.041883092 0.17200001 4.6119185e-39
-0.04275281 -0.041606262 0.17200001 4.4275272e-39
-0.06310001 0.00185645 0.17200001 5.532793e-39
-0.062684759 0.0017180338 0.17200001 5.4406001e-39
-0.061854262 0.0017180338 0.17200001 6.2700035e-39
-0.06310001 0.0021332826 0.17200001 5.2562061e-39
-0.062684759 0.0021332826 0.17200001 4.979622e-39
-0.063376844 0.0035174454 0.17200001 4.5175578e-39
-0.056456026 0.0057321056 0.17200001 4.7959566e-39
-0.050642539 0.0065626036 0.17200001 1.67778e-38
-0.056271467 0.007485379 0.17200001 4.6115681e-39
-0.055533249 0.0073008239 0.17200001 6.0852619e-39
-0.048815444 0.0076699345 0.17200001 1.6961471e-38
-0.056179192 0.0082235988 0.17200001 4.0587447e-39
-0.055533249 0.0084081544 0.17200001 4.1505816e-39
-0.047874212 0.0090540964 0.17200001 1.7698676e-38
-0.053687699 0.010991924 0.17200001 4.2445653e-39
-0.053503145 0.011637867 0.17200001 4.1523739e-39
-0.053687699 0.012099255 0.17200001 5.5335188e-39
-0.043697476 -0.04337959 0.17300001 5.3494835e-39
-0.044347178 -0.042590674 0.17300002 4.980701e-39
-0.043453839 -0.042439848 0.17299999 4.6119185e-39
-0.042862151 -0.042265821 0.17300001 4.5197228e-39
-0.05205074 -0.030153593 0.17300001 4.9792661e-39
-0.052189961 -0.029318267 0.17299999 5.2562131e-39
-0.051382482 -0.029262578 0.17300001 5.5324398e-39
-0.050936971 -0.029039824 0.17300001 5.4413232e-39
-0.052143555 -0.028575754 0.17300002 5.4413246e-39
-0.051493857 -0.028761383 0.17300001 5.7168311e-39
-0.061587382 0.0017976329 0.17300001 6.6387832e-39
-0.063466869 0.0028417904 0.17300001 4.6108395e-39
-0.06263154 0.0023313134 0.17300002 4.887069e-39
-0.061517771 0.0021456853 0.17300002 5.6249928e-39
-0.064023748 0.0032594535 0.17300001 4.3338896e-39
-0.063606083 0.0032594535 0.17300001 4.4260853e-39
-0.057619583 0.0038163376 0.17300001 5.9015755e-39
-0.058454908 0.0046516638 0.17300001 4.0573098e-39
-0.057062697 0.0040947795 0.17300001 5.8090225e-39
-0.056366593 0.0040947795 0.17300001 6.2700007e-39
-0.049683981 0.0063223164 0.17300001 1.7607559e-38
-0.048987877 0.0068792007 0.17300001 1.7607559e-38
-0.048510551 0.0075554173 0.17299999 1.7330612e-38
-0.048291773 0.0084106326 0.17300001 1.7237698e-38
-0.047595665 0.0085498532 0.17300001 1.7698676e-38
-0.056227371 0.0091067366 0.17300001 3.7835899e-39
-0.055392042 0.0091763474 0.17300001 4.2434891e-39
-0.054835159 0.00966362 0.17300002 4.3360448e-39
-0.047595665 0.0091067366 0.17300001 1.7883067e-38
-0.055113602 0.010498947 0.17300001 3.6917572e-39
-0.054742347 0.010684575 0.17300002 3.7839515e-39
-0.054649532 0.011241459 0.17300002 3.7832354e-39
-0.053442951 0.013004926 0.17300002 9.9571196e-39
-0.061593316 0.001597985 0.17400001 7.3763482e-39
