# .PCD v0.7 - Point Cloud Data file format
VERSION 0.7
FIELDS x y z rgb
SIZE 4 4 4 4
TYPE F F F F
COUNT 1 1 1 1
WIDTH 999
HEIGHT 1
VIEWPOINT 0 0 0 1 0 0 0
POINTS 999
DATA ascii
0.034592673 -0.019530004 0.15400003 6.3632823e-39
0.035212327 -0.019901797 0.15400001 6.3632823e-39
0.028892361 -0.018471835 0.155 6.2710797e-39
0.029619982 -0.01836789 0.15499999 6.547668e-39
0.030617867 -0.01836789 0.15499999 6.7317005e-39
0.031519566 -0.018553706 0.15412502 6.5473106e-39
0.032609779 -0.018579869 0.15400003 6.4554751e-39
0.033725157 -0.018579867 0.15400003 6.4554751e-39
0.034386124 -0.018827729 0.15400001 6.4554751e-39
0.02974472 -0.017577896 0.15499999 6.5465904e-39
0.030576292 -0.017505134 0.15499999 6.730983e-39
0.031494405 -0.017671041 0.15400003 6.6387874e-39
0.032609779 -0.017671043 0.15400003 6.5476708e-39
0.033642534 -0.017753661 0.15400003 6.5476722e-39
0.02546213 -0.016039491 0.155 1.0694567e-38
0.030700669 -0.016656337 0.15416668 6.4554751e-39
0.031489909 -0.016615584 0.15410003 6.4558339e-39
0.03257598 -0.016702129 0.15400003 6.4558353e-39
0.024963187 -0.015291077 0.155 9.4046087e-39
0.025493314 -0.015509363 0.15499999 1.0510188e-38
0.026376858 -0.015457392 0.15499999 1.1155189e-38
0.028458096 -0.015254391 0.15400001 9.1258273e-39
0.029228237 -0.015511106 0.15400003 6.1774323e-39
0.031742264 -0.01593601 0.15400001 6.3643585e-39
0.032479156 -0.015580795 0.15416668 6.4565541e-39
0.017437471 -0.014210035 0.15499999 6.5465918e-39
0.023882145 -0.014126878 0.155 7.745135e-39
0.024577642 -0.014383909 0.15499999 7.8376823e-39
0.025462128 -0.014417929 0.15499999 8.9436389e-39
0.026460014 -0.014417929 0.15499999 1.1063016e-38
0.027432952 -0.014343086 0.15499999 1.2261191e-38
0.028334165 -0.014634737 0.15400001 1.1246309e-38
0.032804526 -0.014484249 0.15400003 6.4565555e-39
0.017728522 -0.013544779 0.155 6.7309844e-39
0.022967417 -0.013045837 0.155 8.1139231e-39
0.023632675 -0.013295309 0.15499999 7.929529e-39
0.024547402 -0.013295308 0.15499999 7.7451378e-39
0.02546213 -0.013295309 0.15499999 7.8376865e-39
0.026460016 -0.013295309 0.15499999 9.0351297e-39
0.027452108 -0.013329594 0.15457143 1.1891713e-38
0.028230885 -0.013416083 0.15400003 1.2629265e-38
0.022753583 -0.012261786 0.15499999 8.2064774e-39
0.023632674 -0.012297424 0.15499999 8.1139231e-39
0.024547402 -0.012297425 0.15499999 8.0217261e-39
0.02546213 -0.012297424 0.15499999 7.929529e-39
0.026438275 -0.01231869 0.154875 8.1139147e-39
0.027497631 -0.01249693 0.15400003 1.0141465e-38
0.028354816 -0.012548569 0.15400003 1.1708042e-38
0.029114928 -0.012465947 0.15400001 1.2444876e-38
0.018227464 -0.011174804 0.155 6.5476736e-39
0.021907164 -0.011299539 0.155 8.1150021e-39
0.022634787 -0.011382695 0.15499999 8.1150021e-39
0.023632672 -0.011382695 0.15499999 8.1146434e-39
0.024547402 -0.011382695 0.15499999 8.0224463e-39
0.02546213 -0.011382695 0.15499999 7.9302507e-39
0.026550073 -0.011566607 0.15428574 8.0217232e-39
0.027445992 -0.01163974 0.15400003 8.7589197e-39
0.02835482 -0.011639741 0.15400003 9.7730535e-39
0.029114928 -0.011722362 0.15400001 1.0878287e-38
0.018441295 -0.010372931 0.15499999 6.5476736e-39
0.019225348 -0.010052183 0.155 6.9164589e-39
0.020888491 -0.010218496 0.155 8.0224491e-39
0.021720059 -0.010467968 0.15499999 8.2990346e-39
0.022634787 -0.010467968 0.15499999 8.2990346e-39
0.023632675 -0.010467968 0.15499999 8.206839e-39
0.024547402 -0.010467968 0.15499999 8.1146434e-39
0.025441194 -0.010511432 0.154875 8.0228079e-39
0.026454546 -0.010730916 0.15400003 7.9306108e-39
0.027445994 -0.010730914 0.15400003 8.1149993e-39
0.02835482 -0.010730914 0.15400003 8.5745341e-39
0.029015783 -0.010978777 0.15400001 9.588665e-39
0.018561937 -0.0094492706 0.15466668 6.6398706e-39
0.019443635 -0.0094285049 0.15499999 7.1008516e-39
0.020631459 -0.0094398446 0.15499999 7.8380593e-39
0.021720059 -0.0094700828 0.15499999 8.2068418e-39
0.022634787 -0.0094700838 0.15499999 8.391233e-39
0.023632674 -0.0094700838 0.15499999 8.391233e-39
0.024547402 -0.0094700838 0.15499999 8.391233e-39
0.02551377 -0.0096074669 0.154375 8.2990374e-39
0.026454546 -0.0097394688 0.15400003 8.1146462e-39
0.027445992 -0.0097394688 0.15400003 8.1146448e-39
0.028148266 -0.0097394688 0.15400003 8.1150007e-39
0.018726407 -0.0085553564 0.155 6.8239059e-39
0.019474819 -0.0085553564 0.15499999 7.1004942e-39
0.020597441 -0.0085553555 0.15499999 7.6536694e-39
0.021720061 -0.0085553564 0.15499999 8.114649e-39
0.022634787 -0.0085553564 0.15499999 8.391233e-39
0.023632672 -0.0085553564 0.15499999 8.4834287e-39
0.024529507 -0.0085494025 0.15488888 8.3912344e-39
0.025568252 -0.0085902922 0.15400003 8.3912344e-39
0.026454546 -0.0086240917 0.15400003 8.3912344e-39
0.027445992 -0.0086240908 0.15400003 8.2990374e-39
0.028148267 -0.0086240908 0.15400003 8.2068418e-39
0.018726407 -0.0076822061 0.155 6.7327907e-39
0.019497499 -0.0074667544 0.15499999 6.917182e-39
0.020597441 -0.0074327355 0.15499999 7.3781615e-39
0.021720061 -0.0074327351 0.15499999 8.1157266e-39
0.022634787 -0.0074327351 0.15499999 8.3001192e-39
0.023632675 -0.0074327351 0.15499999 8.4841517e-39
0.02452386 -0.0074011688 0.15433335 8.4841517e-39
0.025545716 -0.0073847831 0.15400003 8.3923148e-39
0.026454546 -0.0073847813 0.15400003 8.3923148e-39
0.027445992 -0.0073847822 0.15400003 8.3919547e-39
0.028024336 -0.0076326439 0.15400001 8.391596e-39
0.019599555 -0.0063101151 0.15499999 7.1008558e-39
0.020597439 -0.0063101151 0.15499999 7.3778056e-39
0.021720061 -0.0063101151 0.15499999 8.1157294e-39
0.022634789 -0.0063101151 0.15499999 8.4841545e-39
0.023591097 -0.006341299 0.15499999 8.6685458e-39
0.024504703 -0.0062446184 0.15400003 9.0366081e-39
0.025545716 -0.0062694047 0.15400003 8.7600212e-39
0.026454546 -0.0062694051 0.15400003 8.7603771e-39
0.027231181 -0.0063189766 0.15400001 8.6681815e-39
0.019624501 -0.0053621242 0.155 7.4700012e-39
0.020597439 -0.0053122304 0.15499999 7.4710844e-39
0.021720061 -0.00531223 0.15499999 7.8405872e-39
0.022634789 -0.00531223 0.15499999 8.392682e-39
0.023440858 -0.0053067864 0.15483333 8.7607428e-39
0.02443034 -0.0052779578 0.15400003 8.9447754e-39
0.02554572 -0.0052779578 0.15400003 8.8525797e-39
0.026454546 -0.0052779573 0.15400003 8.8529371e-39
0.027032889 -0.0055258195 0.15400001 8.6689017e-39
0.020597441 -0.0043975017 0.15499999 7.5640031e-39
0.021720061 -0.0043975022 0.15499999 7.84059e-39
0.022634789 -0.0043975022 0.15499999 8.2093725e-39
0.023406202 -0.004378946 0.15433335 8.7614659e-39
0.024430342 -0.0043691318 0.15400003 9.036971e-39
0.02554572 -0.0043691313 0.15400003 8.9447754e-39
0.026289305 -0.0043691318 0.15400003 9.036971e-39
0.012614362 -0.0030669891 0.155 1.1706988e-38
0.01348751 -0.0030669894 0.155 1.1708097e-38
0.020753361 -0.003534748 0.15499999 7.5640031e-39
0.021720061 -0.0034827748 0.15499999 7.84059e-39
0.022539752 -0.003530293 0.15499999 8.2090138e-39
0.023345947 -0.0034189951 0.15400003 8.7614659e-39
0.024430342 -0.0034603055 0.15400003 9.0373325e-39
0.02554572 -0.003460305 0.15400003 9.1295282e-39
0.026289307 -0.0034603048 0.15400003 9.0373325e-39
0.012822151 -0.0027167199 0.15400001 1.1707365e-38
0.013565736 -0.0024688581 0.15400003 1.1615904e-38
0.020971647 -0.0028175178 0.155 7.8395082e-39
0.021648783 -0.0025324079 0.15499999 7.7476769e-39
0.022341436 -0.0024298199 0.15412502 8.1168182e-39
0.023314964 -0.0024688579 0.15400003 8.5770746e-39
0.024430342 -0.0024688577 0.15400003 8.9454956e-39
0.02554572 -0.0024688581 0.15400003 9.406115e-39
0.026041443 -0.0024688579 0.15400001 9.406115e-39
0.011741213 -0.0014454264 0.155 1.161549e-38
0.021741608 -0.0016177082 0.15480001 7.8391551e-39
0.0223545 -0.0015600318 0.15400003 7.932787e-39
0.023314962 -0.0015600319 0.15400003 8.3008479e-39
0.024430342 -0.0015600318 0.15400003 8.7614645e-39
0.025514737 -0.0015910146 0.15400003 9.3142796e-39
0.021738492 -0.00063187582 0.15425001 8.1160979e-39
0.022323519 -0.00044465414 0.15400003 7.7480356e-39
0.023314962 -0.00044465414 0.15400003 7.9327856e-39
0.024430342 -0.00044465411 0.15400003 8.4859594e-39
0.025380477 -0.00073382613 0.15400001 8.9465774e-39
0.022394335 0.00063531479 0.15400003 8.116458e-39
0.023314962 0.00067072362 0.15400003 7.8402341e-39
0.02422379 0.00058810302 0.15400003 8.2090166e-39
-0.053620253 0.001922435 0.155 9.1280021e-39
-0.00023340726 0.0014234924 0.155 1.0785801e-38
0.00051332783 0.00141737 0.15433334 1.0786886e-38
0.0013802903 0.0017463216 0.15416668 1.1063478e-38
0.0020118337 0.001922435 0.155 1.1432261e-38
0.022571379 0.0014143088 0.15400001 8.4845245e-39
0.023345945 0.0016311877 0.15400003 8.0246253e-39
-0.05343315 0.0022966417 0.155 9.5889775e-39
-0.05267226 0.002371483 0.155 9.4964273e-39
-0.04027354 0.0029203198 0.155 1.760648e-38
0.0015031308 0.0027362378 0.15400003 1.0510303e-38
0.0024591689 0.0026890261 0.15400003 1.1247871e-38
0.0031239409 0.0027861637 0.15450001 1.1709568e-38
0.019724291 0.0029203198 0.155 1.0140432e-38
0.020597441 0.0026708487 0.15499999 1.0049317e-38
0.02147059 0.0029203198 0.155 1.0325905e-38
-0.0022147954 0.0038929256 0.15400001 6.083436e-39
0.0013791999 0.0034798228 0.15400003 9.1284408e-39
0.0023728102 0.0033601054 0.15416668 1.014224e-38
0.01959905 0.0034142062 0.15480001 1.0324452e-38
0.020597439 0.003502419 0.15499999 1.0325905e-38
0.021532958 0.0036063655 0.155 1.0326265e-38
-0.0074198917 0.0048843725 0.15400001 6.5469505e-39
-0.0069241682 0.0048843725 0.15400001 6.9157302e-39
-0.0025750776 0.0045612911 0.1548 4.3335155e-39
-0.0015586074 0.0046110586 0.15450001 4.0576517e-39
-0.0005218609 0.0045178658 0.15416668 4.6111786e-39
0.00026382206 0.0044712699 0.15400003 5.1643482e-39
0.0011726485 0.0043473388 0.15400003 6.3618236e-39
0.01348751 0.004417147 0.155 1.2445603e-38
0.019680496 0.0044818413 0.15433334 1.0784331e-38
0.020545673 0.0043367669 0.15437502 1.0694327e-38
0.021478102 0.0044671488 0.15428574 1.0602493e-38
0.022075655 0.0044712694 0.15400001 1.0510302e-38
0.050827619 0.004388649 0.15400001 1.1984234e-38
-0.0073017585 0.005498189 0.155 4.7955712e-39
-0.006629277 0.0054926346 0.15483333 4.9788793e-39
-0.0056386176 0.0056645027 0.155 5.6246032e-39
-0.0045367861 0.0056021353 0.155 5.7167989e-39
-0.0036903659 0.0054863095 0.15499999 5.2558249e-39
-0.002603384 0.0054150312 0.15499999 3.7807019e-39
-0.0015164023 0.0053437543 0.15499999 3.6888692e-39
-0.00053277274 0.0052653486 0.155 3.9658162e-39
0.019724291 0.0051655602 0.155 1.1060185e-38
0.020430079 0.0053494484 0.15414287 1.0970544e-38
0.021438295 0.0053446875 0.15400003 1.0787243e-38
0.022292534 0.0054110792 0.15400003 1.0787243e-38
-0.053356934 0.0067846454 0.15400001 3.3190118e-39
-0.012208026 0.0067871232 0.155 6.9113666e-39
-0.011663114 0.0067275246 0.15485714 7.1886737e-39
-0.010711198 0.0069118589 0.155 8.4790468e-39
-0.0094341189 0.0065169651 0.15450001 6.5458323e-39
-0.0084659578 0.0064129164 0.155 6.8231394e-39
-0.007301759 0.0062466026 0.155 6.638751e-39
-0.0065533449 0.0062881806 0.15499999 6.3621641e-39
-0.005621986 0.0062632337 0.155 5.9004713e-39
-0.0048486255 0.0061634453 0.155 5.4394945e-39
-0.0035596902 0.0062466022 0.155 3.8728933e-39
-0.002977591 0.0061634453 0.155 3.7803403e-39
0.020588484 0.0064459019 0.15400003 1.1153478e-38
0.021249451 0.0064541637 0.15400003 1.0879075e-38
0.022373091 0.006445901 0.15400003 1.0879082e-38
0.023067102 0.0068672663 0.15400001 1.0786529e-38
-0.05935809 0.007909744 0.155 1.0111611e-38
-0.054217439 0.007792566 0.15433334 5.0656799e-39
-0.05339824 0.0076108514 0.15400003 3.4101285e-39
-0.012129265 0.0073629897 0.15400001 9.397036e-39
-0.01183382 0.007410801 0.155 9.5814259e-39
-0.010569992 0.007772251 0.15475 8.6601955e-39
-0.0099627851 0.0076602725 0.155 8.2924835e-39
0.015982222 0.0075355368 0.155 1.3089609e-38
0.016588083 0.007660273 0.15499999 1.2722271e-38
0.020836346 0.0076108514 0.15400001 1.1244567e-38
0.021290757 0.0076108514 0.15400003 1.1153126e-38
0.02242266 0.0076108514 0.15400001 1.0694332e-38
0.023244146 0.0076462599 0.15400003 1.0509942e-38
-0.05935809 0.0084086861 0.155 9.7428317e-39
-0.058608085 0.0086441925 0.15474999 9.927946e-39
-0.057860259 0.0086209178 0.15433334 1.0113416e-38
-0.054327827 0.0085865632 0.15459999 5.8900484e-39
-0.053439554 0.008437057 0.15400001 3.8685885e-39
0.016855372 0.0084086861 0.155 1.2630793e-38
0.020836346 0.0083544366 0.15400001 1.1428561e-38
0.021455999 0.0085713156 0.15400003 1.1244577e-38
0.022282207 0.0085609881 0.15400003 1.0970551e-38
0.023414109 0.0086022988 0.15400001 1.0602137e-38
0.024058549 0.0086022988 0.15400001 1.0510302e-38
-0.05935809 0.0099055134 0.155 9.5580845e-39
-0.058360204 0.0091570998 0.155 9.7449939e-39
0.021579931 0.0095111243 0.15400003 1.1427852e-38
0.022282206 0.0096350545 0.15400003 1.12446e-38
0.023314964 0.0094698146 0.15400001 1.0786164e-38
0.024058549 0.0090980213 0.15400001 1.0602492e-38
-0.05944125 0.010487612 0.155 9.3740561e-39
0.016622696 0.01033733 0.15400001 1.3458756e-38
0.02153036 0.010486048 0.15400001 1.188628e-38
0.022240898 0.01029602 0.15400003 1.1242057e-38
-0.059536282 0.011544895 0.15499999 9.1896691e-39
-0.058859147 0.011651812 0.155 8.9141612e-39
0.014984338 0.011152869 0.155 1.3459437e-38
0.015507318 0.011452708 0.15400001 1.3181018e-38
0.017366283 0.011576639 0.15400001 1.2444604e-38
-0.059607558 0.012400227 0.15499999 9.1900306e-39
-0.058609672 0.012400226 0.15499999 8.5471807e-39
-0.057778109 0.012566539 0.155 8.8244879e-39
0.017716095 0.012292515 0.15416668 1.2815188e-38
0.018449094 0.012464558 0.15425001 1.2538243e-38
0.019720968 0.012568085 0.15400001 1.2443512e-38
-0.060272817 0.013522846 0.15499999 9.7435645e-39
-0.059663005 0.013619862 0.15499999 9.2825864e-39
-0.058670718 0.013404627 0.15483333 8.6390162e-39
-0.05772382 0.013538827 0.15489998 8.639375e-39
0.017977992 0.013148638 0.155 1.2999578e-38
0.018518513 0.013314952 0.15499999 1.2814831e-38
0.019597037 0.013162954 0.15400001 1.2352404e-38
0.020359261 0.013466114 0.15414287 1.1150245e-38
0.021166829 0.013724774 0.15400001 8.4740456e-39
-0.059482828 0.014395996 0.155 9.1903936e-39
-0.058567483 0.014635146 0.15488888 8.6382988e-39
-0.057778109 0.014479153 0.155 8.546822e-39
0.021525262 0.014660591 0.15450001 9.4950681e-39
-0.058609676 0.01539388 0.155 8.363514e-39
0.016279407 0.015527626 0.15466668 1.2720085e-38
0.021827793 0.015459807 0.15400001 9.5894273e-39
0.014984338 0.016765973 0.155 1.4013381e-38
0.015649594 0.016558081 0.15499999 1.35524e-38
0.016231693 0.016558079 0.155 1.2906291e-38
0.021827793 0.01603815 0.15400001 9.4972317e-39
0.015649594 0.017264912 0.15499999 1.3737152e-38
0.016231693 0.017140178 0.155 1.3276522e-38
0.049660839 0.024873786 0.155 6.0884905e-39
0.011741213 0.026620083 0.155 1.1155272e-38
0.012600612 0.026505588 0.15433334 1.0971173e-38
0.010992799 0.027867438 0.155 1.3460568e-38
0.011547179 0.027590249 0.15499999 1.2631147e-38
0.012489627 0.027493231 0.15499999 1.0509136e-38
0.013414064 0.027377408 0.154875 1.0601665e-38
0.010793222 0.028665747 0.155 1.3183618e-38
0.011491741 0.028615855 0.15499999 1.1799226e-38
0.012489627 0.028615853 0.15499999 1.0878318e-38
0.0134577 0.028637202 0.15466666 1.262969e-38
0.014144079 0.028926959 0.15400001 1.4008995e-38
0.0099949138 0.029738473 0.155 1.3552403e-38
0.010577013 0.029613737 0.15499999 1.3460207e-38
0.011491741 0.029613737 0.15499999 1.3552399e-38
0.012489627 0.029613737 0.15499999 1.3552758e-38
0.01356023 0.02960583 0.1547 1.3460202e-38
0.014474561 0.029670546 0.15400003 1.2905903e-38
0.015218146 0.029835785 0.15400001 1.2901892e-38
0.0088722929 0.030861093 0.155 1.4382164e-38
0.0098951254 0.030611623 0.155 1.364424e-38
0.010577013 0.030528465 0.15499999 1.3920825e-38
0.011491741 0.030528465 0.15499999 1.465839e-38
0.012489627 0.030528465 0.15499999 1.4198133e-38
0.013544362 0.030598171 0.15436365 1.3644959e-38
0.014474561 0.030661993 0.15400003 1.2814458e-38
0.015352405 0.030692972 0.15400003 1.3363613e-38
0.0079991436 0.031858977 0.155 1.3552407e-38
0.0086644003 0.031443194 0.15499999 1.4474721e-38
0.0096622854 0.031443194 0.15499999 1.4381445e-38
0.010577013 0.031443194 0.15499999 1.410522e-38
0.011491741 0.031443194 0.15499999 1.4566558e-38
0.012588754 0.031415246 0.15427274 1.4013743e-38
0.013565736 0.031570818 0.15400003 1.3644597e-38
0.014474562 0.031570818 0.15400003 1.3552397e-38
0.015383388 0.031570815 0.15400003 1.2905557e-38
0.016126974 0.031570818 0.15400001 1.2902617e-38
0.0078328298 0.032565814 0.15499999 1.4013384e-38
0.0086644003 0.032441076 0.15499999 1.4382524e-38
0.0096622854 0.03244108 0.15499999 1.4382164e-38
0.010577013 0.03244108 0.15499999 1.4106657e-38
0.011549513 0.032515679 0.15466666 1.4105937e-38
0.012540877 0.032442529 0.15410003 1.3460568e-38
0.013565734 0.032479648 0.15400003 1.3644597e-38
0.014474562 0.032479644 0.15400003 1.3736792e-38
0.015352405 0.032428008 0.15400003 1.2814471e-38
0.0067517878 0.033605278 0.155 1.4935698e-38
0.0076135974 0.033378486 0.15499999 1.4474719e-38
0.0086644003 0.033355802 0.15499999 1.3737154e-38
0.0096622854 0.033355802 0.15499999 1.3737513e-38
0.0106115 0.033408642 0.15489998 1.382971e-38
0.011665462 0.033471093 0.15400003 1.4105937e-38
0.01257429 0.033471093 0.15400003 1.364496e-38
0.013565735 0.033471093 0.15400003 1.3368372e-38
0.014474561 0.033471089 0.15400003 1.3183981e-38
0.015135526 0.033471093 0.15400001 1.3091785e-38
0.0057539023 0.03460316 0.155 1.475095e-38
0.0065577538 0.034575444 0.15499999 1.4751308e-38
0.0075625689 0.034478426 0.15499999 1.4566556e-38
0.0086644003 0.034478426 0.15499999 1.3828633e-38
0.0096622845 0.034478426 0.15499999 1.4289972e-38
0.010585531 0.034370236 0.15436365 1.3921188e-38
0.011665462 0.034379914 0.15400003 1.3736796e-38
0.01257429 0.034379918 0.15400003 1.3552763e-38
0.013565736 0.034379914 0.15400003 1.364496e-38
0.014474561 0.034379914 0.15400003 1.3183981e-38
0.0065023159 0.03560105 0.15499999 1.4290328e-38
0.0075625689 0.035601046 0.15499999 1.3921187e-38
0.0086644003 0.035601046 0.15499999 1.4382887e-38
0.0096622854 0.035601046 0.15499999 1.4382168e-38
0.010646975 0.035524137 0.15427274 1.4474364e-38
0.011665461 0.035495296 0.15400003 1.3276539e-38
0.01257429 0.035495292 0.15400003 1.3368012e-38
0.013565734 0.035495296 0.15400003 1.3368012e-38
0.014437006 0.035461497 0.15400003 1.3829349e-38
-0.011633541 0.03661067 0.15400001 1.0932034e-38
0.0065023159 0.036598928 0.15499999 1.4382165e-38
0.0075625684 0.036598925 0.15499999 1.4105938e-38
0.0086644003 0.036598932 0.15499999 1.4105938e-38
0.0096622845 0.036598936 0.15499999 1.4105581e-38
0.010583332 0.036605004 0.15449999 1.4658755e-38
0.011665462 0.03661067 0.15400003 1.3829713e-38
0.012574289 0.03661067 0.15400003 1.3091425e-38
0.013565735 0.036610674 0.15400003 1.4750946e-38
0.014206044 0.036548708 0.15400001 1.5580707e-38
-0.012129265 0.037354257 0.15400001 1.1208621e-38
-0.01150961 0.037354257 0.15400001 1.0750163e-38
0.0057539023 0.037513658 0.155 1.4658751e-38
0.0065023159 0.037513658 0.15499999 1.4382524e-38
0.0075625689 0.037513662 0.15499999 1.429033e-38
0.0086644003 0.037513658 0.15499999 1.4105938e-38
0.0096622854 0.037513658 0.15499999 1.382935e-38
0.010572528 0.037598085 0.1547 1.4382167e-38
0.011665462 0.037602119 0.15400003 1.392119e-38
0.012515275 0.037531305 0.15400003 1.3276539e-38
0.013565735 0.03747819 0.15400003 1.4474721e-38
0.014144079 0.037354257 0.15400001 1.4659108e-38
0.0057539023 0.038428385 0.155 1.4106296e-38
0.0065023159 0.038428385 0.15499999 1.4382884e-38
0.0075625698 0.038428385 0.15499999 1.4751308e-38
0.0086643994 0.038428385 0.15499999 1.4567275e-38
0.0095792608 0.038427521 0.15455556 1.4566915e-38
0.01052657 0.038479008 0.15407695 1.4382883e-38
0.011665462 0.038510941 0.15400003 1.4105937e-38
0.012161185 0.038510945 0.15400001 1.3646039e-38
0.0046312818 0.039592586 0.155 1.5027533e-38
0.0055400697 0.03952131 0.15499999 1.4935698e-38
0.0065023159 0.039426275 0.15499999 1.4659112e-38
0.0075625689 0.039426271 0.15499999 1.512009e-38
0.0085453521 0.039414011 0.15450001 1.4013381e-38
0.0094347065 0.039419778 0.15400003 1.3368012e-38
0.010550085 0.039419778 0.15400003 1.2815197e-38
0.011665462 0.039419774 0.15400003 1.2723721e-38
0.012161186 0.039089289 0.15400001 1.3553842e-38
0.015383388 0.039089289 0.15400001 1.3646761e-38
0.0045377305 0.040372182 0.15499999 1.4105577e-38
0.0055044317 0.040341001 0.15499999 1.3644599e-38
0.0064248154 0.040410042 0.15485714 1.4843142e-38
0.0077324701 0.040087935 0.15466668 1.3368372e-38
0.0083441157 0.040279023 0.15400001 9.8645765e-39
0.0094347075 0.040080737 0.15400001 9.8634933e-39
0.010550084 0.040080737 0.15400001 1.0140083e-38
0.011541531 0.040080737 0.15400001 1.1246792e-38
0.0045897034 0.041255727 0.15499999 1.3828634e-38
0.0055572502 0.041396275 0.15474999 1.5488513e-38
0.0064307195 0.041287098 0.15414287 1.4105938e-38
0.0083441157 0.041270472 0.15400001 1.2078716e-38
0.0031879121 0.042621877 0.15499999 1.5396676e-38
0.0058407113 0.042063631 0.15400001 1.5028972e-38
0.0064603658 0.042063631 0.15400001 1.3737156e-38
0.0032591899 0.043334652 0.155 1.4935698e-38
0.005629167 0.043708857 0.155 1.3828991e-38
0.0064524217 0.043733809 0.155 1.4475438e-38
0.0056707454 0.044249382 0.155 1.5582149e-38
0.0063526332 0.044432323 0.155 1.5489232e-38
0.0052210572 0.047020864 0.15400001 1.4107016e-38
0.0048905746 0.051895481 0.15400001 1.318578e-38
0.00559285 0.051761217 0.15400003 1.2724805e-38
0.0066256071 0.051978096 0.15400001 1.3278334e-38
0.007203951 0.051978096 0.15400001 1.3277255e-38
0.0047287666 0.052764274 0.15412502 1.3645679e-38
0.0056341607 0.052721679 0.15400003 1.1801769e-38
0.0066256067 0.052721683 0.15400003 1.1895407e-38
0.0072659166 0.052783646 0.15400001 1.2909915e-38
0.0039817486 0.053713132 0.15400001 1.3921546e-38
0.0046785078 0.053573865 0.15410003 1.3184702e-38
0.0056341607 0.053630508 0.15400003 1.3647478e-38
0.0066256067 0.053630505 0.15400003 1.2079437e-38
0.007482795 0.053682145 0.15400003 1.2080157e-38
0.0048905746 0.054374095 0.15400001 1.3092867e-38
0.0056341602 0.054208856 0.15400001 1.4198491e-38
0.0066256071 0.054208856 0.15400001 1.3000671e-38
0.0073278816 0.054208852 0.15400001 1.2356022e-38
0.018596141 -0.032212134 0.156 6.2685279e-39
0.012821284 -0.03162628 0.156 4.8877459e-39
0.013072365 -0.031458892 0.156 4.8873899e-39
0.018093979 -0.031709973 0.156 4.4264384e-39
0.012821284 -0.030580111 0.156 3.7814221e-39
0.013072365 -0.030621959 0.156 3.8736178e-39
0.012402817 -0.029450247 0.156 3.8732688e-39
0.013072365 -0.029450249 0.156 3.5966847e-39
0.011601749 -0.028410057 0.156 5.7167891e-39
0.012444664 -0.028496142 0.156 4.4267971e-39
0.013229291 -0.028477311 0.156 3.6885216e-39
0.028639371 -0.028194845 0.156 4.979622e-39
0.029571956 -0.028302452 0.156 4.5186466e-39
0.030396935 -0.028194845 0.156 4.4271713e-39
0.011482187 -0.027692683 0.156 6.3610725e-39
0.01239086 -0.027513342 0.156 4.8874109e-39
0.013156059 -0.027608991 0.156 3.9658274e-39
0.014076688 -0.027692683 0.156 3.5055709e-39
0.028639371 -0.027441602 0.156 5.1650923e-39
0.029518152 -0.0274416 0.156 4.9803437e-39
0.030396935 -0.027567143 0.156 4.6115625e-39
0.012235429 -0.026437281 0.156 5.532409e-39
0.019098302 -0.026562821 0.156 8.2985764e-39
0.027446736 -0.026248969 0.156 5.3494835e-39
0.028424159 -0.026365543 0.156 5.5335174e-39
0.029518152 -0.026437283 0.156 5.3491276e-39
0.030612146 -0.026365545 0.156 5.1654552e-39
0.031150177 -0.0261862 0.156 5.1658153e-39
0.011691421 -0.025432957 0.156 6.3610753e-39
0.012068043 -0.025432957 0.156 5.9933732e-39
0.020521095 -0.025767731 0.156 6.4529024e-39
0.021358028 -0.02551665 0.156 5.5327762e-39
0.022194965 -0.025265569 0.156 5.3484003e-39
0.026630724 -0.025307417 0.156 5.62499e-39
0.027383966 -0.025516652 0.156 5.717187e-39
0.028388292 -0.025516652 0.156 5.8093855e-39
0.029518152 -0.02551665 0.156 5.6257145e-39
0.030648015 -0.02551665 0.156 5.5335188e-39
0.031401258 -0.02551665 0.156 5.4413232e-39
0.02135803 -0.024930796 0.156 5.9930186e-39
0.022111271 -0.024930796 0.156 5.3487548e-39
0.026558984 -0.024536239 0.156 5.6260704e-39
0.027383966 -0.024596019 0.156 5.8101015e-39
0.028388288 -0.024596019 0.156 5.9019412e-39
0.029518152 -0.024596022 0.156 5.8101057e-39
0.030576278 -0.024643844 0.156 5.9023014e-39
0.031150177 -0.024930796 0.156 5.5335188e-39
0.025814712 -0.023612622 0.156 5.718266e-39
0.026463335 -0.023591699 0.156 5.718266e-39
0.027383966 -0.023591697 0.156 5.9026573e-39
0.028388292 -0.023591695 0.156 5.9948529e-39
0.029483916 -0.023629738 0.156 5.994497e-39
0.030396935 -0.023926472 0.156 6.0866926e-39
0.012068043 -0.022419989 0.156 6.2688656e-39
0.025877481 -0.02279661 0.156 5.9015783e-39
0.026463337 -0.02267107 0.156 5.8101029e-39
0.027383966 -0.02267107 0.156 5.9023e-39
0.028388292 -0.02267107 0.156 6.0866912e-39
0.029320877 -0.022706939 0.156 6.0866926e-39
0.011691421 -0.021164585 0.156 7.1893674e-39
0.012068043 -0.021164585 0.156 7.2815658e-39
0.023868836 -0.021164585 0.156 6.2685307e-39
0.026680941 -0.021716963 0.156 5.9026573e-39
0.027383966 -0.021541208 0.156 5.9026573e-39
0.028365465 -0.021575445 0.156 6.1788868e-39
0.029141532 -0.021917827 0.156 6.1788883e-39
0.011565881 -0.020561989 0.156 7.3741118e-39
0.012151736 -0.020578729 0.156 7.2815686e-39
0.024657948 -0.020447213 0.156 6.1766938e-39
0.025124241 -0.020285804 0.156 5.6249718e-39
0.027467661 -0.020495037 0.156 5.9948529e-39
0.028388292 -0.020411344 0.156 6.2714398e-39
0.024622079 -0.019658102 0.156 8.7559574e-39
0.02838829 -0.019595332 0.156 6.3636354e-39
0.012319122 -0.018151617 0.156 7.4667026e-39
0.022864513 -0.018151617 0.156 8.7592168e-39
0.023366675 -0.018151617 0.156 9.4963965e-39
0.021525418 -0.01731468 0.156 7.4689026e-39
0.022522129 -0.017535329 0.156 7.7451139e-39
0.023617756 -0.017565764 0.156 9.2198264e-39
0.024320781 -0.017498808 0.156 9.7729778e-39
0.020604787 -0.016142972 0.156 7.7451378e-39
0.021389414 -0.016519593 0.156 7.5607437e-39
0.022487892 -0.016561441 0.156 7.4685425e-39
0.023617756 -0.016561441 0.156 8.1138838e-39
0.02449654 -0.016519593 0.156 9.3127423e-39
0.025124241 -0.016142972 0.156 1.0141766e-38
0.031150177 -0.016142972 0.156 6.1799673e-39
0.019851545 -0.015389729 0.156 7.929529e-39
0.020389576 -0.015569074 0.156 7.929529e-39
0.02135803 -0.015640812 0.156 7.6529421e-39
0.022487894 -0.015640808 0.156 7.5607437e-39
0.023617756 -0.015640808 0.156 7.7451251e-39
0.024496537 -0.015672196 0.156 8.6670548e-39
0.025124241 -0.015891891 0.156 1.0049943e-38
0.031819727 -0.015808197 0.156 6.2721629e-39
0.016838577 -0.014385407 0.156 6.1774491e-39
0.017780127 -0.014636487 0.156 6.730983e-39
0.018564755 -0.014416791 0.156 7.3763538e-39
0.019433076 -0.014510947 0.156 7.7451364e-39
0.020353707 -0.014510947 0.156 7.9295276e-39
0.021358028 -0.014510948 0.156 7.7447776e-39
0.022487894 -0.014510947 0.15599999 7.6529407e-39
0.02356196 -0.01460859 0.156 7.7451336e-39
0.024119917 -0.014887568 0.156 7.6532953e-39
0.017842898 -0.013255544 0.156 6.7309844e-39
0.018564757 -0.013349698 0.156 7.0997684e-39
0.019433077 -0.013381083 0.156 7.5607465e-39
0.020353707 -0.013381084 0.156 7.929529e-39
0.02135803 -0.013381083 0.156 7.8373334e-39
0.022453653 -0.01340391 0.156 7.9291689e-39
0.017842898 -0.012502302 0.156 6.3632823e-39
0.018512448 -0.012376762 0.156 6.8239003e-39
0.019433076 -0.012376761 0.156 7.5611066e-39
0.020353707 -0.012376761 0.156 7.8376949e-39
0.021358032 -0.012376761 0.156 7.9298906e-39
0.022211704 -0.012426978 0.156 8.1139231e-39
0.01863201 -0.011515914 0.156 6.6398706e-39
0.019433076 -0.011456134 0.156 7.1930458e-39
0.020353707 -0.011456133 0.156 7.6540239e-39
0.021326644 -0.01149798 0.156 7.9306108e-39
0.018721681 -0.010870278 0.156 6.6398706e-39
0.019492859 -0.010655066 0.156 7.1008502e-39
0.020322321 -0.010587811 0.156 7.6540239e-39
0.021106949 -0.010870278 0.156 8.0228065e-39
0.019851545 -0.0098659545 0.156 7.2848855e-39
0.020102626 -0.0098659545 0.156 7.4692767e-39
0.013574527 -0.0035889377 0.156 1.1523707e-38
0.020102626 -0.0038400183 0.156 8.1160951e-39
0.011565881 -0.0013292113 0.156 1.1524423e-38
0.02135803 -0.0014547517 0.156 8.1160993e-39
0.011754191 -0.00063873938 0.156 1.1708427e-38
0.020228166 0.00080497458 0.156 1.0049317e-38
0.0012715713 0.0014326763 0.156 1.1155674e-38
0.0022758942 0.0019348377 0.156 1.1801043e-38
0.020385092 0.001715142 0.156 1.0049318e-38
-0.054468349 0.00281362 0.156 1.0141069e-38
-0.053652335 0.0028763902 0.156 9.6800913e-39
-0.052710786 0.0026880796 0.156 9.404589e-39
0.002526975 0.0021859184 0.156 1.1985435e-38
0.019600464 0.00281362 0.156 9.8641967e-39
0.020102626 0.0021859184 0.156 9.9571196e-39
-0.054468349 0.0035250152 0.156 9.7712122e-39
-0.053966187 0.0036924025 0.156 9.402431e-39
0.019098302 0.0031902411 0.156 1.0507362e-38
-0.054468349 0.0045293379 0.156 6.8191766e-39
-0.053966187 0.0041945637 0.156 8.1106258e-39
-0.054468349 0.0054499675 0.156 4.2398793e-39
-0.053631414 0.0055336603 0.156 4.2405982e-39
-0.052531447 0.005449967 0.156 5.0703505e-39
-0.0077673355 0.0057010478 0.156 4.8877669e-39
-0.054656658 0.0065798303 0.156 3.8718185e-39
-0.053679239 0.0063466839 0.156 3.4112075e-39
-0.010152603 0.0069564516 0.156 8.111702e-39
-0.0092738196 0.0068058027 0.156 7.0064405e-39
-0.0082694963 0.0067053703 0.156 7.0986403e-39
-0.0074803857 0.0067771077 0.156 6.9135316e-39
-0.006428238 0.0068309107 0.156 6.1763323e-39
-0.0055434769 0.0067771077 0.156 5.2547431e-39
-0.0044315481 0.0064184209 0.156 4.5179012e-39
-0.060243204 0.007960774 0.156 1.0111614e-38
-0.059364423 0.007960774 0.156 1.0111614e-38
-0.058736719 0.007960774 0.156 1.0296366e-38
-0.056728072 0.007960774 0.156 9.478111e-39
-0.055723753 0.007960774 0.156 8.0998484e-39
-0.05497051 0.0074586128 0.156 5.0667631e-39
-0.011232249 0.0075590452 0.156 9.8583701e-39
-0.010403683 0.0075841532 0.156 8.8463762e-39
-0.0091482792 0.0075841532 0.156 7.0039153e-39
-0.0083531905 0.0074586128 0.156 6.7276928e-39
-0.0074325609 0.0075841532 0.156 5.9904991e-39
-0.0067630126 0.0074586128 0.156 5.8075498e-39
0.015834253 0.007960774 0.156 1.2905932e-38
-0.060243204 0.0085884761 0.156 9.9261439e-39
-0.059741043 0.0089650974 0.156 9.6502801e-39
-0.058485638 0.0087140165 0.156 1.0021938e-38
-0.055673532 0.0087642325 0.156 8.184861e-39
-0.05497051 0.0089650974 0.156 6.7158546e-39
-0.052334171 0.0087140165 0.156 2.3059487e-39
-0.051706463 0.0087140165 0.156 2.214116e-39
0.015834253 0.0084629357 0.156 1.2998484e-38
0.016336415 0.0084629357 0.156 1.2815184e-38
-0.060243204 0.0099694198 0.156 9.8328735e-39
-0.05945858 0.0095927985 0.156 9.4669692e-39
-0.058586068 0.009718339 0.156 9.4676895e-39
-0.05534713 0.0095300283 0.156 8.0912291e-39
-0.054719426 0.0096346447 0.156 6.8980851e-39
-0.053966187 0.0098438794 0.156 4.6936744e-39
-0.052309059 0.009567691 0.156 2.397787e-39
-0.051706463 0.0096346447 0.156 2.3055914e-39
0.014578849 0.0099694198 0.156 1.3458365e-38
-0.060368747 0.010722662 0.156 9.8335952e-39
-0.059418228 0.01050745 0.156 9.2825808e-39
-0.058611181 0.010555275 0.156 9.0985511e-39
-0.055221591 0.010555275 0.156 7.9075609e-39
-0.054719426 0.010555274 0.156 7.448382e-39
-0.053966183 0.010555275 0.156 5.2432511e-39
-0.060494285 0.011350363 0.156 1.0018349e-38
-0.059364423 0.011224823 0.156 9.1907467e-39
-0.058485635 0.011559598 0.156 8.8226872e-39
-0.056476995 0.011559598 0.156 8.1830674e-39
-0.055974834 0.011978066 0.156 7.9057658e-39
-0.054618996 0.011425687 0.156 6.9874094e-39
-0.053903416 0.011664215 0.156 5.6091539e-39
0.015206551 0.011726985 0.156 1.3458352e-38
-0.0583601 0.012229146 0.156 8.8244851e-39
-0.056225915 0.012354687 0.156 7.9975985e-39
-0.055974834 0.012229146 0.156 7.9061217e-39
-0.054468349 0.012480226 0.156 6.7097464e-39
-0.053840648 0.012480226 0.156 5.8839444e-39
0.014399506 0.012516095 0.156 1.3460563e-38
0.015300706 0.012511612 0.156 1.2998827e-38
-0.054593891 0.013484552 0.156 6.9856158e-39
-0.053840648 0.01348455 0.156 6.0676195e-39
0.013474095 0.013785847 0.156 1.4289965e-38
0.014327769 0.013610091 0.156 1.3737152e-38
0.015432523 0.0136352 0.15599999 1.3275069e-38
0.018847222 0.013986711 0.156 1.2814832e-38
0.020604787 0.013986711 0.156 1.0692164e-38
-0.059741043 0.014865494 0.156 9.0060023e-39
-0.0583601 0.014991035 0.156 8.3635098e-39
-0.057983477 0.014865494 0.156 8.4549879e-39
0.012653898 0.014907341 0.156 1.4566193e-38
0.013323446 0.014739954 0.156 1.4289965e-38
0.014327769 0.014739956 0.156 1.4013378e-38
0.015457633 0.014739956 0.156 1.3644225e-38
0.020604787 0.014739954 0.156 1.1708121e-38
0.021106949 0.014739954 0.156 1.0601057e-38
-0.059238881 0.015744276 0.156 8.3635098e-39
-0.058521505 0.015672538 0.156 8.27204e-39
-0.054468349 0.015995357 0.156 6.6197185e-39
-0.053664893 0.015894923 0.156 4.9663153e-39
0.012570203 0.015744278 0.156 1.4565476e-38
0.013323446 0.015744276 0.156 1.4289609e-38
0.014327768 0.015744276 0.156 1.3921184e-38
0.015457631 0.015744274 0.156 1.373679e-38
0.021232491 0.015744276 0.156 1.078653e-38
-0.054468349 0.016246438 0.156 6.3438505e-39
-0.053715106 0.016246438 0.156 4.5986159e-39
0.012402817 0.016664905 0.156 1.465767e-38
0.013323446 0.016664905 0.156 1.4381083e-38
0.014327769 0.016664905 0.156 1.4013021e-38
0.015081011 0.016246438 0.156 1.4013378e-38
0.02135803 0.016246438 0.156 1.0694333e-38
0.012402817 0.017376302 0.156 1.4473278e-38
0.013323446 0.017376304 0.156 1.4288886e-38
0.014327768 0.017376302 0.156 1.3920104e-38
0.015081011 0.017376302 0.156 1.4104855e-38
0.012402817 0.018255083 0.156 1.4196691e-38
0.013292061 0.018223699 0.156 1.401266e-38
0.014327769 0.018004002 0.156 1.3921183e-38
-0.0603269 0.019677876 0.156 7.9976111e-39
0.012570203 0.019133866 0.156 1.4381801e-38
0.013072365 0.019008325 0.156 1.4013378e-38
0.010310477 0.023527779 0.156 1.4657672e-38
0.010489821 0.024281021 0.156 1.2998855e-38
0.0087202983 0.025452731 0.156 1.3552037e-38
0.0095572351 0.025410885 0.156 1.1614112e-38
0.010525689 0.025357079 0.156 1.0047129e-38
0.049730152 0.025285343 0.156 6.0870457e-39
0.0084811756 0.026451079 0.156 1.2998503e-38
0.0095572351 0.026415206 0.156 1.3275811e-38
0.010477863 0.026415208 0.156 1.2814828e-38
0.011231107 0.026708134 0.156 9.771278e-39
0.0074481568 0.027595285 0.156 1.4197415e-38
0.0084273713 0.027545067 0.156 1.3736437e-38
0.0095572351 0.027545068 0.156 1.3921183e-38
0.010477864 0.027545068 0.156 1.21691e-38
0.011231107 0.02737768 0.156 1.2814825e-38
0.0073288935 0.028518006 0.156 1.392083e-38
0.0084273713 0.028465701 0.156 1.392083e-38
0.0095572351 0.028465698 0.156 1.3090342e-38
0.010260262 0.028398743 0.156 1.3091059e-38
0.0064438344 0.029553715 0.156 1.3828994e-38
0.0072975084 0.029470019 0.156 1.3644603e-38
0.0084273713 0.029470021 0.156 1.4566556e-38
0.0095258504 0.029428173 0.156 1.3644599e-38
0.010059397 0.029051553 0.156 1.3275816e-38
0.0064187259 0.03039065 0.156 1.4013385e-38
0.0072975084 0.03039065 0.156 1.392119e-38
0.0084273722 0.030390648 0.156 1.429033e-38
0.0094065871 0.030306956 0.156 1.4105577e-38
0.0064187259 0.031311285 0.156 1.327582e-38
0.0072975084 0.031311281 0.156 1.3828634e-38
0.0081135212 0.03124851 0.156 1.346021e-38
0.0093061542 0.031060198 0.156 1.4566555e-38
0.0056236372 0.032482985 0.156 1.3828994e-38
0.0062931855 0.032315597 0.156 1.3737159e-38
0.0072661233 0.032284215 0.156 1.3828994e-38
0.0047867014 0.033571005 0.156 1.4382524e-38
0.0054029897 0.033479705 0.156 1.3829353e-38
0.0062703607 0.033411227 0.156 1.346021e-38
0.0070464276 0.033194385 0.156 1.4659111e-38
0.0047867014 0.034449786 0.156 1.3829354e-38
0.0053202477 0.034543943 0.156 1.4105941e-38
0.0061257989 0.03440794 0.156 1.392155e-38
0.0053830179 0.035454109 0.156 1.4659112e-38
0.0024432812 0.036751363 0.156 1.4105936e-38
0.0045774677 0.036625821 0.156 1.4197774e-38
0.0055399435 0.036634192 0.156 1.4750946e-38
0.0017737327 0.037086137 0.156 1.4658748e-38
0.0022758942 0.037086137 0.156 1.4382164e-38
0.0037823785 0.037839379 0.156 1.3737154e-38
0.0044519273 0.037420914 0.156 1.4197774e-38
0.0052529941 0.037373088 0.156 1.4750946e-38
0.0026525154 0.038467079 0.156 1.4197771e-38
0.0034476041 0.038341537 0.156 1.4197772e-38
0.0044519273 0.038341537 0.156 1.4106656e-38
0.0051633227 0.038341537 0.156 1.4106297e-38
0.002526975 0.03909478 0.156 1.4105574e-38
0.0035312977 0.039195213 0.156 1.4382164e-38
0.0043921461 0.039274123 0.156 1.4382524e-38
0.0050377822 0.03909478 0.156 1.5120089e-38
0.002526975 0.04273545 0.156 1.594985e-38
0.0026525154 0.043551464 0.156 1.530448e-38
0.0051633227 0.044493016 0.156 1.4660191e-38
0.0057910243 0.045120716 0.156 1.5765458e-38
0.017451895 -0.035450909 0.15700001 4.7022994e-39
0.017451895 -0.034692839 0.15700001 4.2424045e-39
0.017451895 -0.033934768 0.15700001 4.1502116e-39
0.013408853 -0.031407863 0.15700001 4.9799429e-39
0.024021842 -0.028628273 0.15700001 4.979622e-39
0.029075647 -0.028628273 0.15700001 4.8874264e-39
0.011513676 -0.027617512 0.15700001 6.5451022e-39
0.025537983 -0.027364822 0.15700001 5.1650894e-39
0.026548743 -0.027427996 0.15700001 4.9806996e-39
0.027054124 -0.027364822 0.15700001 5.1650923e-39
0.028822957 -0.027617512 0.15700001 5.1650923e-39
0.011437869 -0.026151907 0.15700001 6.5454623e-39
0.024671618 -0.026426258 0.15699999 5.4405973e-39
0.025537983 -0.026480407 0.15700002 5.3491206e-39
0.026464513 -0.026480401 0.15700002 5.2572851e-39
0.02740789 -0.026758367 0.15700001 5.2569306e-39
0.02477991 -0.025343299 0.15700001 5.6249886e-39
0.025537983 -0.025343301 0.15700001 5.5331531e-39
0.026043363 -0.025343299 0.15700001 5.5331545e-39
0.025506396 -0.024458881 0.15700001 5.4416791e-39
0.026043363 -0.024837919 0.15700001 5.5338748e-39
0.023432231 -0.021468716 0.15700001 7.9269352e-39
0.019978799 -0.020289496 0.15700001 7.5607367e-39
0.020768456 -0.020510601 0.15700001 7.7451027e-39
0.02149494 -0.020542188 0.15700001 8.667024e-39
0.02216878 -0.020457955 0.15700001 9.4967468e-39
0.024190301 -0.020542186 0.15700001 8.1106062e-39
0.019776648 -0.019354541 0.15700002 7.3770699e-39
0.020736871 -0.019405082 0.15700002 7.1926716e-39
0.02149494 -0.019405078 0.15700001 7.5614387e-39
0.022253009 -0.01940508 0.15700002 8.8514096e-39
0.023011081 -0.019026045 0.15700001 9.5878635e-39
0.017451895 -0.018015284 0.15700001 7.1919626e-39
0.018715348 -0.018159678 0.15699999 7.6529421e-39
0.019726109 -0.018267974 0.15700001 7.6529407e-39
0.020736869 -0.018267974 0.15700001 7.3767112e-39
0.02149494 -0.018267974 0.15700001 7.2845099e-39
0.022216912 -0.018340172 0.15699999 7.6532742e-39
0.023137426 -0.018520664 0.15700001 9.03651e-39
0.024021842 -0.018267974 0.15700001 9.8648063e-39
0.016946515 -0.017341444 0.15700001 6.6387874e-39
0.017451895 -0.017341442 0.15700001 7.0997656e-39
0.018589003 -0.017341444 0.15700002 7.5607465e-39
0.019726107 -0.017341444 0.15700001 7.6529421e-39
0.020736869 -0.017341442 0.15700001 7.6529379e-39
0.02124225 -0.017762594 0.15700001 7.468904e-39
0.016946515 -0.016499143 0.15700001 6.4543961e-39
0.017451895 -0.016499143 0.15700001 6.9153757e-39
0.018589003 -0.016499143 0.15700001 7.5607465e-39
0.019726109 -0.016499143 0.15700001 7.7451378e-39
0.02056841 -0.016583374 0.15700001 7.6529407e-39
0.016946515 -0.015867416 0.15700001 6.2700049e-39
0.01748348 -0.015772657 0.15700001 6.730983e-39
0.018589003 -0.015741071 0.15700002 7.4685509e-39
0.019641878 -0.015825301 0.15700001 7.6529421e-39
0.020484179 -0.015993763 0.15700001 7.929529e-39
0.018462656 -0.014983001 0.15700001 7.2841582e-39
0.013535198 -0.004117324 0.15700001 1.1523701e-38
0.012650783 -0.0036119437 0.15700001 1.1706621e-38
0.013493083 -0.0037804039 0.15700001 1.1615901e-38
0.017704586 -0.0031065631 0.15700001 8.9436838e-39
0.018336311 -0.0031065631 0.15700001 8.8514895e-39
0.01757824 -0.0025169528 0.15700001 8.943318e-39
0.018589003 -0.0024432514 0.15700001 8.9433278e-39
0.019473419 -0.0020958025 0.15700001 9.4965044e-39
0.011303101 -0.001590422 0.15700001 1.1985409e-38
0.017603509 -0.0016409602 0.15700001 9.2184532e-39
0.018399484 -0.0015272496 0.15700001 9.2195518e-39
0.019599764 -0.001590422 0.15700001 9.7730913e-39
-0.042435687 -0.00057966128 0.15700001 1.3644222e-38
-0.041930307 -0.00057966128 0.15700001 1.392009e-38
0.011345215 -0.00028485607 0.15700001 1.1985421e-38
0.01861006 -0.00043225868 0.15700002 9.5876098e-39
0.019653913 -0.00047136546 0.15699999 1.0049315e-38
0.01062926 0.00093647983 0.15700001 1.2355296e-38
0.011479218 0.00070676144 0.15700002 1.2077976e-38
0.018570954 0.00057549385 0.15699999 9.7716255e-39
0.019625032 0.00058271352 0.15700001 1.0140792e-38
-0.00074179942 0.0014418602 0.15700001 1.0877278e-38
0.0017851029 0.0016945503 0.15700001 1.1340065e-38
0.010528184 0.0017450884 0.15700001 1.2447492e-38
0.011513676 0.0016945506 0.15700002 1.253896e-38
0.018904865 0.0016945503 0.15700001 9.8638268e-39
0.019641878 0.0016103202 0.15700001 9.6805341e-39
-0.053301364 0.0029580011 0.15700001 9.3116717e-39
0.010376569 0.0026210812 0.15700001 1.2907391e-38
0.011513676 0.002621081 0.15700002 1.2907747e-38
0.012398091 0.0026210807 0.15700001 1.244636e-38
0.018904865 0.0026421384 0.15700001 1.0230783e-38
0.019473419 0.0027053109 0.15700001 9.9556721e-39
-0.05421105 0.0034128434 0.15700001 9.4949826e-39
0.01037657 0.0035476116 0.15700001 1.3276174e-38
0.011513676 0.0035476114 0.15700002 1.3091784e-38
0.012398091 0.0035476116 0.15700001 1.2815888e-38
-0.054276023 0.0046546352 0.15699999 6.5429526e-39
-0.053385597 0.0046847174 0.15700001 6.7284201e-39
0.01037657 0.0045583718 0.15700001 1.3644597e-38
0.011513676 0.0045583718 0.15700002 1.3276175e-38
0.012398091 0.0045583718 0.15700001 1.2815541e-38
-0.059429105 0.0054849032 0.15700001 1.0775303e-38
-0.054059435 0.0052322131 0.15700001 4.8845271e-39
-0.053554054 0.0052322131 0.15700001 5.3454996e-39
-0.052543294 0.0054849032 0.15700001 4.9781548e-39
0.010408157 0.0054533174 0.15700001 1.3736793e-38
0.011513676 0.0054849032 0.15700002 1.35524e-38
0.012566552 0.0055691334 0.15700001 1.3183612e-38
-0.059365932 0.0064956639 0.15700001 1.0764881e-38
-0.055407118 0.0064956639 0.15700001 4.3313561e-39
-0.053301364 0.0063272039 0.15700001 3.4122865e-39
0.010528184 0.0064451261 0.15700001 1.3921186e-38
0.011513676 0.0064956639 0.15700002 1.382899e-38
0.012650783 0.0064956644 0.15700001 1.3552758e-38
-0.059408043 0.0075485394 0.15700001 1.029708e-38
-0.057260182 0.0076748845 0.15700001 9.482064e-39
-0.056080956 0.0077591147 0.15700001 7.8268587e-39
-0.055828266 0.0077591147 0.15700001 6.6312022e-39
-0.054059435 0.0077591147 0.15700001 3.1339045e-39
-0.053427711 0.0077591147 0.15700001 2.5821727e-39
-0.052353777 0.0075064246 0.15700001 2.6747284e-39
-0.010091337 0.0075064246 0.15700001 8.3861183e-39
-0.0097123021 0.0075064246 0.15700001 7.926222e-39
-0.006300984 0.0075064246 0.15700001 5.2543774e-39
-0.0054165684 0.0072537344 0.15700001 4.5171795e-39
0.0104608 0.0075485394 0.15700001 1.3644597e-38
0.011513676 0.0074221934 0.15700002 1.401338e-38
0.012650783 0.0074221948 0.15700001 1.392154e-38
-0.058228824 0.0086435303 0.15700001 9.9304613e-39
-0.057524901 0.0085532833 0.15699999 9.6560296e-39
-0.056737952 0.0083655715 0.15700001 8.923498e-39
-0.054122604 0.0085171852 0.15700001 3.3175755e-39
-0.053373564 0.0083727902 0.15699999 2.674011e-39
-0.05241695 0.0080118049 0.15700001 2.49034e-39
-0.0070590554 0.0080118049 0.15700001 5.0692687e-39
0.0097448444 0.0085171852 0.15700001 1.4657669e-38
0.010376569 0.0084329555 0.15700001 1.4012658e-38
0.011513676 0.0084329555 0.15700002 1.419777e-38
0.012650783 0.0084329545 0.15700001 1.4566191e-38
0.013493083 0.0086856456 0.15700001 1.4012647e-38
-0.060629383 0.0093594855 0.15700001 9.9250691e-39
-0.058228824 0.0093594864 0.15700001 9.3762127e-39
-0.057512864 0.0093594855 0.15700001 9.1928991e-39
-0.056622438 0.0094196498 0.15699999 8.7333601e-39
-0.054276023 0.0092391567 0.15699999 4.0511791e-39
-0.053427711 0.0093594855 0.15700001 2.5810965e-39
0.0096184993 0.0093594855 0.15700001 1.4842061e-38
0.01037657 0.0093594864 0.15700001 1.4381443e-38
0.011513676 0.0093594873 0.15700002 1.4105575e-38
0.012650783 0.0093594864 0.15700001 1.4566552e-38
0.013629957 0.0094016017 0.15700001 1.4105566e-38
0.014166923 0.0097806361 0.15700001 1.3459828e-38
-0.061134763 0.010286016 0.15700001 1.038605e-38
-0.058228824 0.010286015 0.15700001 9.0074316e-39
-0.057512864 0.010286015 0.15700001 9.1003475e-39
-0.05649158 0.010254431 0.15700001 8.5496933e-39
-0.054059435 0.010286016 0.15700001 4.6918766e-39
-0.053301364 0.010286015 0.15700001 2.7647689e-39
-0.05241695 0.010412361 0.15700001 2.3059501e-39
0.0048173857 0.010538707 0.15700001 1.4288886e-38
0.0096184993 0.010286015 0.15700001 1.4104495e-38
0.010376569 0.010286016 0.15700001 1.4012658e-38
0.011513676 0.010286015 0.15700002 1.4105575e-38
0.012650783 0.010286015 0.15700001 1.4566552e-38
0.013661544 0.010286015 0.15700001 1.4197765e-38
0.014369075 0.010336554 0.15700001 1.3551304e-38
-0.058228824 0.011296776 0.15700001 8.8237648e-39
-0.057633199 0.011260678 0.15699999 8.6426078e-39
-0.05633365 0.0111957 0.15700001 8.1823485e-39
-0.055638753 0.011486296 0.15700001 7.4469471e-39
-0.054059435 0.011296776 0.15700001 5.3332873e-39
-0.053554054 0.011170432 0.15700001 3.8653571e-39
-0.052164257 0.011044087 0.15700001 2.1222805e-39
0.0096184993 0.011296778 0.15700001 1.4382161e-38
0.010376569 0.011296775 0.15700001 1.4105574e-38
0.011513676 0.011296776 0.15700002 1.3460205e-38
0.012650783 0.011296777 0.15700001 1.4105215e-38
0.013661544 0.011296776 0.15700001 1.4104495e-38
0.014419612 0.011296776 0.15700001 1.3643511e-38
-0.058228824 0.012181193 0.15700001 8.8244851e-39
-0.057521291 0.012433883 0.15700002 8.2731078e-39
-0.056291532 0.012560229 0.15700001 7.8128513e-39
-0.055575576 0.012433883 0.15700002 7.354034e-39
0.0077233231 0.012812918 0.15700001 1.4749144e-38
0.0084392792 0.012728688 0.15700001 1.4564754e-38
0.0094806692 0.012468339 0.15700002 1.5026451e-38
0.01037657 0.012433883 0.15700002 1.4843139e-38
0.011513676 0.012433883 0.15700004 1.4474357e-38
0.012650781 0.012433883 0.15700002 1.419777e-38
0.013638572 0.012399424 0.15700002 1.419777e-38
0.014588073 0.012054848 0.15700001 1.3736422e-38
-0.056502104 0.01357099 0.15700001 7.7203011e-39
-0.055701923 0.013570989 0.15700001 7.4447947e-39
-0.053337462 0.013643186 0.15699999 3.3132693e-39
-0.0522906 0.013697334 0.15700001 2.1212015e-39
-0.051785219 0.013570989 0.15700001 1.9378921e-39
0.007533805 0.013444644 0.15700001 1.4933896e-38
0.0094500389 0.013570989 0.15700001 1.4658388e-38
0.01037657 0.01357099 0.15700001 1.4842419e-38
0.011513676 0.013570988 0.15700002 1.4473278e-38
0.012650783 0.013570989 0.15700001 1.4381082e-38
0.013493083 0.013402529 0.15700001 1.4289965e-38
-0.05709172 0.014708095 0.15700001 7.9032547e-39
-0.056502111 0.014497519 0.15700001 7.6284685e-39
-0.055575583 0.01449752 0.15700001 7.2614838e-39
-0.054438472 0.014497519 0.15700002 6.3431288e-39
-0.053332951 0.014455404 0.15700001 3.4051062e-39
-0.052353777 0.014202715 0.15700001 2.0293674e-39
-0.051785223 0.01407637 0.15700001 1.9378921e-39
0.0088604288 0.014497519 0.15700001 1.4565113e-38
0.0094500389 0.014497519 0.15700001 1.4380722e-38
0.01037657 0.014497519 0.15700001 1.4565473e-38
0.011513676 0.014497518 0.15700002 1.4565473e-38
0.012566552 0.014371174 0.15700001 1.4381442e-38
0.020484179 0.01458175 0.15700001 1.2260934e-38
-0.058228828 0.015529339 0.15700001 8.4564313e-39
-0.05709172 0.01508713 0.15700001 7.9958104e-39
-0.056441952 0.015412017 0.15699999 7.8139387e-39
-0.055575576 0.015508281 0.15700001 7.3543997e-39
-0.054489005 0.015440896 0.15700002 6.2512933e-39
-0.053554054 0.015508282 0.15700001 4.3223864e-39
0.0088604288 0.015339821 0.15700001 1.4841338e-38
0.0094500389 0.015508279 0.15700001 1.4565112e-38
0.01037657 0.015508281 0.15700001 1.4749866e-38
0.011513676 0.015508282 0.15700002 1.4749866e-38
0.020736869 0.015845202 0.15700001 1.1985072e-38
-0.059618622 0.016097892 0.15700001 8.3635098e-39
-0.058860552 0.016097892 0.15700001 8.548987e-39
-0.055449232 0.016097892 0.15700001 7.0785331e-39
-0.054185778 0.016855963 0.15700001 4.5986145e-39
-0.053554054 0.016434813 0.15700001 3.5880626e-39
0.0095463023 0.016386682 0.15699999 1.4933896e-38
0.010376569 0.016434811 0.15700001 1.5210844e-38
0.011437869 0.016401118 0.15700002 1.4842063e-38
0.0096184993 0.017361343 0.15700001 1.5210843e-38
0.01037657 0.017361343 0.15700001 1.5210843e-38
0.01138733 0.017361341 0.15700001 1.4749864e-38
0.0094921542 0.018372104 0.15700001 1.5302678e-38
0.010376569 0.018372104 0.15700001 1.5026451e-38
0.01138733 0.018372104 0.15700001 1.4473279e-38
