# .PCD v0.7 - Point Cloud Data file format
VERSION 0.7
FIELDS x y z rgb
SIZE 4 4 4 4
TYPE F F F F
COUNT 1 1 1 1
WIDTH 1016
HEIGHT 1
VIEWPOINT 0 0 0 1 0 0 0
POINTS 1016
DATA ascii
-0.049652882 -0.020584824 0.13800001 9.773443e-39
-0.04884987 -0.020943617 0.13800001 7.5607493e-39
-0.017421324 -0.020166231 0.13800001 6.6387804e-39
-0.057201199 -0.019610956 0.13800001 1.2077979e-38
-0.053450715 -0.019261926 0.13800001 1.0602461e-38
-0.05243139 -0.019416612 0.13800001 7.2823155e-39
-0.051626239 -0.019684995 0.13800001 7.5596465e-39
-0.050552707 -0.019610958 0.13800001 9.0355178e-39
-0.049849365 -0.019610956 0.13800001 8.2979514e-39
-0.017421324 -0.019833067 0.13800001 6.6387804e-39
-0.057067934 -0.018500408 0.13800001 1.0971988e-38
-0.056401603 -0.018352335 0.13800001 1.0695041e-38
-0.055513166 -0.018500408 0.13800001 1.0418814e-38
-0.054624725 -0.018322721 0.13800001 1.0142226e-38
-0.05340312 -0.018611463 0.13800001 9.1269568e-39
-0.052847847 -0.018944629 0.13800001 7.7436426e-39
-0.057067934 -0.017537931 0.13800001 1.1892865e-38
-0.056401607 -0.017723024 0.13800001 1.0786876e-38
-0.055957384 -0.017834079 0.13800001 1.0326258e-38
-0.053181011 -0.017834079 0.13800001 7.2823057e-39
-0.025084114 -0.0032858844 0.13800001 1.3276162e-38
-0.024787968 -0.0032488659 0.13800001 1.3276162e-38
0.04110463 0.004376905 0.13800001 6.5505673e-39
0.067868873 0.004821125 0.13800001 7.1963066e-39
0.068424143 0.004821125 0.13800001 7.0129943e-39
-0.0082037635 0.005931674 0.13800001 5.8986734e-39
0.043547839 0.0054874546 0.13800001 6.1821519e-39
0.066869378 0.005931674 0.13800001 7.4721732e-39
0.067668982 0.0054578404 0.13800001 7.1966667e-39
0.068572216 0.0054134182 0.13800001 7.1048298e-39
0.069090471 0.0052653444 0.13800001 7.0129943e-39
0.070867352 0.005931674 0.13800001 7.3806979e-39
0.058373675 0.006486949 0.13800001 7.0111558e-39
0.059095528 0.0062648389 0.13800001 7.1959128e-39
0.06678053 0.0065091597 0.13800001 7.1959437e-39
0.067646764 0.0064499304 0.13800001 7.1044697e-39
0.068646252 0.0064499313 0.13800001 7.196308e-39
0.069201529 0.0065424768 0.13800001 7.2885036e-39
0.070589721 0.006375894 0.13800001 7.2885022e-39
-0.021752467 0.0072643333 0.13800001 5.6253375e-39
-0.018309763 0.0072643333 0.13800001 3.5977441e-39
0.066721305 0.0074864435 0.13800001 7.0119125e-39
0.067646764 0.0074309148 0.13800001 7.1037508e-39
0.068646252 0.0074309153 0.13800001 7.1963066e-39
0.06947916 0.0073568798 0.13800001 7.1048298e-39
0.057762869 0.0085969931 0.13800001 5.9944353e-39
0.058318146 0.0085969931 0.13800001 5.8104112e-39
0.066647261 0.0083748829 0.13800001 7.1959437e-39
0.067646764 0.0083748838 0.13800001 7.1041096e-39
0.068646252 0.0083748829 0.13800001 7.0122755e-39
0.069201529 0.0083193555 0.13800001 7.2888624e-39
0.06585402 0.009485431 0.13800001 6.6438517e-39
0.066647269 0.0093743764 0.13800001 6.8286031e-39
0.067646764 0.0093743764 0.13800001 6.7360473e-39
0.068601832 0.0093299542 0.13800001 6.8286031e-39
0.042770453 0.010373872 0.13800001 8.3930253e-39
0.064870387 0.010595981 0.13800001 6.3679781e-39
0.06567806 0.010394063 0.13800001 6.4601779e-39
0.066647261 0.010373871 0.13800001 6.5523735e-39
0.067580126 0.01035166 0.13800001 6.8278814e-39
0.068424143 0.010151762 0.13800001 7.104111e-39
0.064722314 0.011410384 0.13800001 6.1832267e-39
0.065647766 0.011373364 0.13800001 6.091394e-39
0.066647269 0.011373366 0.13800001 6.3676235e-39
0.067402445 0.011217889 0.13800001 6.4598206e-39
0.064697638 0.012397539 0.13800001 6.090308e-39
0.065647766 0.012483916 0.13800001 6.1825092e-39
0.066573225 0.012298823 0.13800001 6.550933e-39
0.065561399 0.013434052 0.13800001 6.0895961e-39
0.065536715 0.014816068 0.13800001 6.0895919e-39
0.040271718 0.01564898 0.13800001 8.2090026e-39
0.06585402 0.015482398 0.13800001 6.0895919e-39
0.066425152 0.015815563 0.13800001 5.9981165e-39
0.040327244 0.016592946 0.13800001 8.025319e-39
0.065980934 0.016592948 0.13800001 5.7208136e-39
0.066615537 0.016656408 0.13800001 5.8140882e-39
0.041548852 0.017481387 0.13800001 8.1142174e-39
0.04221518 0.017259277 0.13800001 8.206406e-39
0.066702791 0.017148223 0.13800001 5.8144484e-39
0.067313597 0.017259277 0.13800001 5.9066454e-39
0.019634008 0.019850558 0.13800001 7.1955863e-39
0.020337354 0.019924594 0.13800001 7.8409557e-39
0.02067052 0.020590924 0.13800001 6.826801e-39
0.012452454 0.021828394 0.13800001 1.0879317e-38
0.013467813 0.021733204 0.13800001 1.0050279e-38
0.014249525 0.021580324 0.13800001 8.9435857e-39
0.012396927 0.022515872 0.13800001 9.7740554e-39
0.013340894 0.022256747 0.13800001 9.7744197e-39
0.014895664 0.022367802 0.13800001 7.2837224e-39
0.015284355 0.022756495 0.13800001 6.8231072e-39
0.016524469 0.022812022 0.13800001 6.4539772e-39
0.010453466 0.023922572 0.13800001 1.1248095e-38
0.011564016 0.023811517 0.13800001 1.097187e-38
0.012408033 0.023345087 0.13800001 9.2212431e-39
0.015339883 0.023330279 0.13800001 7.0085747e-39
0.016450433 0.023316817 0.13800001 5.9922857e-39
0.017116763 0.023478352 0.13800001 5.7139164e-39
0.010823649 0.024218718 0.13800001 1.1063349e-38
0.011452961 0.024144681 0.13800001 1.0971152e-38
0.012230345 0.024144681 0.13800001 9.5896683e-39
0.014395917 0.024144681 0.13800001 8.8528432e-39
0.015284356 0.024422318 0.13800001 8.4840593e-39
0.016894652 0.024255738 0.13800001 5.1607412e-39
0.017116763 0.024144681 0.13800001 5.1593147e-39
0.016228322 0.025033122 0.13800001 7.4663312e-39
0.013785114 0.029475318 0.13800001 1.2531659e-38
0.014318178 0.029653007 0.13800001 1.1516797e-38
0.014562499 0.030252703 0.13800001 1.1055103e-38
0.057485234 0.030474812 0.13800001 2.1664517e-38
0.058281127 0.030511832 0.13800001 2.1572321e-38
0.059983969 0.030585866 0.13800001 2.0374134e-38
0.046879485 0.031696416 0.13800001 7.8387865e-39
0.047101598 0.031696416 0.13800001 7.7465909e-39
0.057485234 0.031363249 0.13800001 2.2309886e-38
0.058429196 0.031363249 0.13800001 2.1940744e-38
0.059317634 0.031363253 0.13800001 2.0835114e-38
0.056874432 0.032473799 0.13800001 2.2032939e-38
0.057485238 0.032473803 0.13800001 2.2309166e-38
0.0584292 0.032473799 0.13800001 2.1110623e-38
0.059169564 0.032399762 0.13800001 2.0741842e-38
0.056541268 0.033501055 0.13800001 2.0282304e-38
0.057485238 0.033473294 0.13800001 2.0190467e-38
0.058401439 0.03344553 0.13800001 1.9822044e-38
0.055819407 0.03455608 0.13800001 1.7147651e-38
0.05650425 0.03447279 0.13800001 1.7701185e-38
0.057485234 0.03447279 0.13800001 1.7608628e-38
0.058207091 0.03425068 0.13800001 1.8439471e-38
0.055571388 0.03560555 0.13800001 9.8638394e-39
0.05650425 0.035583336 0.13800001 1.0323736e-38
0.057413843 0.035551604 0.13800001 1.0414848e-38
0.054875445 0.036582831 0.13800001 7.8380649e-39
0.05554178 0.036582828 0.13800001 7.653675e-39
0.05650425 0.036582828 0.13800001 7.5611192e-39
0.057185389 0.036538411 0.13800001 7.9298976e-39
0.054625567 0.037637856 0.13800001 7.4703656e-39
0.055541776 0.037526801 0.13800001 7.2859743e-39
0.056430213 0.037421916 0.13800001 7.2859729e-39
0.053801909 0.038655858 0.13800001 7.1941388e-39
0.054505259 0.038581822 0.13800001 7.2863344e-39
0.055430718 0.038498532 0.13800001 7.1019432e-39
0.052876454 0.039914481 0.13800001 7.101946e-39
0.053572398 0.039559111 0.13800001 7.2859771e-39
0.054505259 0.039525792 0.13800001 7.5625612e-39
0.055097554 0.039914481 0.13800001 7.5622025e-39
0.052765399 0.040506773 0.13800001 7.5636444e-39
0.053542782 0.040506776 0.13800001 7.7473154e-39
0.054505259 0.040506773 0.13800001 7.6547582e-39
0.052765399 0.04146925 0.13800001 8.2072131e-39
0.053542782 0.041469246 0.13800001 7.563643e-39
0.054471601 0.041428868 0.13800001 7.5629241e-39
0.051988013 0.042801909 0.13800001 9.2224455e-39
0.05262658 0.042552039 0.13800001 8.2086551e-39
0.053542778 0.04250576 0.13800001 7.1948605e-39
0.054297961 0.042446535 0.13800001 7.3785329e-39
0.051892817 0.043531697 0.13800001 8.0235449e-39
0.052580312 0.043468237 0.13800001 7.9317094e-39
0.053542778 0.043468244 0.13800001 7.1945045e-39
0.054264642 0.043357179 0.13800001 7.1030264e-39
0.05169927 0.044467736 0.13800001 7.470374e-39
0.052580308 0.044430718 0.13800001 7.3781769e-39
0.053542778 0.044430718 0.13800001 7.2863414e-39
0.054209113 0.044245623 0.13800001 7.6547638e-39
0.05065535 0.045590624 0.13800001 7.2866974e-39
0.051599324 0.045467224 0.13800001 6.8253605e-39
0.052580301 0.045467224 0.13800001 6.5487736e-39
0.053542778 0.045467224 0.13800001 6.8257206e-39
0.049989026 0.046577774 0.13800001 6.641328e-39
0.050581317 0.046429701 0.13800001 6.2729042e-39
0.05159932 0.046429705 0.13800001 6.1799897e-39
0.052580312 0.046429705 0.13800001 6.3640208e-39
0.053348437 0.046383429 0.13800001 6.6409678e-39
0.049989026 0.047244105 0.13800001 5.9955984e-39
0.050581317 0.047410686 0.13800001 5.9034028e-39
0.051599324 0.047410693 0.13800001 6.1796295e-39
0.052553389 0.047365252 0.13800001 6.4565766e-39
0.0531726 0.047096033 0.13800001 6.9175547e-39
0.051728886 0.048243601 0.13800001 6.5487722e-39
0.052358195 0.048206583 0.13800001 6.6416867e-39
0.050581317 0.049909424 0.13800001 7.0108293e-39
0.049933501 0.050409168 0.13800001 6.5498512e-39
0.050581317 0.050353643 0.13800001 6.8264381e-39
0.051247645 0.05020557 0.13800001 6.643486e-39
0.047723506 0.051597457 0.13800001 6.1799897e-39
0.049900182 0.051286507 0.13800001 6.2729014e-39
0.050470263 0.051168051 0.13800001 6.2729042e-39
0.047701295 0.052374847 0.13800001 5.9044818e-39
0.048656363 0.052463681 0.13800001 5.9959571e-39
0.049248654 0.052389652 0.13800001 5.903044e-39
0.048878476 0.053352125 0.13800001 6.087794e-39
0.049100589 0.05346318 0.13800001 6.087794e-39
0.048804443 0.054499697 0.13800001 6.4565766e-39
0.049350459 0.05443491 0.13800001 7.9306248e-39
0.050655354 0.054129511 0.13800001 5.9034e-39
0.050938834 -0.048061278 0.14 2.8609022e-39
0.051502153 -0.048061278 0.14 2.7683492e-39
0.052365914 -0.048173945 0.14 2.4910462e-39
0.038046699 -0.047494266 0.13900001 2.5853971e-39
0.048910871 -0.047610618 0.14 2.8609022e-39
0.051581718 -0.047606125 0.13900001 2.8594672e-39
0.047442913 -0.046599388 0.13900001 3.4129969e-39
-0.024546336 -0.031217948 0.14 4.429681e-39
-0.025042163 -0.030267876 0.13900001 4.6129961e-39
-0.02444558 -0.030417021 0.13900001 4.6133534e-39
-0.023699848 -0.030417023 0.13900001 4.7062693e-39
-0.025042163 -0.029708577 0.13900001 4.5208018e-39
-0.024498846 -0.02966064 0.13900001 4.5211606e-39
-0.023923567 -0.029820437 0.13900001 4.3382084e-39
-0.044729467 -0.026800226 0.13900001 6.7320578e-39
-0.017251315 -0.022430124 0.14 6.4543891e-39
-0.048644558 -0.021319101 0.13900001 5.9012266e-39
-0.017485356 -0.021404933 0.13914286 6.6387804e-39
-0.016988266 -0.021542821 0.13900001 6.730976e-39
-0.049763151 -0.020312365 0.13900001 8.9433208e-39
-0.017547565 -0.020871663 0.13900001 6.730976e-39
-0.058478042 -0.019427655 0.13900003 1.1985784e-38
-0.057928909 -0.019305628 0.13900001 1.1709195e-38
-0.053007085 -0.019081907 0.13900001 6.9135316e-39
-0.052464407 -0.01920489 0.13942857 7.4678096e-39
-0.051664766 -0.019417487 0.13900001 9.7730801e-39
-0.058450919 -0.018485324 0.13900001 1.1064183e-38
-0.057928909 -0.018485323 0.13900001 1.0971627e-38
-0.053267099 -0.018403728 0.1398 6.4532793e-39
-0.052487113 -0.018633332 0.14 8.9429565e-39
-0.058478042 -0.01755655 0.13900003 1.2998854e-38
-0.057928909 -0.017665019 0.13900001 1.2077256e-38
-0.054064415 -0.017867215 0.14 7.374137e-39
-0.053388428 -0.017867215 0.14 7.3748881e-39
-0.025042163 -0.0043164319 0.13900001 1.3182888e-38
0.065641545 -0.0041784886 0.14 7.3810482e-39
0.067387842 -0.0041221566 0.14 7.6576379e-39
0.064759001 -0.0033710608 0.14 7.1966597e-39
0.065585211 -0.0034461704 0.14 7.1970199e-39
0.066586673 -0.0033710608 0.14 7.2884994e-39
0.067452215 -0.0034783601 0.14 7.2888596e-39
-0.025472542 -0.0026296577 0.13942857 1.3367998e-38
0.06378258 -0.0020941973 0.14 6.8278772e-39
0.064548694 -0.0024547237 0.14 6.9200756e-39
0.065585218 -0.002488523 0.14 6.7364047e-39
0.066542856 -0.002488523 0.14 7.0126314e-39
0.067573026 -0.0024125457 0.13978572 7.0129915e-39
0.068528458 -0.0023029579 0.13900003 6.9207973e-39
0.069463283 -0.002239038 0.13900001 7.1970241e-39
0.070038565 -0.0021910984 0.13900001 7.4728935e-39
-0.025560318 -0.0014182107 0.14 1.4104125e-38
-0.024996994 -0.0013055464 0.14 1.4565103e-38
-0.017335813 -0.0014182107 0.14 1.4656211e-38
-0.016563257 -0.001353831 0.14 1.456366e-38
-0.015645845 -0.0012679915 0.14 1.4471464e-38
0.063692451 -0.001373145 0.14 6.6442062e-39
0.064514898 -0.0014182107 0.14 6.7367634e-39
0.065585211 -0.0014182107 0.14 6.8289604e-39
0.066542856 -0.0014182107 0.14 7.0129915e-39
0.067603886 -0.0014343215 0.13974999 7.0126342e-39
0.068528458 -0.0014826538 0.13900003 7.10519e-39
0.069479272 -0.0015199403 0.13900001 7.2885022e-39
0.070038565 -0.0016318 0.13900001 7.2885022e-39
-0.025560318 -0.00046056323 0.14 1.5026439e-38
-0.024846774 -0.00046682238 0.14 1.5487055e-38
-0.018011799 -6.6237793e-05 0.14 6.9171273e-39
-0.017335812 -0.00046056314 0.14 1.2996671e-38
-0.016509609 -0.00046056323 0.14 1.4471459e-38
-0.015533182 -0.00046056323 0.14 1.4471103e-38
-0.014481648 -0.00046056323 0.14 1.4378547e-38
-0.013669097 -0.00037350439 0.14 1.4194156e-38
0.062806152 -0.00014134739 0.14 7.0119083e-39
0.063557245 -0.00046056323 0.14 6.7364033e-39
0.06451489 -0.00046056317 0.14 6.828959e-39
0.065585218 -0.00046056323 0.14 7.0129915e-39
0.066542856 -0.00046056317 0.14 7.1973828e-39
0.067508489 -0.00045888883 0.13943753 7.1048298e-39
0.068298519 -0.00051320333 0.13900001 7.1970255e-39
-0.025560318 0.00053463905 0.14 1.6776715e-38
-0.02488433 0.00053463911 0.14 1.6961108e-38
-0.018124465 0.00053463905 0.14 6.2721194e-39
-0.017335812 0.00053463905 0.14 7.4685032e-39
-0.016509609 0.000534639 0.14 1.1890686e-38
-0.015533182 0.000534639 0.14 1.3549864e-38
-0.014481647 0.00053463905 0.14 1.3364755e-38
-0.013505223 0.00053463905 0.14 1.3180723e-38
-0.012829236 0.00053463905 0.14 1.2720463e-38
0.062768593 0.00053463905 0.14 7.0119097e-39
0.063557245 0.00053463905 0.14 6.7364061e-39
0.064514883 0.00053463905 0.14 6.7364047e-39
0.065585211 0.00053463905 0.14 6.7364047e-39
0.066507012 0.00050732651 0.14 7.0126342e-39
0.067417935 0.00053177489 0.13925003 7.0129943e-39
0.068422817 0.00060539338 0.13900001 7.1048298e-39
-0.025447652 0.0011730707 0.14 1.7329527e-38
-0.024771664 0.0015110641 0.14 1.7513919e-38
-0.018289126 0.001597729 0.14 5.167211e-39
-0.017335813 0.001511064 0.14 5.2586864e-39
-0.016509607 0.0015110642 0.14 8.0213295e-39
-0.015533183 0.0015110639 0.14 1.1154212e-38
-0.014481648 0.001511064 0.14 1.1245336e-38
-0.013535266 0.0014810201 0.14 1.0969467e-38
-0.012829236 0.0011730707 0.14 1.152264e-38
0.039747499 0.0018866119 0.14 5.7222555e-39
0.040123049 0.0019617216 0.14 5.7222555e-39
0.053259611 0.0012765513 0.13900001 7.2884994e-39
0.062768593 0.001511064 0.14 7.0119111e-39
0.063557245 0.001511064 0.14 6.5520162e-39
0.064514898 0.001511064 0.14 6.4601807e-39
0.065585211 0.001511064 0.14 6.6445706e-39
0.066492043 0.0015276272 0.13936844 7.0122741e-39
0.06750308 0.0015002707 0.13900003 7.2892211e-39
0.068528458 0.0015002707 0.13900003 7.10519e-39
0.069367409 0.0016792461 0.13900001 7.10519e-39
-0.018349791 0.0025625986 0.14 4.5225647e-39
-0.017335813 0.0025625983 0.14 4.7984313e-39
-0.016509607 0.0025625986 0.14 5.9948207e-39
-0.015533183 0.0025625986 0.14 8.4823244e-39
-0.014535298 0.002476759 0.14 9.4950555e-39
-0.01395588 0.0021870504 0.14 9.7712836e-39
0.039705843 0.0024987429 0.1398 5.6293354e-39
0.040340595 0.002620603 0.13911112 5.6300599e-39
0.052290805 0.0028630369 0.14 7.4721704e-39
0.062630899 0.0026377083 0.14 6.8275213e-39
0.063557245 0.0025625983 0.14 6.3676249e-39
0.064514898 0.0025625986 0.14 6.3687039e-39
0.065599672 0.0025913082 0.13972728 6.5538155e-39
0.066478126 0.002516814 0.13907695 6.9207987e-39
0.067503072 0.0025442941 0.13900001 7.10519e-39
0.068435244 0.0023205753 0.13900001 7.10519e-39
-0.023207664 0.0038716954 0.13900001 1.7790508e-38
-0.022523677 0.0035212322 0.13933335 1.6684518e-38
-0.021910092 0.0039611831 0.13900001 1.2813014e-38
-0.018327259 0.0035089799 0.14 4.0612334e-39
-0.017335812 0.0035390237 0.14 4.1530703e-39
-0.016536921 0.0034980548 0.14 4.4292957e-39
-0.015796065 0.0032761397 0.14 5.9022719e-39
0.040566392 0.0031485008 0.13933334 5.9055608e-39
0.041293059 0.0036814846 0.13918184 6.0903136e-39
0.042226117 0.0039145714 0.14 6.2754293e-39
0.061754618 0.0038770167 0.14 7.1959437e-39
0.062543273 0.0035390235 0.14 6.9193568e-39
0.063557245 0.0035390232 0.14 6.7356844e-39
0.064537138 0.0035638567 0.13994119 6.4598192e-39
0.065539636 0.0034902275 0.13926668 6.4608996e-39
0.066514984 0.0035137448 0.13900003 6.9211589e-39
0.067353934 0.0035137448 0.13900001 7.0129943e-39
-0.02432101 0.0045154486 0.14 1.603879e-38
-0.023252407 0.004483195 0.13900001 1.7237335e-38
-0.022432106 0.0044831946 0.13900001 1.6315734e-38
-0.02187624 0.0044993218 0.13950001 1.1338958e-38
-0.01808691 0.0042901193 0.14 3.3233124e-39
-0.017363979 0.0044685048 0.14 3.5998993e-39
-0.016885156 0.00421501 0.14 3.8764862e-39
0.04148915 0.0044517308 0.13916667 6.9182596e-39
0.042428974 0.0045962972 0.13985714 6.2747048e-39
0.061754618 0.0045154486 0.14 7.0126314e-39
0.062543273 0.0045154481 0.14 7.2877722e-39
0.063557245 0.0045154481 0.14 7.6558302e-39
0.064590521 0.0045089973 0.1398 6.7356844e-39
0.065564178 0.004483195 0.13900001 6.6445706e-39
0.066514984 0.004483195 0.13900003 6.829322e-39
0.06746579 0.0045204819 0.13900001 7.10519e-39
0.068248808 0.0044086217 0.13900001 7.10519e-39
-0.024321008 0.0052289898 0.14 1.1244616e-38
-0.023252407 0.0054712892 0.13900003 1.2904857e-38
-0.022432104 0.0054712887 0.13900003 1.364278e-38
-0.021811446 0.0053555123 0.139625 9.0351409e-39
-0.0085479878 0.0055669826 0.14 1.1154215e-38
0.042581115 0.005163521 0.13975 6.4583716e-39
0.043228384 0.0053842305 0.13942857 6.3668977e-39
0.061504252 0.0053917277 0.14 7.0115356e-39
0.062543266 0.0053416542 0.14 7.01116e-39
0.063557245 0.0053416542 0.14 7.3799608e-39
0.064598836 0.005407054 0.13964705 6.9197141e-39
0.065564178 0.0054712892 0.13900003 6.7364075e-39
0.066514984 0.0054712892 0.13900003 7.0122755e-39
0.067242071 0.0052475696 0.13900001 7.1048298e-39
-0.023103261 0.0062729493 0.13900001 7.9270081e-39
-0.022621611 0.0065218005 0.13955556 8.6656479e-39
-0.021668706 0.0065030381 0.13971429 6.7313207e-39
-0.019150887 0.0066458154 0.13900001 3.3222362e-39
-0.018339785 0.0066697211 0.13950001 3.4137144e-39
-0.017448477 0.0069189561 0.14 3.5977441e-39
-0.010300793 0.0068860091 0.13933335 4.7019309e-39
-0.0098999608 0.0069189561 0.14 4.7941265e-39
0.040573705 0.0060176402 0.14 1.2168991e-38
0.043127432 0.0060927495 0.14 7.5621856e-39
0.058181439 0.006869535 0.13900001 7.3788439e-39
0.059479009 0.0067800479 0.13900001 6.5490651e-39
0.0605314 0.0064682984 0.14 6.5490777e-39
0.061416622 0.006411965 0.14 6.0881051e-39
0.062543266 0.0064119655 0.14 6.5494728e-39
0.063573949 0.0064471629 0.13992307 6.8275157e-39
0.06449002 0.0064007877 0.13941178 6.8275199e-39
0.065564178 0.0064966693 0.13900001 6.7360459e-39
0.066436686 0.0064668404 0.13900003 7.0119139e-39
-0.022432104 0.0070932545 0.13900001 5.993404e-39
-0.021346049 0.0072361338 0.13928571 5.1647069e-39
-0.020408479 0.0073491293 0.14 3.6910145e-39
-0.019476436 0.0072569493 0.14 3.5059086e-39
-0.018043488 0.0072769574 0.13966668 3.5977441e-39
-0.017561141 0.0071442849 0.14 3.6899398e-39
-0.011549741 0.0073440988 0.13950001 4.5189774e-39
-0.010425381 0.0071482048 0.1392 4.7941265e-39
-0.0098999608 0.0071442849 0.14 5.0707134e-39
0.057587508 0.0074153421 0.13973333 7.1015046e-39
0.058405161 0.0074847625 0.13900003 6.9174706e-39
0.059411895 0.0074847639 0.13900003 6.1799168e-39
0.060290791 0.0075406926 0.13900001 6.8264087e-39
0.061416626 0.0073696147 0.14 7.0108167e-39
0.062569141 0.0074171922 0.13992307 5.9977564e-39
0.06353765 0.0074686459 0.13933335 6.4601779e-39
0.064557441 0.0074847643 0.13900003 6.4598178e-39
0.065564178 0.0074847625 0.13900003 6.5520134e-39
0.066357367 0.0074390024 0.13900003 6.8286003e-39
-0.020603081 0.0080456007 0.14 4.2427464e-39
0.057706185 0.0082826577 0.13977778 7.1933218e-39
0.058405161 0.0083237104 0.13900001 6.4550463e-39
0.059411895 0.0084355706 0.13900003 6.2724866e-39
0.060390666 0.0084076049 0.13900001 6.9189742e-39
0.061454177 0.0080456007 0.14 7.0108279e-39
0.062613346 0.0083326688 0.13962501 5.6296956e-39
0.063550696 0.0084355697 0.13900001 6.5527323e-39
0.064557441 0.0084355697 0.13900003 6.4594576e-39
0.065564185 0.0084355706 0.13900001 6.3676221e-39
0.066235334 0.0084355697 0.13900001 6.7353257e-39
-0.020490417 0.009172244 0.14 8.0141114e-39
0.062767707 0.0093666026 0.139125 5.6314948e-39
0.063550703 0.0094423071 0.13900003 5.9070055e-39
0.064557441 0.009442308 0.13900003 5.9992026e-39
0.065543838 0.0094118007 0.13900003 6.3676249e-39
0.066011615 0.0092185885 0.13900001 6.643493e-39
0.043052323 0.010524217 0.14 8.116444e-39
0.063550703 0.010449044 0.13900001 5.721887e-39
0.064557441 0.010449044 0.13900003 5.906644e-39
0.065415032 0.010299898 0.13900001 6.5523749e-39
0.043415964 0.011455782 0.13900001 8.1160853e-39
0.063774422 0.011343922 0.13900001 5.6289529e-39
0.064425245 0.011425273 0.13900003 5.9981095e-39
-0.01724568 0.014625202 0.14 1.4059111e-38
0.040283892 0.014923431 0.13900001 8.3941127e-39
-0.017185593 0.015181012 0.14 1.3873642e-38
0.040283892 0.01537087 0.13900001 8.3926792e-39
-0.018124465 0.017960068 0.14 1.562788e-38
-0.017290747 0.017869938 0.14 1.3595989e-38
-0.016734935 0.017884959 0.14 1.3689981e-38
0.040955052 0.017608063 0.13900001 7.8383549e-39
0.041457292 0.017872067 0.13975 7.5614065e-39
0.042185508 0.017831782 0.13900001 8.0216574e-39
-0.019331584 0.018668246 0.14 1.5437381e-38
-0.018349791 0.018560944 0.14 1.4794885e-38
-0.017335812 0.018560944 0.14 1.3413034e-38
-0.016547162 0.018607888 0.14 1.3507391e-38
0.011506281 0.018861383 0.14 1.1428208e-38
0.01454822 0.018861383 0.14 8.2061145e-39
0.04192568 0.018560946 0.14 7.653242e-39
0.042263672 0.018560946 0.14 7.3759321e-39
-0.02003976 0.019537371 0.14 1.6921866e-38
-0.019363772 0.019537371 0.14 1.5162241e-38
-0.018349793 0.019537371 0.14 1.4240641e-38
-0.017335812 0.019537369 0.14 1.3046775e-38
-0.016509607 0.019537371 0.14 1.3233325e-38
-0.01598384 0.019687587 0.14 1.2681949e-38
0.010830294 0.019988028 0.14 1.0784609e-38
0.011551348 0.019604968 0.14 1.0783893e-38
0.012182268 0.019687591 0.14 1.0046335e-38
0.01374847 0.019646689 0.13988888 8.7581336e-39
0.014616062 0.019501679 0.13975 7.6529043e-39
0.0155622 0.019687587 0.14 6.0874073e-39
0.016484 0.01972173 0.14 5.6275249e-39
0.01750003 0.019897897 0.14 5.996676e-39
0.018371621 0.019541105 0.13966666 7.1955849e-39
0.019142412 0.019733397 0.13900001 7.1955863e-39
0.021044025 0.019174099 0.13900001 9.0391332e-39
0.041732542 0.019601747 0.14 7.0086013e-39
0.042301223 0.019487297 0.14 6.2695901e-39
-0.02003976 0.020513795 0.14 1.488745e-38
-0.01936377 0.020513795 0.14 1.4329957e-38
-0.018349791 0.020513793 0.14 1.3964048e-38
-0.017335812 0.020513795 0.14 1.3599948e-38
-0.016509607 0.020513793 0.14 1.4067404e-38
-0.015871175 0.020513795 0.14 1.2499718e-38
0.010740163 0.020573882 0.14 1.0693129e-38
0.011506281 0.020513795 0.14 1.0416537e-38
0.012550029 0.020576334 0.13991667 1.0416895e-38
0.013602558 0.020540612 0.1391667 9.681494e-39
0.014481592 0.020516414 0.13900003 8.6673589e-39
0.015413615 0.020560207 0.13920002 7.1007899e-39
0.016507266 0.020593857 0.13973333 4.9814213e-39
0.017407784 0.020566251 0.13980001 4.8899599e-39
0.018491475 0.020213356 0.14 6.2732657e-39
0.019561449 0.020453755 0.13933334 6.3658243e-39
0.020261008 0.020516414 0.13900001 6.7346068e-39
0.035766687 0.020739125 0.14 8.7625463e-39
0.040654741 0.020545935 0.13920002 6.7323759e-39
0.041568145 0.020647235 0.13955556 7.1915478e-39
0.042257208 0.020556774 0.13971429 6.5465385e-39
-0.020200709 0.021468762 0.14 1.4793456e-38
-0.019363774 0.021415109 0.14 1.415312e-38
-0.018349795 0.021415113 0.14 1.3513139e-38
-0.017335812 0.021415111 0.14 1.387797e-38
-0.016509607 0.021415109 0.14 1.3418793e-38
-0.015683401 0.021415113 0.14 1.2405722e-38
0.010669345 0.02146876 0.14 1.1062981e-38
0.011565073 0.02146128 0.13972728 1.1062978e-38
0.012530018 0.021290617 0.13954547 1.1155531e-38
0.013362993 0.021262147 0.13900001 1.0787117e-38
0.014690396 0.021411292 0.13900001 9.0354254e-39
0.015451041 0.021485865 0.13900003 7.9301708e-39
0.016420491 0.021485865 0.13900001 6.2713978e-39
0.017288299 0.02146399 0.1392 4.7962985e-39
0.020181442 0.021114672 0.14 5.9052006e-39
0.040348377 0.021114672 0.14 6.733099e-39
0.042151008 0.021114672 0.14 7.8376361e-39
-0.020189978 0.022166207 0.14 1.4422514e-38
-0.019343289 0.022364223 0.14 1.3969088e-38
-0.018349791 0.022410316 0.14 1.2867415e-38
-0.017335812 0.022410313 0.14 1.3232241e-38
-0.016509606 0.022410313 0.14 1.2681949e-38
-0.015597562 0.022370076 0.14 1.1946903e-38
0.008464342 0.022917302 0.14 1.1893463e-38
0.0093963845 0.022569066 0.14 1.2445561e-38
0.010492302 0.022410313 0.14 1.2445202e-38
0.011464383 0.022470102 0.13950001 1.1616162e-38
0.015674762 0.0224056 0.13900001 7.1926072e-39
0.016420491 0.022380745 0.13900001 6.8245505e-39
0.017315371 0.022511246 0.13900003 6.0869967e-39
-0.019138444 0.023142632 0.14 1.3601385e-38
-0.018304726 0.023322895 0.14 1.2953498e-38
-0.017335812 0.023367964 0.14 1.2677991e-38
-0.016509607 0.02336796 0.14 1.2222771e-38
-0.015796065 0.023292849 0.14 1.1118945e-38
0.0084160566 0.02333577 0.14 1.1432129e-38
0.0093785254 0.023354048 0.13991667 1.1524325e-38
0.010545262 0.023435844 0.13964286 1.170871e-38
0.011478349 0.023461469 0.13966666 1.1339571e-38
0.012095252 0.023872204 0.13900001 1.0234668e-38
0.017675102 0.02334594 0.13960001 5.7160674e-39
0.018040817 0.023142632 0.14 5.3487198e-39
-0.018011799 0.024043947 0.14 1.2401406e-38
-0.017307647 0.024241112 0.14 1.1760353e-38
-0.016609754 0.024344387 0.14 1.2313528e-38
0.0084868744 0.024224211 0.14 1.1155544e-38
0.0093753068 0.024371106 0.13993751 1.1062991e-38
0.01047882 0.024601415 0.13933334 1.1063351e-38
0.011535954 0.024990801 0.13900001 1.0694214e-38
0.01268632 0.024470007 0.13960001 8.9446633e-39
0.013618402 0.024602219 0.13933335 8.9450374e-39
0.014556165 0.024655221 0.13900001 9.1290713e-39
0.015115462 0.024990801 0.13900001 9.037233e-39
0.01759016 0.024043947 0.14 5.8979531e-39
0.0097036501 0.025283255 0.14 1.0694218e-38
0.010479782 0.025420956 0.14 1.0509827e-38
0.011506281 0.025508584 0.14 1.0417271e-38
0.012182268 0.025395921 0.14 9.7722603e-39
0.013714503 0.025373388 0.14 9.1287084e-39
0.014628695 0.025460301 0.14 9.22126e-39
0.015561837 0.025458235 0.13960001 8.8521187e-39
0.016349189 0.025641603 0.13950001 7.8358256e-39
-0.017166816 0.026466232 0.14 1.1758555e-38
-0.016885156 0.02663523 0.14 1.1023149e-38
0.010830294 0.026071906 0.14 9.5875159e-39
0.011506281 0.026071906 0.14 9.6793556e-39
0.013724903 0.026435899 0.14 9.3130955e-39
0.014660885 0.026409902 0.14 9.496765e-39
0.0155622 0.0264099 0.14 9.2198152e-39
0.016350852 0.026353566 0.14 8.388635e-39
0.017139502 0.026071906 0.14 7.1865185e-39
0.012858254 0.027423879 0.14 1.0321141e-38
0.013616178 0.027403396 0.14 1.0967943e-38
0.014660885 0.027311213 0.14 1.0231452e-38
0.015505867 0.027254883 0.14 9.3116507e-39
0.013646904 0.029677168 0.14 1.2716052e-38
0.014721189 0.029795703 0.13950001 1.0871788e-38
0.015336871 0.029902497 0.14 1.041081e-38
0.013661287 0.030360064 0.13900001 1.2254001e-38
0.015450752 0.030505674 0.13966668 1.0133868e-38
0.05176504 0.030728703 0.14 1.9822408e-38
0.052451756 0.030707242 0.14 2.0742924e-38
0.053588558 0.030805042 0.13966668 2.1295737e-38
0.054512441 0.030718014 0.13900001 2.1664873e-38
0.055440873 0.030639712 0.13900001 2.1756708e-38
0.056466255 0.030583782 0.13900001 2.2493556e-38
0.057062842 0.030583782 0.13900001 2.1756713e-38
0.050788615 0.031780235 0.14 1.0786826e-38
0.051569752 0.031592466 0.14 1.6871774e-38
0.052533466 0.03154913 0.14 1.9361067e-38
0.053658444 0.031549726 0.13975 2.1019867e-38
0.054452781 0.031590518 0.13900003 2.1572321e-38
0.05544088 0.031590521 0.13900003 2.1480124e-38
0.056466252 0.031590521 0.13900003 2.1848907e-38
0.057062842 0.031590521 0.13900001 2.1572321e-38
0.050713506 0.032531336 0.14 8.2078633e-39
0.051539712 0.032531336 0.14 1.2722951e-38
0.052516133 0.032531328 0.14 1.7793014e-38
0.053637404 0.032532874 0.13953847 1.9913519e-38
0.054452784 0.032597259 0.13900001 2.0650365e-38
0.055440877 0.032597255 0.13900003 2.1019148e-38
0.056466255 0.032597259 0.13900001 2.1571961e-38
0.050578304 0.033597887 0.14 7.8394564e-39
0.051539708 0.033564091 0.14 8.6677541e-39
0.052516136 0.033564091 0.14 1.3090651e-38
0.053529471 0.033562437 0.13929413 1.7792295e-38
0.054452788 0.033604 0.13900003 1.9452182e-38
0.055440877 0.033603996 0.13900003 2.0097553e-38
0.05632776 0.033492137 0.13900001 2.0374497e-38
0.049812187 0.034859732 0.14 7.5625542e-39
0.050544504 0.034559291 0.14 8.023863e-39
0.051539708 0.034559291 0.14 7.6546741e-39
0.052516144 0.034559291 0.14 8.667038e-39
0.05346093 0.034577888 0.13907695 1.2075086e-38
0.054452781 0.034610733 0.13900001 1.5302297e-38
0.055340201 0.034588359 0.13900003 1.7331681e-38
0.049643192 0.035648383 0.14 7.4700054e-39
0.050544508 0.035535716 0.14 7.83949e-39
0.051539715 0.035535719 0.14 8.1149516e-39
0.052467376 0.035520867 0.13952634 7.8376683e-39
0.053483333 0.035561536 0.13900003 8.4819881e-39
0.054452788 0.035561536 0.13900003 9.5876154e-39
0.055123936 0.035468321 0.13900001 1.1246772e-38
0.048835766 0.036812581 0.14 7.4703656e-39
0.049511749 0.036587253 0.14 7.4700068e-39
0.050544504 0.036587249 0.14 7.8391439e-39
0.051627405 0.036578353 0.13961539 7.9306108e-39
0.052469045 0.036515836 0.13910002 7.4699956e-39
0.053483333 0.036549628 0.13900003 7.7458678e-39
0.054452781 0.036549628 0.13900001 7.8377047e-39
0.055049367 0.036176767 0.13900001 8.114649e-39
0.048635468 0.037488565 0.14 7.4710872e-39
0.049511749 0.037413456 0.14 7.3785315e-39
0.050564054 0.037456002 0.13992307 7.6551169e-39
0.05147668 0.037553489 0.13922222 7.4707257e-39
0.052513879 0.03757501 0.13900003 7.2863344e-39
0.053483333 0.037575014 0.13900003 7.2859743e-39
0.054378211 0.037519086 0.13900003 7.3778098e-39
0.047709119 0.038502548 0.14 7.5629269e-39
0.048516549 0.038408659 0.14 7.2870575e-39
0.049511749 0.038408656 0.14 7.2870561e-39
0.050484285 0.038432095 0.13961114 7.3788902e-39
0.051469859 0.038563106 0.13900003 7.3785329e-39
0.052513883 0.038563106 0.13900001 7.3785301e-39
0.053442653 0.038535986 0.13900003 7.2863344e-39
0.054154489 0.038190242 0.13900001 7.1941388e-39
0.047671568 0.039366309 0.14 7.6551197e-39
0.048516553 0.039366309 0.14 7.2863372e-39
0.049619816 0.039505579 0.13964286 7.6551197e-39
0.050434284 0.039492715 0.13914289 7.4710872e-39
0.051469855 0.039532553 0.13900003 7.9324255e-39
0.052513883 0.039532557 0.13900003 7.2863372e-39
0.053110465 0.039420698 0.13900001 7.1941416e-39
0.046882913 0.04071828 0.14 7.5629255e-39
0.047558904 0.040436614 0.14 8.2082935e-39
0.048516545 0.040436622 0.14 7.3788958e-39
0.049546 0.040464643 0.13957144 7.7483944e-39
0.050500408 0.040502008 0.13900001 7.5632843e-39
0.051469862 0.040502008 0.13900003 7.4710886e-39
0.052428659 0.040459394 0.13900001 7.1026648e-39
0.046685752 0.04142243 0.14 7.7483972e-39
0.0475589 0.041394267 0.14 7.8398711e-39
0.048516545 0.041394267 0.14 7.2877792e-39
0.049580447 0.041512486 0.13931251 7.7483972e-39
0.050500412 0.041546028 0.13900003 7.0101105e-39
0.051469862 0.041546024 0.13900003 7.0093902e-39
0.052364741 0.041546028 0.13900001 8.0235421e-39
0.045756269 0.042633574 0.14 9.9596574e-39
0.046544921 0.04240825 0.14 7.8402369e-39
0.047558904 0.042408247 0.14 7.3792559e-39
0.048532352 0.042436488 0.13994119 7.3799748e-39
0.049458589 0.04246797 0.13914289 8.0242652e-39
0.050500412 0.042515479 0.13900001 7.4721676e-39
0.051469862 0.042515475 0.13900003 7.5629255e-39
0.052319996 0.04244091 0.13900001 8.7611086e-39
0.045666136 0.043467291 0.14 8.2090194e-39
0.046544921 0.043422226 0.14 7.1952248e-39
0.0475589 0.043422222 0.14 7.0108335e-39
0.0484748 0.043374639 0.13966668 7.1948647e-39
0.049512316 0.043335781 0.13900003 7.4707313e-39
0.050500408 0.043335781 0.13900001 6.9186351e-39
0.051429186 0.043315444 0.13900003 7.4718075e-39
0.04557601 0.04448127 0.14 7.5629269e-39
0.046544921 0.044436201 0.14 6.640249e-39
0.0475589 0.044436201 0.14 7.5629255e-39
0.048482329 0.044435903 0.13964707 7.7483958e-39
0.049512316 0.044398453 0.13900003 7.747314e-39
0.050500412 0.044398457 0.13900003 8.3004878e-39
0.051246144 0.044342525 0.13900003 7.8402299e-39
0.044779848 0.045637961 0.14 8.3004892e-39
0.045530941 0.045562848 0.14 7.6551212e-39
0.046544921 0.045562848 0.14 7.6565631e-39
0.047558904 0.045562852 0.14 8.3022912e-39
0.048422802 0.045471314 0.13957144 8.1171797e-39
0.049512316 0.045349259 0.13900003 7.4700096e-39
0.050463125 0.045321293 0.13900001 8.577076e-39
0.051022422 0.04512554 0.13900001 8.7625463e-39
0.044547688 0.046597317 0.14 7.4718075e-39
0.045530941 0.046576824 0.14 7.3803321e-39
0.046544921 0.046576828 0.14 7.656203e-39
0.04764368 0.046560507 0.13969232 7.7480384e-39
0.048450213 0.046355646 0.13907695 7.2867002e-39
0.049512316 0.046355993 0.13900003 6.9182778e-39
0.050127547 0.046244133 0.13900001 7.0104706e-39
0.043653201 0.047628362 0.14 7.3796119e-39
0.044516958 0.047534473 0.14 7.2874162e-39
0.045530941 0.047534477 0.14 7.5640031e-39
0.046571426 0.047550697 0.13994119 7.3796119e-39
0.047588754 0.047482327 0.13935295 7.2874162e-39
0.048486933 0.047474593 0.13900003 6.8260779e-39
0.049512319 0.047474589 0.13900003 6.1799897e-39
0.043421041 0.048625275 0.14 7.2874176e-39
0.044516962 0.04860479 0.14 7.2874162e-39
0.045530941 0.04860479 0.14 7.6558386e-39
0.046635032 0.048580106 0.1398 7.378893e-39
0.047666628 0.04848133 0.13900001 6.8264381e-39
0.048486933 0.04848133 0.13900001 6.1810687e-39
0.049322158 0.048347104 0.13900001 5.8122862e-39
0.042526554 0.049656328 0.14 8.3926862e-39
0.043390311 0.049562443 0.14 7.4714488e-39
0.044516958 0.049562439 0.14 7.1948633e-39
0.045530941 0.049562439 0.14 7.6558386e-39
0.04661715 0.049508002 0.13954546 7.8395082e-39
0.047666635 0.049488068 0.13900003 7.1941388e-39
0.048263218 0.049227059 0.13900001 6.5491309e-39
0.042404503 0.050604586 0.14 7.8398711e-39
0.043390319 0.050557643 0.14 7.286696e-39
0.044516962 0.050557643 0.14 7.0108307e-39
0.045569226 0.050651465 0.13947059 7.2870561e-39
0.046578273 0.050542291 0.13916667 9.222807e-39
0.047554772 0.050382942 0.13900001 7.379972e-39
0.04183555 0.051624198 0.14 7.6547596e-39
0.042376339 0.051534072 0.14 7.2863372e-39
0.043390311 0.051534064 0.14 7.1941402e-39
0.044520602 0.051526565 0.13977781 7.1026634e-39
0.045523167 0.051572636 0.13907695 6.7349613e-39
0.046436176 0.051613402 0.13900001 7.7473154e-39
0.047442913 0.05183712 0.13900001 6.4565766e-39
0.041525096 0.052660707 0.14 8.1157392e-39
0.042376336 0.052585602 0.14 6.8250003e-39
0.043390319 0.052585598 0.14 8.1153762e-39
0.04450709 0.052522596 0.13936366 7.1026634e-39
0.045541294 0.052564211 0.13900003 6.7349613e-39
0.046659894 0.052564211 0.13900003 7.1948605e-39
0.047442913 0.052433703 0.13900001 6.2725468e-39
0.041559517 0.053336691 0.14 7.6551197e-39
0.042344149 0.053304497 0.14 7.4707299e-39
0.043474298 0.05338341 0.13990909 8.301208e-39
0.044445664 0.053573105 0.13925003 7.1023061e-39
0.045504007 0.053552307 0.13900001 6.8264381e-39
0.046659894 0.053403158 0.13900001 7.103025e-39
0.03967239 0.054913994 0.14 7.103025e-39
0.040404711 0.05480133 0.14 7.1948605e-39
0.041429956 0.054823864 0.14 7.6551197e-39
0.043615643 0.054125343 0.14 7.6561987e-39
0.044178966 0.054012679 0.14 7.2874162e-39
0.038771074 0.055702645 0.14 7.9313465e-39
0.039522171 0.055439763 0.14 7.2863372e-39
0.040348377 0.055439763 0.14 7.0101077e-39
0.04141869 0.055439759 0.14 7.5629227e-39
0.042241137 0.05536465 0.14 7.839511e-39
0.038709618 0.056368385 0.14 8.0235421e-39
0.039522171 0.056434963 0.14 7.1015858e-39
0.040348377 0.056434959 0.14 6.6416867e-39
0.04141869 0.056434955 0.14 7.1948605e-39
0.038996402 0.05716728 0.14 7.6551197e-39
0.039634835 0.057317495 0.14 7.1026662e-39
0.04032021 0.057364441 0.14 6.642407e-39
0.041346259 0.057263847 0.14 7.0115482e-39
0.054820225 -0.050447021 0.141 1.4812159e-39
0.055523731 -0.050356247 0.141 1.5730514e-39
0.056144029 -0.050371375 0.141 1.9400361e-39
0.051983498 -0.04908539 0.141 2.6761578e-39
0.052550841 -0.04908539 0.141 2.3995709e-39
0.05345859 -0.049312327 0.14100002 1.8481978e-39
0.054116715 -0.049266942 0.141 1.8485565e-39
0.055387568 -0.049766205 0.141 1.8481978e-39
0.037913319 -0.048177637 0.141 2.5853971e-39
0.050848804 -0.048404574 0.141 2.9530978e-39
0.051870026 -0.048631512 0.141 2.7687093e-39
0.053345125 -0.048631512 0.141 2.4906903e-39
0.047898605 -0.047496822 0.141 3.4129969e-39
-0.017005764 -0.023441358 0.141 6.3621935e-39
-0.016665356 -0.023441358 0.141 6.1778036e-39
-0.017005764 -0.022760542 0.141 6.3621935e-39
-0.016608622 -0.022930745 0.141 6.1778036e-39
-0.017686579 -0.020945037 0.141 6.730976e-39
0.062876537 -0.0053997617 0.141 7.3803265e-39
0.06351196 -0.0053770677 0.141 7.3803251e-39
0.06438946 -0.0052862926 0.141 7.4725222e-39
0.062763065 -0.0044920086 0.14100002 7.1044641e-39
0.063557349 -0.0044920077 0.14100002 7.1966583e-39
0.064521842 -0.0044920086 0.14100002 7.2888526e-39
0.065543063 -0.0044920077 0.14100002 7.2888526e-39
-0.026537172 -0.0030169091 0.141 1.2999575e-38
0.062725246 -0.0033951395 0.14100002 7.0122685e-39
0.063557349 -0.0033573166 0.14100002 7.0122685e-39
0.064382575 -0.0034295244 0.14100002 7.0122685e-39
-0.026446396 -0.0022907066 0.141 1.3367279e-38
-0.016551888 -0.0021658903 0.141 1.4195598e-38
-0.015757602 -0.0021091558 0.141 1.3826815e-38
0.062763065 -0.0023360942 0.14100002 7.1044641e-39
0.063557357 -0.0023360942 0.14100002 7.0122699e-39
0.064011224 -0.0024495632 0.141 7.0119125e-39
-0.026310235 -0.0014283409 0.141 1.3827897e-38
-0.016551888 -0.0016552792 0.141 1.4471463e-38
-0.015644133 -0.00154181 0.141 1.4287072e-38
-0.01473638 -0.0012014025 0.141 1.4378547e-38
0.062763065 -0.0014283409 0.14100002 7.0122671e-39
0.063492514 -0.0014607606 0.14100002 6.9200728e-39
-0.026578434 -0.0004174338 0.14100002 1.4565819e-38
0.06274686 -0.00052058755 0.14100002 7.0119083e-39
0.063330412 -0.00074752583 0.141 7.0122685e-39
-0.02661282 0.00053845794 0.14100002 1.6130986e-38
0.062558822 0.00061410404 0.141 7.1044641e-39
-0.026310235 0.0013232863 0.14100002 1.6960745e-38
-0.025705067 0.0019000877 0.141 1.769831e-38
-0.013147811 0.0019757338 0.141 9.9563937e-39
-0.012693935 0.0018622647 0.141 9.7716424e-39
0.06253612 0.0015218573 0.14100002 6.9200742e-39
-0.02547813 0.002580903 0.14100002 1.8067094e-38
-0.024835136 0.0026565487 0.141 1.8159289e-38
-0.014509442 0.0028834871 0.141 9.034436e-39
-0.013488219 0.002580903 0.14100002 8.8511266e-39
-0.012693935 0.0025809028 0.141 8.5745425e-39
0.062498305 0.0023539644 0.141 6.9193568e-39
-0.02536466 0.0032995408 0.14100002 1.79749e-38
-0.024494734 0.0034054455 0.14100002 1.7790508e-38
-0.023813915 0.0032238946 0.141 1.79749e-38
-0.015445562 0.0035359352 0.14100002 7.191943e-39
-0.014509443 0.0034130099 0.14100002 8.2975913e-39
-0.013488219 0.0034130097 0.14100002 7.7451406e-39
-0.0126372 0.0035075676 0.141 7.7447846e-39
0.040409639 0.0033373637 0.141 7.007923e-39
-0.025175544 0.0049259318 0.141 1.2535355e-38
-0.02485783 0.0043358924 0.141 1.5762203e-38
-0.018639719 0.0046082186 0.141 3.5991819e-39
-0.017005764 0.0046989936 0.141 3.5999007e-39
-0.016529193 0.0044947495 0.14100002 3.6920964e-39
-0.015530664 0.0044153202 0.14100002 5.7175247e-39
-0.014541862 0.0041802777 0.14100002 7.6529379e-39
-0.013488219 0.0041316478 0.14100002 7.284161e-39
-0.012618288 0.0040938244 0.141 7.2841652e-39
0.041166101 0.0045477017 0.141 1.0049263e-38
0.042905964 0.0042451168 0.141 6.1832309e-39
-0.024948606 0.0051528704 0.141 1.1154215e-38
-0.021771468 0.0058336854 0.141 6.6384076e-39
-0.018480863 0.0054554548 0.14100002 3.2307609e-39
-0.017516376 0.0054554548 0.14100002 3.2311196e-39
-0.016551888 0.0054554548 0.14100002 3.3233152e-39
-0.015814338 0.0053798086 0.141 3.9679616e-39
0.04177127 0.0051528704 0.141 1.0509164e-38
0.042452089 0.0054365434 0.141 8.5745159e-39
-0.021204123 0.006741439 0.141 4.7051665e-39
-0.020561131 0.0069683772 0.141 3.5998979e-39
-0.019048208 0.0062875617 0.141 3.4140759e-39
-0.018561913 0.0062227217 0.14100002 3.3218803e-39
-0.017477099 0.0063399319 0.14100002 3.322239e-39
-0.016642664 0.0061967866 0.141 3.2307623e-39
0.040560931 0.0062119155 0.141 1.0418748e-38
-0.017686579 0.0073466077 0.141 3.5977441e-39
-0.011332305 0.007422254 0.141 4.7026497e-39
0.062309191 0.0084434766 0.141 6.1817889e-39
-0.020788068 0.0095403455 0.141 9.2126434e-39
-0.021090655 0.010145513 0.141 9.2129951e-39
-0.017232701 0.013663057 0.141 1.3880823e-38
-0.016778825 0.013776527 0.141 1.3141464e-38
-0.018367393 0.014911219 0.141 1.5067864e-38
-0.017329961 0.014489762 0.14100002 1.3782882e-38
-0.016778825 0.014514077 0.141 1.3046037e-38
-0.018367393 0.015138157 0.141 1.4974952e-38
-0.01751007 0.015592032 0.14100002 1.3689251e-38
-0.016778825 0.015516388 0.141 1.3137518e-38
-0.0191995 0.016878018 0.141 1.5344096e-38
-0.018565964 0.016698359 0.14100002 1.5437369e-38
-0.017516376 0.016499786 0.14100002 1.3322989e-38
-0.016778825 0.016348494 0.141 1.2495031e-38
-0.020447662 0.017672302 0.14100002 1.5439895e-38
-0.019558821 0.01755883 0.14100002 1.469981e-38
-0.018594332 0.017558834 0.14100002 1.5623203e-38
-0.017560503 0.017457969 0.14100002 1.3688901e-38
-0.016703179 0.017785771 0.141 1.3782536e-38
-0.014282503 0.017861417 0.141 1.1300811e-38
-0.013752981 0.017785771 0.141 1.1120017e-38
-0.02526632 0.018769169 0.141 1.5433772e-38
-0.024551464 0.018825904 0.14100002 1.5064272e-38
-0.0211663 0.018920461 0.141 1.5806874e-38
-0.020561133 0.018542232 0.14100002 1.7935655e-38
-0.019653378 0.018164001 0.14100002 1.4884563e-38
-0.018821271 0.018088356 0.141 1.5532448e-38
-0.016324949 0.018201824 0.141 1.4061282e-38
-0.015576052 0.018769169 0.14100002 1.240356e-38
-0.01445901 0.018668309 0.14100002 1.2221325e-38
-0.013566775 0.018577145 0.14100002 1.1579553e-38
0.012042345 0.018996108 0.141 1.0691382e-38
0.013630914 0.018996108 0.141 9.3106362e-39
0.014376569 0.018671909 0.14100002 9.2191902e-39
0.015295129 0.018920461 0.141 7.1008628e-39
0.041317396 0.018239647 0.141 6.9171161e-39
-0.025232278 0.019449983 0.141 1.4973156e-38
-0.024532551 0.019336514 0.14100002 1.4605094e-38
-0.023360036 0.019790392 0.141 1.5250462e-38
-0.022603577 0.019676922 0.14100002 1.56196e-38
-0.021544531 0.019449985 0.141 1.5250462e-38
-0.020750245 0.01952563 0.14100002 1.52573e-38
-0.015530664 0.01952563 0.14100002 1.212949e-38
-0.014509441 0.01952563 0.14100002 1.2224918e-38
-0.013488219 0.01952563 0.14100002 1.1398399e-38
-0.012693935 0.01952563 0.141 1.0665141e-38
0.010907654 0.019903861 0.141 1.1153747e-38
0.011134592 0.019336514 0.141 1.1982433e-38
0.012534045 0.01952563 0.14100002 9.6779277e-39
0.01334724 0.019506719 0.141 8.9410956e-39
0.015446421 0.019223046 0.141 6.6409566e-39
0.016354173 0.019223046 0.141 6.2732615e-39
0.017564513 0.019601278 0.141 6.7335236e-39
0.041544333 0.019223046 0.141 6.1799154e-39
-0.025175544 0.0201308 0.141 1.4512901e-38
-0.024426648 0.020471208 0.14100002 1.4700533e-38
-0.023435684 0.020433385 0.14100002 1.5435936e-38
-0.022603577 0.020433385 0.14100002 1.5896197e-38
-0.021629633 0.02055631 0.14100002 1.5623571e-38
-0.020750245 0.020433383 0.14100002 1.4336792e-38
-0.015462583 0.020403128 0.14100002 1.1581709e-38
-0.014509441 0.020433385 0.14100002 1.1400551e-38
-0.013488218 0.020433385 0.14100002 1.1490594e-38
0.010340307 0.020414473 0.141 1.0693142e-38
0.012723161 0.0201308 0.141 9.8630154e-39
0.040296171 0.020357737 0.141 5.2593982e-39
-0.024247162 0.021389276 0.14100002 1.6363303e-38
-0.023435684 0.021435695 0.14100002 1.5898009e-38
-0.022603577 0.021435695 0.14100002 1.6361498e-38
-0.021544531 0.021435697 0.14100002 1.608959e-38
-0.020806979 0.021208758 0.141 1.4796332e-38
-0.015303727 0.021303313 0.14100002 1.1855425e-38
-0.014509443 0.021435695 0.14100002 1.1304768e-38
-0.013488219 0.021435697 0.14100002 1.1309792e-38
0.0099999001 0.021568075 0.141 1.0878232e-38
0.010226838 0.021265492 0.141 1.0602366e-38
0.019849025 0.021628592 0.141 5.1672699e-39
0.020439064 0.021719366 0.141 5.6275292e-39
-0.024040852 0.022400182 0.141 1.6083839e-38
-0.023392458 0.022335345 0.14100002 1.5806892e-38
-0.022603579 0.022400182 0.14100002 1.5350944e-38
-0.021544531 0.022400184 0.14100002 1.5627178e-38
-0.02078807 0.022551475 0.141 1.4515068e-38
-0.015190257 0.022627121 0.141 1.2131293e-38
-0.014509441 0.022400182 0.14100002 1.1947262e-38
-0.013488219 0.02240018 0.14100002 1.1120737e-38
0.0087517388 0.022513652 0.141 1.2445917e-38
0.009772962 0.022173245 0.141 1.2261524e-38
0.019849023 0.022354797 0.141 5.0739756e-39
-0.024040854 0.023459228 0.141 1.5260195e-38
-0.023473509 0.023444099 0.14100002 1.6001356e-38
-0.022603577 0.023421401 0.14100002 1.4800653e-38
-0.021709574 0.023452349 0.14100002 1.4887091e-38
-0.020500615 0.023421405 0.14100002 1.4247464e-38
-0.019706329 0.023534875 0.14100002 1.3235467e-38
-0.018821271 0.023761813 0.141 1.3230085e-38
-0.015417195 0.02356009 0.14100002 1.1580283e-38
-0.014509442 0.023421407 0.14100002 1.1118945e-38
-0.013601688 0.023421407 0.14100002 1.1026746e-38
0.011134592 0.023761813 0.141 1.170835e-38
0.018623557 0.023599716 0.14100002 6.0844954e-39
0.019228727 0.023686165 0.141 6.0830591e-39
-0.023322215 0.024366982 0.14100002 1.5818046e-38
-0.022603577 0.024442626 0.14100002 1.5350228e-38
-0.021544529 0.024442626 0.14100002 1.5067882e-38
-0.020561131 0.024329158 0.14100002 1.4339665e-38
-0.019502087 0.024417412 0.14100002 1.3048205e-38
-0.0186227 0.024470992 0.14100002 1.267799e-38
-0.017913517 0.024669565 0.141 1.2036939e-38
-0.016324949 0.024556097 0.141 1.2406085e-38
-0.015530664 0.024442622 0.14100002 1.2132736e-38
-0.014509441 0.024442626 0.14100002 1.0662645e-38
-0.013573322 0.024357527 0.14100002 1.056757e-38
0.007881809 0.02459392 0.141 1.1524326e-38
0.0081843929 0.024669565 0.141 1.1524328e-38
0.012269284 0.024669565 0.141 1.0510176e-38
0.017851967 0.024488015 0.141 5.804324e-39
0.018623557 0.024442626 0.14100002 6.1713142e-39
0.019304372 0.024442628 0.14100002 5.0649723e-39
-0.022543062 0.025214219 0.141 1.4606908e-38
-0.021695822 0.025274737 0.14100002 1.3777502e-38
-0.019350791 0.025375597 0.14100002 1.3504148e-38
-0.018594332 0.025463849 0.14100002 1.3599945e-38
-0.017550416 0.025486546 0.14100002 1.1853987e-38
-0.016531257 0.025494795 0.14100002 1.1484487e-38
-0.015644135 0.02539164 0.14100002 1.1392292e-38
0.0079574548 0.025123443 0.141 1.1524328e-38
0.0083356854 0.025199091 0.141 1.1155545e-38
0.0098864306 0.025804257 0.141 1.0325081e-38
0.01269074 0.025512477 0.14100002 8.9443087e-39
0.013177037 0.025690788 0.141 8.6680876e-39
0.017602336 0.025463847 0.14100002 5.160028e-39
0.018623557 0.025463849 0.14100002 2.9480797e-39
0.019271953 0.025415221 0.14100002 2.8566072e-39
-0.018443041 0.026333779 0.141 1.3324073e-38
-0.017585717 0.026485074 0.14100002 1.2311007e-38
-0.016551888 0.026598543 0.14100002 1.0932032e-38
0.0099999001 0.026258135 0.141 9.8637469e-39
0.010554638 0.026585935 0.14100002 9.4027716e-39
0.01136153 0.02671201 0.14100002 9.4928176e-39
0.012439487 0.026598543 0.14100002 8.756333e-39
0.013177037 0.026485071 0.141 8.7588497e-39
0.016637847 0.026882213 0.141 8.3879148e-39
0.017625028 0.026621234 0.14100002 6.265651e-39
0.018623557 0.026598541 0.14100002 4.4217651e-39
-0.017157055 0.027468471 0.141 1.0839475e-38
-0.016703179 0.027468471 0.141 1.0655804e-38
0.010453776 0.027392825 0.141 9.7665346e-39
0.011588468 0.027392825 0.141 1.1424984e-38
0.01242814 0.027597066 0.14100002 1.0966511e-38
0.014425199 0.027846701 0.141 1.0967579e-38
0.015503155 0.027789967 0.141 9.5875173e-39
0.016467642 0.027619762 0.14100002 8.8481698e-39
0.017602336 0.027619759 0.14100002 7.2787128e-39
0.018595191 0.027591396 0.14100002 5.8036107e-39
0.012723161 0.028300578 0.141 1.1795543e-38
0.013449362 0.028640985 0.14100002 1.1703704e-38
0.014425197 0.028640989 0.14100002 1.105869e-38
0.01544642 0.028640985 0.14100002 1.0322204e-38
0.016467644 0.028527513 0.14100002 8.9389263e-39
0.017517233 0.028442416 0.14100002 7.0017657e-39
0.013403975 0.02954874 0.14100002 1.2531659e-38
