# .PCD v0.7 - Point Cloud Data file format
VERSION 0.7
FIELDS x y z rgb
SIZE 4 4 4 4
TYPE F F F F
COUNT 1 1 1 1
WIDTH 1011
HEIGHT 1
VIEWPOINT 0 0 0 1 0 0 0
POINTS 1011
DATA ascii
0.021402735 0.025072223 0.13700001 8.5766108e-39
0.019418232 0.027938725 0.13700001 1.3178126e-38
0.021402735 0.03080523 0.13700001 1.3268506e-38
0.069030814 0.032569233 0.13700001 2.3049605e-38
0.069300316 0.033353232 0.13700001 2.1665953e-38
0.068810314 0.034112737 0.13700001 2.0375939e-38
0.069030814 0.034112737 0.13700001 2.0099349e-38
0.069416687 0.040782873 0.13700001 7.1030222e-39
0.069251314 0.041389246 0.13700001 7.1959367e-39
0.064179808 0.042932749 0.13700001 7.5640003e-39
0.063562408 0.043638349 0.13700001 7.4721648e-39
0.064179808 0.043373749 0.13700001 7.4718047e-39
0.056756299 0.051826265 0.13700001 6.4572954e-39
0.057344299 0.051679265 0.13700001 6.1814274e-39
0.058391672 0.051532254 0.13699999 6.642407e-39
0.059196495 0.051752765 0.13700001 6.8264381e-39
0.057407293 0.052445762 0.13700001 6.3650998e-39
0.058391672 0.052487761 0.13699999 6.5505687e-39
0.059218545 0.052487765 0.13700001 6.5498484e-39
0.058320798 0.053170264 0.13700001 6.1817861e-39
0.059108298 0.053075764 0.13700001 6.3654571e-39
0.057984982 -0.043154601 0.13800001 3.5055485e-39
0.053320672 -0.042932492 0.13800001 3.7821354e-39
0.051988017 -0.04034121 0.13800001 2.4921336e-39
0.052321177 -0.040711392 0.13800001 3.0456606e-39
-0.033302177 -0.033492822 0.13800001 7.0096957e-39
-0.033326857 -0.032518011 0.13800001 5.6253053e-39
-0.033368815 -0.031582676 0.13800001 4.7955544e-39
-0.032487776 -0.03160489 0.13800001 4.7955727e-39
-0.031969517 -0.031493835 0.13800001 4.7955797e-39
-0.035245642 -0.030327758 0.13800001 6.8231324e-39
-0.034453113 -0.030575108 0.13800001 5.2561682e-39
-0.033613134 -0.030716453 0.13800001 4.9803198e-39
-0.032635849 -0.03093856 0.13800001 5.1643622e-39
-0.036383957 -0.029356025 0.13800001 7.5617947e-39
-0.035467748 -0.029494843 0.13800001 5.809342e-39
-0.034545995 -0.029739166 0.13800001 4.8881158e-39
-0.037355684 -0.028412059 0.13800001 8.1139035e-39
-0.036411718 -0.028495351 0.13800001 6.453994e-39
-0.035572633 -0.028544711 0.13800001 5.0717854e-39
-0.057586193 -0.027384801 0.13800001 3.140003e-39
-0.042260606 -0.02723673 0.13800001 9.4968463e-39
-0.041520242 -0.027384801 0.13800001 1.0234417e-38
-0.04056517 -0.027340379 0.13800001 9.8649142e-39
-0.0394102 -0.027384801 0.13800001 8.8514825e-39
-0.038410705 -0.027495855 0.13800001 8.2983073e-39
-0.037492648 -0.027518068 0.13800001 7.7447426e-39
-0.036443446 -0.02767037 0.13800001 5.2558095e-39
-0.035967495 -0.027829021 0.13800001 4.5196878e-39
-0.057482541 -0.026377905 0.13800001 3.3240383e-39
-0.056357186 -0.026140988 0.13800001 3.4165955e-39
-0.055379905 -0.026096568 0.13800001 3.323681e-39
-0.0545692 -0.026107673 0.13800001 2.9548971e-39
-0.053433407 -0.026274253 0.13800001 3.5077065e-39
-0.044407673 -0.026052143 0.13800001 2.3106052e-39
-0.043585867 -0.026229832 0.13800001 2.4028009e-39
-0.042519737 -0.026385309 0.13800001 6.4551038e-39
-0.041520242 -0.026385305 0.13800001 9.4046591e-39
-0.040576279 -0.026477853 0.13800001 9.2199091e-39
-0.039410204 -0.026607417 0.13800001 8.2990276e-39
-0.038410705 -0.026718473 0.13800001 8.3912134e-39
-0.037744377 -0.026718473 0.13800001 7.5599814e-39
-0.01664394 -0.026052143 0.13800001 4.8877739e-39
-0.057356678 -0.025408026 0.13800001 3.3247572e-39
-0.056401603 -0.025385814 0.13800001 3.1403673e-39
-0.055457637 -0.025385819 0.13800001 3.4162353e-39
-0.054476652 -0.025385816 0.13800001 3.0470941e-39
-0.053514171 -0.025385818 0.13800001 3.3236768e-39
-0.05258872 -0.025311777 0.13800001 3.3233152e-39
-0.051848352 -0.025163705 0.13800001 3.1392827e-39
-0.045473799 -0.025208127 0.13800001 2.4953524e-39
-0.04459805 -0.025322353 0.13800001 2.4027995e-39
-0.043630287 -0.025385818 0.13800001 2.4028037e-39
-0.042564161 -0.025430238 0.13800001 6.270351e-39
-0.041631296 -0.025607923 0.13800001 9.035515e-39
-0.016421828 -0.025607923 0.13800001 4.8877767e-39
-0.057290044 -0.024571409 0.13800001 3.6013413e-39
-0.056381408 -0.024477184 0.13800001 3.4162325e-39
-0.055457637 -0.024441846 0.13800001 3.5080708e-39
-0.054503571 -0.024477184 0.13800001 3.2314839e-39
-0.053480007 -0.024531545 0.13800001 3.3240355e-39
-0.052477662 -0.024441846 0.13800001 3.3240341e-39
-0.051515188 -0.024441848 0.13800001 3.1396414e-39
-0.050586365 -0.024477182 0.13800001 2.9552516e-39
-0.049471773 -0.02440853 0.13800001 2.8634161e-39
-0.048544466 -0.024247501 0.13800001 3.4158724e-39
-0.047572736 -0.024275264 0.13800001 4.1530773e-39
-0.046606563 -0.024341898 0.13800001 3.5080638e-39
-0.045573749 -0.024441846 0.13800001 2.8634147e-39
-0.044657547 -0.024608428 0.13800001 2.5875481e-39
-0.043677878 -0.024751214 0.13800001 2.5871935e-39
-0.018420817 -0.024108682 0.13800001 5.0721539e-39
-0.017754488 -0.024053155 0.13800001 5.071805e-39
-0.056179494 -0.023386827 0.13800001 3.6006252e-39
-0.055513166 -0.023513744 0.13800001 3.4158752e-39
-0.052477662 -0.023608932 0.13800001 3.4162269e-39
-0.051959407 -0.023608934 0.13800001 3.13964e-39
-0.048405647 -0.023608934 0.13800001 3.7832186e-39
-0.047644131 -0.023513746 0.13800001 8.2079012e-39
-0.046739824 -0.023608934 0.13800001 7.0086293e-39
-0.019087147 -0.02349788 0.13800001 5.623876e-39
-0.018554086 -0.023386827 0.13800001 4.9796038e-39
0.024002168 -0.020277288 0.13800001 4.7963097e-39
-0.0077595431 -0.018167242 0.13800001 6.6391321e-39
-0.0076484885 -0.017834079 0.13800001 7.0990355e-39
-0.011535412 0.0068201139 0.13800001 6.0852129e-39
-0.011535412 0.0070422236 0.13800001 5.9001027e-39
0.021114741 0.0085969931 0.13800001 1.1706185e-38
0.022536244 0.0085525708 0.13800001 1.0325176e-38
0.021647805 0.0093521662 0.13800001 1.1521081e-38
0.022558456 0.0093743764 0.13800001 1.0231874e-38
0.02178107 0.010373872 0.13800001 1.2258276e-38
0.022558454 0.01032945 0.13800001 1.0691728e-38
0.023391366 0.010429399 0.13800001 1.0233345e-38
0.02178107 0.01126231 0.13800001 1.3179159e-38
0.022891618 0.0110402 0.13800001 1.0690656e-38
0.023446893 0.011151255 0.13800001 1.0416639e-38
0.022780564 0.012817079 0.13800001 1.3175929e-38
0.048767421 0.017925605 0.13800001 7.6561931e-39
0.047878981 0.018702991 0.13800001 7.7476601e-39
0.048700787 0.018458668 0.13800001 7.8391369e-39
0.049359713 0.018665971 0.13800001 7.6543659e-39
0.047878981 0.019036155 0.13800001 7.7480174e-39
0.049639996 0.019258264 0.13800001 6.8249317e-39
0.01955997 0.023922572 0.13800001 1.1616152e-38
0.016894652 0.024440831 0.13800001 1.1249176e-38
0.017116763 0.024811011 0.13800001 1.1064428e-38
0.018671531 0.024366792 0.13800001 1.1156268e-38
0.019115752 0.024144681 0.13800001 1.1341013e-38
0.020392882 0.024422321 0.13800001 1.1155541e-38
0.022595473 0.024440827 0.13800001 9.0375918e-39
0.018597495 0.02547734 0.13800001 1.0510543e-38
0.019115752 0.02547734 0.13800001 1.0970801e-38
0.020448409 0.025166387 0.13800001 1.0786764e-38
0.021225795 0.025310759 0.13800001 9.496751e-39
0.0224474 0.025033122 0.13800001 9.1294287e-39
0.02133685 0.030585866 0.13800001 1.3175234e-38
0.054653332 0.032584857 0.13800001 7.5621898e-39
0.06678053 0.032629278 0.13800001 2.1481202e-38
0.067646764 0.03258485 0.13800001 2.2587913e-38
0.068572216 0.032658894 0.13800001 2.332584e-38
0.069090471 0.032806966 0.13800001 2.3418032e-38
0.065980934 0.033695403 0.13800001 2.0467775e-38
0.066647261 0.033473294 0.13800001 2.074436e-38
0.067646764 0.033473291 0.13800001 2.1204978e-38
0.06864626 0.033473298 0.13800001 2.2127294e-38
0.069090471 0.033473294 0.13800001 2.2680826e-38
0.065842122 0.034556083 0.13800001 1.8069604e-38
0.066647269 0.03447279 0.13800001 1.9177394e-38
0.067683786 0.034287702 0.13800001 2.0098992e-38
0.06861452 0.034298275 0.13800001 2.0283743e-38
0.069090471 0.034139626 0.13800001 2.0744722e-38
0.064870387 0.035916504 0.13800001 8.8518384e-39
0.065669976 0.03560555 0.13800001 1.0785427e-38
0.066647269 0.035583343 0.13800001 1.3919e-38
0.067480177 0.035860974 0.13800001 1.3366545e-38
0.064814858 0.03663836 0.13800001 7.4689166e-39
0.065647766 0.036582831 0.13800001 7.1001383e-39
0.066647261 0.036582831 0.13800001 7.6533065e-39
0.067580126 0.036582831 0.13800001 8.7585736e-39
0.064692698 0.03758233 0.13800001 6.7317145e-39
0.065647766 0.037526798 0.13800001 6.8239115e-39
0.066647261 0.03766562 0.13800001 7.1004956e-39
0.067313597 0.037027054 0.13800001 7.5603934e-39
0.064567514 0.038602009 0.13800001 6.8239101e-39
0.065581135 0.038404137 0.13800001 6.9168246e-39
0.066721298 0.038507786 0.13800001 7.0090231e-39
0.067424655 0.038803931 0.13800001 6.9168302e-39
0.062427182 0.039914481 0.13800001 7.194136e-39
0.063565485 0.039692372 0.13800001 7.0097447e-39
0.064426161 0.039525792 0.13800001 7.0093846e-39
0.066869378 0.039525788 0.13800001 7.1019404e-39
0.067387633 0.039433241 0.13800001 7.0097447e-39
0.061705317 0.040580809 0.13800001 6.8264353e-39
0.062427178 0.040506773 0.13800001 7.1026634e-39
0.063426673 0.040506769 0.13800001 6.9182708e-39
0.064398408 0.040469754 0.13800001 7.1941388e-39
0.061583154 0.041535884 0.13800001 6.9186337e-39
0.062427178 0.041469257 0.13800001 7.0108279e-39
0.063426666 0.04146925 0.13800001 6.9186323e-39
0.064426169 0.041402616 0.13800001 7.1941388e-39
0.066425152 0.041025031 0.13800001 7.4707229e-39
0.061494313 0.04253538 0.13800001 6.9193554e-39
0.062427182 0.042505756 0.13800001 7.2874162e-39
0.063340291 0.042530444 0.13800001 7.1030236e-39
0.06420406 0.042801909 0.13800001 7.4718047e-39
0.065314606 0.0425798 0.13800001 7.7483916e-39
0.061427683 0.043468241 0.13800001 7.1970199e-39
0.062427182 0.043468241 0.13800001 7.2881351e-39
0.063404456 0.043438617 0.13800001 7.1955793e-39
0.064278096 0.043098051 0.13800001 7.4718047e-39
0.0606503 0.044430714 0.13800001 7.3803307e-39
0.061443549 0.044229753 0.13800001 7.1955807e-39
0.062382758 0.044223413 0.13800001 7.1955807e-39
0.063204557 0.044134568 0.13800001 7.3803307e-39
0.060428187 0.04513406 0.13800001 8.3026472e-39
0.059983969 0.046799887 0.13800001 7.1959395e-39
0.059673019 0.047466211 0.13800001 6.8267982e-39
0.060354147 0.04728112 0.13800001 6.734604e-39
0.061094519 0.047244105 0.13800001 6.8271569e-39
0.058651309 0.04846571 0.13800001 6.3665389e-39
0.05937317 0.048410181 0.13800001 6.2739832e-39
0.058556121 0.049338285 0.13800001 5.9044818e-39
0.059222449 0.049274821 0.13800001 5.8122862e-39
0.058651309 0.050131533 0.13800001 5.7200877e-39
0.056541268 0.052602503 0.13800001 6.6420468e-39
0.057170581 0.052722815 0.13800001 6.5487722e-39
0.055985991 0.053574234 0.13800001 6.1807127e-39
0.05650425 0.053463183 0.13800001 6.5484149e-39
0.057429709 0.053507604 0.13800001 6.3650998e-39
0.05579561 0.05435162 0.13800001 5.9041259e-39
0.05650425 0.05435162 0.13800001 5.9044832e-39
0.057439804 0.054331426 0.13800001 5.7200905e-39
0.058207091 0.054129511 0.13800001 5.9966774e-39
0.069866456 -0.049488354 0.14 1.7567224e-39
0.053930771 -0.043243598 0.13900001 3.6899398e-39
0.058149356 -0.043667365 0.14 3.6899398e-39
0.052812174 -0.041006405 0.13900001 3.0460221e-39
0.053489834 -0.041363031 0.13960001 3.4140801e-39
0.052812174 -0.040335245 0.13900001 2.0315184e-39
0.053290263 -0.040528163 0.13966668 2.0315184e-39
0.014660885 -0.032648783 0.14 4.5211494e-39
-0.033584177 -0.030410241 0.13900003 5.6257047e-39
-0.032744501 -0.030459633 0.13900001 4.9803409e-39
-0.035109535 -0.029484859 0.13900001 4.7962761e-39
-0.034630131 -0.029532799 0.13900001 5.2576298e-39
-0.033655357 -0.029596716 0.13900003 5.7175444e-39
-0.032797769 -0.029745864 0.13900001 4.979622e-39
-0.036198679 -0.028012931 0.13975 5.5331405e-39
-0.035333253 -0.02838224 0.13900001 5.994127e-39
-0.034662094 -0.028534053 0.13900003 5.9944914e-39
-0.033748578 -0.028608626 0.13900003 5.6260704e-39
-0.0044920677 -0.028682999 0.14 4.3349462e-39
-0.037143879 -0.02723261 0.13950001 5.0714239e-39
-0.036548499 -0.027539361 0.1398 5.8097232e-39
-0.03534849 -0.027794324 0.13950001 6.6391433e-39
-0.034718022 -0.027751036 0.13900001 6.178884e-39
-0.033990938 -0.027806964 0.13900001 5.8104617e-39
-0.016885156 -0.027105696 0.14 4.7959342e-39
-0.04036694 -0.026315501 0.13900001 8.6670955e-39
-0.039392166 -0.026400728 0.13900001 8.1139147e-39
-0.038538259 -0.026527708 0.13933335 7.4681529e-39
-0.037501372 -0.026691534 0.13980001 5.3483737e-39
-0.036657758 -0.026711373 0.14 6.6402195e-39
-0.017110484 -0.026767705 0.14 4.9795982e-39
-0.016659826 -0.026767705 0.14 4.7037428e-39
-0.043275289 -0.02512233 0.13900001 3.5984714e-39
-0.042318266 -0.025296336 0.13900001 8.9433166e-39
-0.04141435 -0.025427401 0.13900003 9.0355164e-39
-0.04052344 -0.025503095 0.13925003 8.4827014e-39
-0.039490916 -0.025532212 0.13956252 8.1131706e-39
-0.038547192 -0.025652787 0.13992307 5.5320377e-39
-0.037525281 -0.025663592 0.14 6.5472966e-39
-0.036714092 -0.025979053 0.14 6.8246108e-39
-0.058152631 -0.024227453 0.13900001 3.6013441e-39
-0.057630617 -0.024227453 0.13900001 3.6935355e-39
-0.0543494 -0.024227453 0.13900001 3.2314839e-39
-0.053901963 -0.024227453 0.13900001 3.3240341e-39
-0.050546169 -0.024227453 0.13900001 2.7719393e-39
-0.049875014 -0.024227453 0.13900001 2.863056e-39
-0.045176905 -0.024227453 0.13900001 3.13964e-39
-0.044377912 -0.024323333 0.13900001 2.8634161e-39
-0.043415114 -0.024423206 0.13900001 5.8111693e-39
-0.042486891 -0.024480218 0.13916668 8.8518412e-39
-0.041629866 -0.024587633 0.13977778 8.8514825e-39
-0.040657349 -0.02462708 0.14 8.5748844e-39
-0.039530706 -0.024627082 0.14 6.4529066e-39
-0.038548913 -0.024691459 0.14 5.9011929e-39
-0.037750605 -0.024672147 0.14 7.0086405e-39
-0.017659424 -0.024227453 0.13900001 4.8877767e-39
-0.058538821 -0.023509478 0.13983333 3.6942586e-39
-0.057395432 -0.023504667 0.13900003 3.7853752e-39
-0.056418806 -0.023164786 0.13900001 3.4169528e-39
-0.055427324 -0.023332577 0.13900003 3.1400072e-39
-0.05449855 -0.023444436 0.13900003 3.1396484e-39
-0.053550411 -0.023396496 0.13900003 3.6006224e-39
-0.052559644 -0.023332575 0.13900001 3.2318385e-39
-0.05166477 -0.023444435 0.13900003 3.1396414e-39
-0.050658029 -0.023444436 0.13900003 3.0474472e-39
-0.049561802 -0.023422062 0.13900003 3.0474486e-39
-0.048458125 -0.023258004 0.13900001 5.442384e-39
-0.047414098 -0.023332577 0.13900001 1.106634e-38
-0.046407361 -0.023444438 0.13900003 8.2982975e-39
-0.045373753 -0.023431411 0.13907695 6.5465764e-39
-0.044480532 -0.023500197 0.13929413 5.9008412e-39
-0.043505155 -0.023591718 0.13987501 8.9440411e-39
-0.042572647 -0.023613101 0.14 9.0358766e-39
-0.041671328 -0.023725767 0.14 8.6670927e-39
-0.040657349 -0.023725765 0.14 8.1131622e-39
-0.039578993 -0.023645287 0.14 5.4398462e-39
-0.01829602 -0.023644924 0.13971429 4.8877739e-39
-0.017883144 -0.023780014 0.13900001 4.9799695e-39
-0.057089962 -0.022493629 0.13900001 3.6935397e-39
-0.056492597 -0.022408772 0.13910002 3.5091484e-39
-0.055556204 -0.022424163 0.13957894 3.3247572e-39
-0.054454722 -0.022426527 0.13992856 3.3247586e-39
-0.05346806 -0.022515088 0.13928571 3.508068e-39
-0.052574925 -0.022408774 0.13910002 3.4162283e-39
-0.051664766 -0.022437699 0.13900001 3.2318371e-39
-0.050658032 -0.022437697 0.13900003 3.4155109e-39
-0.049539432 -0.022437697 0.13900003 3.6917376e-39
-0.048420843 -0.022437697 0.13900003 5.6260564e-39
-0.047373697 -0.022385111 0.13918184 9.7741633e-39
-0.046495248 -0.022422574 0.1394667 9.497575e-39
-0.045481402 -0.022476269 0.13993751 9.0362381e-39
-0.044525493 -0.022486456 0.14 8.8514839e-39
-0.043564089 -0.022508988 0.14 8.9440397e-39
-0.042722862 -0.02274934 0.14 8.8522042e-39
-0.03964337 -0.022644186 0.14 6.5465736e-39
-0.038460389 -0.022261128 0.14 6.6402237e-39
-0.037840739 -0.022148462 0.14 6.1788883e-39
-0.057034034 -0.02199026 0.13900001 3.9690476e-39
-0.056432553 -0.021594999 0.13966666 3.5095072e-39
-0.055529054 -0.021359811 0.14 3.4169528e-39
-0.054492541 -0.021472476 0.14 3.4169528e-39
-0.053463537 -0.021547586 0.14 3.6006238e-39
-0.052382395 -0.021574881 0.13976923 3.692811e-39
-0.051421329 -0.021485901 0.13980001 6.1799476e-39
-0.05049083 -0.021462357 0.13977781 9.0383877e-39
-0.049402066 -0.021488363 0.1395625 8.4834119e-39
-0.048470844 -0.021511635 0.13961114 9.4964918e-39
-0.04752944 -0.021429863 0.13988891 1.0418454e-38
-0.04659101 -0.021547586 0.14 9.773443e-39
-0.045501921 -0.02158514 0.14 9.4046591e-39
-0.044638161 -0.021547586 0.14 9.3121033e-39
-0.055512965 -0.0204424 0.14 4.0608803e-39
-0.052036457 -0.020571161 0.14 4.6129722e-39
-0.051405538 -0.02048103 0.14 1.0511363e-38
-0.050384045 -0.020571161 0.14 1.2538233e-38
-0.049276177 -0.020514829 0.14 1.235348e-38
-0.048506301 -0.020571161 0.14 1.1801385e-38
-0.047417212 -0.02049605 0.14 1.2077972e-38
0.022610061 -0.020871663 0.13900001 5.1640034e-39
0.023616798 -0.020200504 0.13900001 4.7963069e-39
0.024176097 -0.020200504 0.13900001 4.7963097e-39
0.023639169 -0.019663578 0.13900001 4.8884998e-39
0.024281532 -0.019490577 0.139125 4.888504e-39
-0.0085823918 0.0036707807 0.13933335 3.7850052e-39
-0.0084869303 0.0041849026 0.13900001 3.5084198e-39
-0.012153249 0.0064682979 0.14 9.2170182e-39
-0.01012529 0.0060176402 0.14 3.8754044e-39
0.021379605 0.0094423071 0.13900001 1.2259709e-38
0.021420751 0.010073559 0.14 1.2812883e-38
0.021569576 0.011610055 0.13950001 1.2994413e-38
0.022274483 0.012798097 0.13900001 1.336211e-38
0.023504937 0.012909957 0.13900001 1.1792294e-38
0.022610061 0.013357395 0.13900001 1.3176288e-38
0.0230575 0.013357395 0.13900001 1.2990823e-38
0.074297927 0.015857 0.14 6.9186141e-39
0.049232669 0.016936906 0.13900001 7.8405844e-39
0.074373037 0.016157437 0.14 7.1019264e-39
0.048760653 0.01773474 0.14 7.5640003e-39
0.04789035 0.01872666 0.13900001 7.5639975e-39
0.048337791 0.018279221 0.13900001 7.6558316e-39
0.049791966 0.018502939 0.13900001 7.7476587e-39
0.050509568 0.018696459 0.13933334 7.7472803e-39
0.049347606 0.01964977 0.1392 7.0089824e-39
0.050574984 0.019546965 0.13900001 7.0096761e-39
0.051164161 0.01938715 0.14 7.6550455e-39
0.049680106 0.020124905 0.13900001 6.2717579e-39
0.050127544 0.020068975 0.13900001 6.271032e-39
0.026377985 0.021415109 0.14 5.5367769e-39
0.027053973 0.021227337 0.14 6.0895919e-39
0.045317579 0.021858731 0.13900001 7.5640031e-39
0.019843448 0.022917302 0.14 1.198494e-38
0.020181442 0.022917302 0.14 1.2168978e-38
0.026377985 0.022015987 0.14 4.4315055e-39
0.028631276 0.022015987 0.14 5.5378615e-39
0.044854954 0.022015987 0.14 8.1171769e-39
0.016914174 0.02359329 0.14 1.1709066e-38
0.019639017 0.023438092 0.13975 1.2168975e-38
0.020459123 0.023424126 0.13972726 1.1615804e-38
0.021549512 0.023432342 0.14 9.9580865e-39
0.022506427 0.023388444 0.14 9.866614e-39
0.023448709 0.023503158 0.14 7.9312428e-39
0.024124697 0.02359329 0.14 7.0085761e-39
0.016798792 0.024061272 0.13966668 1.1433564e-38
0.017525779 0.024301466 0.14 1.097259e-38
0.018426199 0.02444187 0.13981818 1.0972231e-38
0.019210868 0.024069935 0.13950001 1.1800907e-38
0.020773897 0.024260398 0.139625 1.0787119e-38
0.02140413 0.024311472 0.13960001 9.589304e-39
0.022611929 0.024155643 0.13977778 9.2219774e-39
0.023551131 0.024351215 0.14 8.2078297e-39
0.024350027 0.024381937 0.14 6.916379e-39
0.025138676 0.024494603 0.14 5.8093266e-39
0.016853765 0.02541708 0.13950001 1.1339932e-38
0.017559353 0.0254065 0.13975 1.078712e-38
0.01812046 0.02551836 0.13975 1.0326145e-38
0.019254271 0.025885679 0.13900001 1.0602021e-38
0.020596586 0.025885679 0.13900001 1.0418709e-38
0.021715183 0.02566196 0.13900001 8.9443073e-39
0.022663558 0.02550298 0.13960001 8.9450374e-39
0.023561373 0.025424087 0.14 8.9453961e-39
0.024350027 0.025395922 0.14 8.3915049e-39
0.025026012 0.025170591 0.14 7.0993452e-39
0.017759157 0.026240902 0.14 1.0048477e-38
0.018097149 0.026353566 0.14 9.8640916e-39
0.019730784 0.026071906 0.14 1.0325434e-38
0.020444326 0.026222125 0.14 1.0141404e-38
0.021344651 0.026203316 0.13950001 9.1283371e-39
0.022547394 0.026071906 0.14 8.9450346e-39
0.023523817 0.026071906 0.14 9.2209012e-39
0.024350027 0.026071906 0.14 9.1287028e-39
0.017911954 0.027227992 0.13900001 1.0409384e-38
0.018247534 0.027563572 0.13900001 1.197527e-38
0.019167462 0.027874537 0.14 1.114875e-38
0.019436195 0.028224032 0.13950001 1.3362164e-38
0.021308087 0.030803813 0.14 1.2899724e-38
0.022162622 0.030807503 0.13900001 1.2623492e-38
0.021491464 0.031478662 0.13900001 1.4003906e-38
0.022311769 0.031553235 0.13900001 1.225256e-38
0.063774422 0.03181424 0.13900001 1.9638377e-38
0.064333722 0.031926099 0.13900001 1.9822405e-38
0.057248041 0.032831769 0.14 6.9153701e-39
0.060515307 0.032831769 0.14 1.2440932e-38
0.061484225 0.032786705 0.14 1.0784288e-38
0.062543266 0.032719105 0.14 8.0227392e-39
0.063553743 0.032553446 0.13950001 1.668774e-38
0.0645127 0.032641996 0.13900003 1.9360707e-38
0.065519437 0.032731488 0.13900001 2.1019867e-38
0.066384487 0.032820977 0.13900001 2.1849983e-38
0.060515303 0.033564091 0.14 9.4928652e-39
0.06141663 0.033564091 0.14 1.0785384e-38
0.062580638 0.033593383 0.13988891 7.4706402e-39
0.063506946 0.033569727 0.13920002 1.1339642e-38
0.064557441 0.033603992 0.13900003 1.7608983e-38
0.065564178 0.033604 0.13900003 1.9638012e-38
0.066263296 0.033520103 0.13900001 2.0652163e-38
0.060430806 0.034521736 0.14 6.5462288e-39
0.061416626 0.034559291 0.14 9.1269708e-39
0.062613353 0.034586135 0.13975 7.4706444e-39
0.063550711 0.03461073 0.13900001 7.7450789e-39
0.064557448 0.034610737 0.13900003 1.2535674e-38
0.065564178 0.03461073 0.13900001 1.7423147e-38
0.066011615 0.034387011 0.13900001 1.9084837e-38
0.059726659 0.035986375 0.14 6.4569227e-39
0.060423125 0.035576683 0.14 6.3636452e-39
0.061416622 0.035535716 0.14 8.7592855e-39
0.062522799 0.035559755 0.13945459 8.3911756e-39
0.063550703 0.035561536 0.13900003 7.0103991e-39
0.064557448 0.035561536 0.13900003 8.4819615e-39
0.065415032 0.035468321 0.13900001 1.161374e-38
0.059636526 0.036662363 0.14 6.5491253e-39
0.060402647 0.036587253 0.14 6.3647313e-39
0.061452843 0.036567215 0.13958824 8.1146419e-39
0.062517911 0.036523636 0.13907695 8.3908407e-39
0.063550703 0.036549632 0.13900001 6.7316851e-39
0.064557441 0.036549628 0.13900003 7.6533023e-39
0.059501331 0.037413459 0.14 6.548768e-39
0.060402647 0.037413463 0.14 6.6409608e-39
0.061378002 0.037541009 0.13925001 7.1930514e-39
0.062543966 0.037575014 0.13900003 7.4696313e-39
0.063550703 0.03757501 0.13900003 6.4544003e-39
0.064425252 0.037539423 0.13900003 6.5466002e-39
0.05764237 0.038802985 0.14 6.7345998e-39
0.058402847 0.038577657 0.14 6.6424042e-39
0.059388667 0.038408663 0.14 6.7335194e-39
0.060436893 0.03845736 0.13985714 6.8253549e-39
0.061356019 0.038498417 0.13920002 7.0093846e-39
0.062543973 0.038563102 0.13900003 7.1937703e-39
0.063550711 0.038563106 0.13900001 6.7327935e-39
0.064311348 0.038503449 0.13900001 6.8239087e-39
0.056572054 0.039591637 0.14 7.0115482e-39
0.057417035 0.039366305 0.14 6.8267968e-39
0.058374688 0.039366309 0.14 6.9186309e-39
0.059416268 0.039413512 0.13992308 7.0108265e-39
0.060424175 0.039506864 0.13947062 7.0097461e-39
0.061425369 0.039532561 0.13900003 7.1015816e-39
0.062472783 0.039369855 0.13900003 7.1934157e-39
0.063550703 0.039196979 0.13900001 7.0097405e-39
0.064221859 0.039085116 0.13900001 7.0093804e-39
0.055896066 0.040943608 0.14 6.9193526e-39
0.056396797 0.040543027 0.14 6.8271569e-39
0.057417035 0.040436622 0.14 6.8271569e-39
0.058374684 0.040436622 0.14 7.1033837e-39
0.059422884 0.04043854 0.13966668 7.0111895e-39
0.060394503 0.040456034 0.13910002 6.9186323e-39
0.061425373 0.040502008 0.13900003 6.917912e-39
0.062208388 0.040203713 0.13900001 7.0097475e-39
0.055715807 0.041439332 0.14 6.9193526e-39
0.056346722 0.041394267 0.14 6.7346026e-39
0.057417035 0.041394267 0.14 7.1030264e-39
0.058435686 0.0415098 0.13969231 7.103025e-39
0.059366714 0.041498348 0.13915789 7.1037438e-39
0.060418632 0.041546032 0.13900003 6.9193526e-39
0.061293174 0.041505355 0.13900003 6.9193512e-39
0.055670738 0.042408247 0.14 7.5640045e-39
0.056346726 0.042408243 0.14 7.0111909e-39
0.057448842 0.042436481 0.13994117 7.2870589e-39
0.058361657 0.042438257 0.13950001 7.1952206e-39
0.059411902 0.042515475 0.13900003 7.3806909e-39
0.060418632 0.042515475 0.13900001 7.0115482e-39
0.061201647 0.042515486 0.13900001 6.7349627e-39
0.055896062 0.043422226 0.14 8.1161021e-39
0.056346729 0.043422226 0.14 7.3796133e-39
0.057498381 0.043395106 0.13968751 7.3803321e-39
0.058405161 0.043335784 0.13900001 6.8271569e-39
0.059411895 0.043335784 0.13900003 6.6427657e-39
0.060418632 0.043335784 0.13900001 7.1037438e-39
0.061089795 0.043335784 0.13900001 6.919354e-39
0.054669276 0.044598944 0.14 7.8395166e-39
0.05552052 0.044436205 0.14 7.1941444e-39
0.056384604 0.044472024 0.13992308 7.1955793e-39
0.057384189 0.04440688 0.13936366 7.2884952e-39
0.058405165 0.044398457 0.13900003 7.0111895e-39
0.059411895 0.044398453 0.13900003 6.4576556e-39
0.060418632 0.044398457 0.13900003 8.0260589e-39
0.061089791 0.044118803 0.13900001 7.2884952e-39
0.052966792 0.045900844 0.14 8.1175398e-39
0.05364278 0.045650478 0.14 8.4852434e-39
0.054544091 0.045562848 0.14 7.4703726e-39
0.05552052 0.045562848 0.14 7.0101133e-39
0.056433182 0.045498274 0.13973333 7.1033851e-39
0.057454348 0.045349259 0.13900003 7.1955793e-39
0.058405153 0.045349259 0.13900001 7.1033851e-39
0.059411895 0.045349259 0.13900003 7.1037438e-39
0.06035471 0.045317296 0.13900001 8.4866797e-39
0.052966792 0.046576828 0.14 7.2881351e-39
0.053567667 0.046576828 0.14 7.1033837e-39
0.054544091 0.046576828 0.14 6.3651012e-39
0.05552052 0.046576828 0.14 7.1945017e-39
0.056451969 0.046450641 0.13942859 7.5640031e-39
0.057454348 0.046355993 0.13900003 7.2874148e-39
0.058405161 0.046355993 0.13900003 7.1033837e-39
0.059411895 0.046355993 0.13900003 6.8275171e-39
0.060269486 0.046281423 0.13900001 7.1963038e-39
0.053823043 0.047433078 0.14 7.0097503e-39
0.054578759 0.047443476 0.14 6.9175547e-39
0.055407852 0.04729037 0.14 7.4710872e-39
0.056234062 0.047027487 0.14 8.2093725e-39
0.057734001 0.047362737 0.13900001 7.287775e-39
0.058405161 0.047474593 0.13900003 7.8413089e-39
0.05931868 0.047418665 0.13900003 7.6565589e-39
0.05367497 0.04863698 0.14 7.1955793e-39
0.05456458 0.048625275 0.14 7.3803335e-39
0.055295188 0.048755009 0.14 7.4728879e-39
0.057845861 0.04848133 0.13900001 6.7349613e-39
0.058405153 0.04848133 0.13900001 6.9193526e-39
0.05915089 0.048332185 0.13900001 7.1959395e-39
0.052797798 0.0496751 0.14 7.0111881e-39
0.053567667 0.049562439 0.14 7.1037438e-39
0.05451405 0.04953615 0.14 7.1037438e-39
0.055295188 0.049205665 0.14 7.5643619e-39
0.058405161 0.049152486 0.13900001 6.4576556e-39
0.052516133 0.050557639 0.14 7.103025e-39
0.053567667 0.050557643 0.14 7.287775e-39
0.054149769 0.050463751 0.14 7.1037438e-39
0.051840145 0.051684279 0.14 7.0108293e-39
0.052516133 0.051534064 0.14 7.103025e-39
0.053567674 0.051534068 0.14 7.2870561e-39
0.054093435 0.051383842 0.14 7.0108293e-39
0.050938834 0.052886035 0.14 6.8271569e-39
0.051539708 0.052585602 0.14 6.8271569e-39
0.052355181 0.052435379 0.14 7.1026648e-39
0.053461373 0.052707165 0.13933334 7.2874148e-39
0.054154489 0.052955721 0.13900001 8.1171741e-39
0.050848704 0.053471886 0.14 6.6427657e-39
0.051539708 0.0534118 0.14 6.6424056e-39
0.052290805 0.053505689 0.14 6.9179148e-39
0.053483333 0.053626876 0.13900003 7.1023047e-39
0.054452781 0.05362688 0.13900001 7.9324269e-39
0.050733987 0.054442856 0.14 6.8260779e-39
0.051539715 0.05435067 0.14 6.918991e-39
0.052666351 0.054388225 0.14 7.0104678e-39
0.053572822 0.054163802 0.13900001 6.8264353e-39
0.054229062 0.054223463 0.13900001 7.1952192e-39
0.051614821 0.055229455 0.14 7.4721648e-39
0.049699523 0.05761794 0.14 7.4718047e-39
0.068776928 -0.05022008 0.141 2.3102549e-39
0.069522589 -0.05031734 0.14100002 2.0325932e-39
0.070138559 -0.050447021 0.141 1.6645324e-39
0.068776928 -0.049539268 0.141 2.3095361e-39
0.069427483 -0.049448486 0.14100002 2.032589e-39
0.059018582 -0.044092745 0.141 3.5977441e-39
0.053799 -0.040688671 0.141 1.8471286e-39
0.054025937 -0.040915608 0.141 1.9393242e-39
-0.0047510923 -0.029114816 0.141 4.4271391e-39
-0.016778825 -0.027299311 0.141 4.7959342e-39
-0.037294049 -0.025438417 0.141 6.8246094e-39
-0.039132252 -0.024122173 0.141 6.8224458e-39
-0.038508169 -0.024235642 0.141 7.0079202e-39
-0.037808444 -0.024500405 0.141 7.0086419e-39
-0.017913517 -0.024122173 0.141 4.8877767e-39
-0.042309389 -0.023441358 0.141 8.8514853e-39
-0.041458368 -0.023441358 0.141 8.6663458e-39
-0.040607352 -0.023441358 0.141 5.9922942e-39
-0.039217353 -0.023639929 0.14100002 7.1915912e-39
-0.038413614 -0.023668295 0.14100002 7.1919556e-39
-0.03788409 -0.023781765 0.141 7.1001201e-39
-0.043273874 -0.0223634 0.141 8.6670927e-39
-0.042422861 -0.022647075 0.14100002 8.6678087e-39
-0.041458372 -0.022647075 0.14100002 7.0993634e-39
-0.040607352 -0.022647073 0.141 5.0721455e-39
-0.039245721 -0.022874013 0.14100002 7.2848715e-39
-0.038366333 -0.02278891 0.14100002 6.9157302e-39
-0.046689294 -0.0214443 0.141 1.023406e-38
-0.045713462 -0.021398913 0.141 1.0326255e-38
-0.044432882 -0.021561012 0.14100002 9.3121033e-39
-0.043444082 -0.021625852 0.14100002 9.0355164e-39
-0.042498503 -0.021701498 0.14100002 8.8514601e-39
-0.041968979 -0.021852789 0.141 7.4688564e-39
-0.052635081 -0.02037769 0.141 4.6129722e-39
-0.051235631 -0.020415515 0.14100002 1.2538952e-38
-0.050516993 -0.02037769 0.14100002 1.2906655e-38
-0.049594112 -0.020354997 0.141 1.2446036e-38
-0.048414029 -0.020400384 0.141 1.1893941e-38
-0.047415502 -0.020604629 0.141 1.2261286e-38
-0.046652164 -0.020718098 0.14100002 1.1708111e-38
-0.045486525 -0.0207181 0.14100002 1.1524438e-38
-0.044465303 -0.020718096 0.14100002 1.1248572e-38
-0.043708842 -0.020869389 0.141 1.0695397e-38
-0.05043054 -0.019615827 0.14100002 1.2077974e-38
-0.049639497 -0.019583408 0.14100002 1.1709191e-38
-0.047415502 -0.019810345 0.141 1.1340407e-38
-0.046961624 -0.019810345 0.141 1.1340407e-38
-0.049684886 -0.018675653 0.141 1.115494e-38
-0.015190257 0.0028834871 0.141 1.7882704e-38
-0.014622911 0.0028834871 0.141 1.7698313e-38
-0.0092898598 0.0024296106 0.141 4.8920633e-39
-0.015352355 0.0034022033 0.14100002 1.7513198e-38
-0.014509441 0.0034130099 0.14100002 1.7513921e-38
-0.013533607 0.003473527 0.14100002 1.7145139e-38
-0.0090629216 0.0031104255 0.141 4.430732e-39
-0.015265902 0.0040938244 0.141 1.6313932e-38
-0.014488813 0.0043689017 0.14100002 1.7329169e-38
-0.013563864 0.0043207635 0.14100002 1.7144777e-38
-0.012693935 0.0040181787 0.141 1.7052943e-38
-0.0090629216 0.0044720555 0.141 3.692811e-39
-0.013828627 0.0051528704 0.141 1.6775633e-38
-0.011105366 0.0060606236 0.141 5.3505345e-39
-0.010878428 0.0060606236 0.141 4.6129694e-39
0.07354264 0.0076491921 0.141 7.564352e-39
0.070592441 0.0086704139 0.141 6.9185959e-39
0.071341328 0.0085796397 0.14100002 6.1813854e-39
0.072294474 0.0087838834 0.141 6.9189686e-39
0.066885777 0.0096159913 0.141 7.0093005e-39
0.07063783 0.0094193118 0.141 6.2717663e-39
0.071443461 0.0094646988 0.14100002 6.1814064e-39
0.072436318 0.0094363317 0.14100002 6.7353144e-39
0.06684795 0.010258983 0.141 7.285879e-39
0.06718836 0.010145513 0.141 7.4695542e-39
0.071727127 0.010145513 0.141 5.814447e-39
0.072181009 0.010145513 0.141 5.9988396e-39
0.021573756 0.011507144 0.141 1.2441605e-38
0.023162324 0.013549589 0.141 1.3084092e-38
-0.017005764 0.01854223 0.141 1.6828555e-38
-0.016703179 0.018920461 0.141 1.5622831e-38
-0.017157055 0.019752569 0.141 1.6261383e-38
-0.016580256 0.019563455 0.14100002 1.5894036e-38
-0.017232701 0.020433383 0.14100002 1.6077365e-38
-0.016551888 0.020433387 0.14100002 1.6724892e-38
0.04954391 0.020527942 0.141 7.0100754e-39
-0.017232701 0.021435695 0.14100002 1.6173518e-38
-0.016597275 0.02137896 0.14100002 1.5899088e-38
0.018623557 0.021946305 0.141 1.0326507e-38
0.02071139 0.021764753 0.141 1.0326131e-38
0.021403553 0.021832835 0.141 1.0326492e-38
0.022546349 0.021751788 0.14100002 1.0141748e-38
0.023313617 0.021795014 0.141 8.9439332e-39
0.027511979 0.021795012 0.14100002 5.6289725e-39
0.028245743 0.021628592 0.141 6.2739846e-39
0.049033299 0.021038553 0.141 6.8271345e-39
-0.017005764 0.022173245 0.141 1.7475049e-38
-0.016778825 0.022173245 0.141 1.6645289e-38
0.018623559 0.022627121 0.141 1.1155531e-38
0.019720426 0.02251365 0.14100002 1.0787467e-38
0.020666003 0.022400182 0.14100002 1.0787109e-38
0.02149811 0.022400182 0.14100002 1.0971503e-38
0.022481509 0.022400184 0.14100002 1.0603083e-38
0.023540553 0.02240018 0.14100002 9.1290517e-39
0.024070079 0.022627121 0.141 8.6688036e-39
0.026384849 0.02249096 0.141 4.2463828e-39
0.027417421 0.02240018 0.14100002 4.6162569e-39
0.02835354 0.02242855 0.14100002 5.1690733e-39
0.01680805 0.023534875 0.141 1.1524675e-38
0.01762503 0.023444096 0.14100002 1.1985656e-38
0.018623557 0.023421405 0.14100002 1.2445924e-38
0.019190904 0.023251202 0.141 1.2353731e-38
0.020779472 0.023194466 0.141 1.124702e-38
0.021437595 0.023171773 0.141 1.0695286e-38
0.02248151 0.023080997 0.141 1.0511256e-38
0.023583781 0.023243098 0.14100002 8.4840494e-39
0.024410486 0.023478139 0.14100002 7.3773558e-39
0.026566401 0.023080997 0.141 4.7984551e-39
0.02719048 0.023137731 0.141 4.4304097e-39
0.028268438 0.023080997 0.141 4.615531e-39
0.017942742 0.024215689 0.141 1.1063347e-38
0.018510088 0.024215689 0.141 1.1339936e-38
0.024977831 0.024215689 0.141 6.3632094e-39
0.02520477 0.024215689 0.141 5.9940738e-39
0.017942742 0.026938947 0.141 9.9548537e-39
0.018737026 0.02671201 0.141 9.7722659e-39
0.019701514 0.026655275 0.14100002 9.7729862e-39
0.020601165 0.026744429 0.14100002 9.7726289e-39
0.021611579 0.026787655 0.14100002 8.942871e-39
0.022481509 0.026712008 0.14100002 8.8524788e-39
0.02350273 0.026683642 0.14100002 9.3130941e-39
0.024372661 0.026522892 0.14100002 9.1287028e-39
0.019077433 0.027846701 0.141 1.0410459e-38
0.020666003 0.027619762 0.14100002 9.4917484e-39
0.021498108 0.027619762 0.14100002 8.7556155e-39
0.022440247 0.027599128 0.14100002 9.035075e-39
0.023162324 0.027392825 0.141 9.6811577e-39
0.019814983 0.028357312 0.141 1.2717158e-38
0.020640787 0.028552731 0.14100002 1.244165e-38
0.021437595 0.028391352 0.141 1.0321502e-38
0.022141103 0.028300578 0.141 1.0045993e-38
0.021800695 0.031023838 0.141 1.3083035e-38
0.059585929 0.032839343 0.141 1.1152005e-38
0.057883892 0.033066284 0.141 6.9128463e-39
0.058337767 0.033588238 0.14100002 5.8068617e-39
0.059358992 0.033520162 0.14100002 6.544417e-39
0.060266744 0.033520158 0.14100002 8.0191813e-39
0.057770424 0.034598116 0.141 6.8239087e-39
0.058337767 0.034503561 0.14100002 6.1785379e-39
0.059358988 0.034503557 0.14100002 5.0711058e-39
0.060210012 0.034427911 0.141 5.3476884e-39
0.056976136 0.035789542 0.141 7.1019432e-39
0.05750566 0.035411313 0.14100002 7.2863302e-39
0.058337767 0.035411313 0.14100002 6.8257108e-39
0.059358988 0.035411309 0.14100002 6.3640096e-39
0.060244054 0.035335664 0.141 5.9955816e-39
0.056720831 0.036527093 0.14100002 6.9182708e-39
0.057505667 0.036413621 0.14100002 6.9186295e-39
0.058337767 0.036413621 0.14100002 6.7342368e-39
0.059336293 0.036379579 0.14100002 6.6416769e-39
0.060153276 0.036016479 0.141 6.3647271e-39
0.056465521 0.037378106 0.14100002 7.1019432e-39
0.057505652 0.037378106 0.14100002 7.1026606e-39
0.058337767 0.03737811 0.14100002 6.6424028e-39
0.059180681 0.037345689 0.14100002 6.45765e-39
0.055586137 0.038484436 0.14100002 7.3799692e-39
0.056465525 0.038399335 0.14100002 7.1948577e-39
0.057505663 0.038399335 0.14100002 7.102662e-39
0.058309399 0.038257498 0.14100002 6.7342396e-39
0.059094232 0.038134571 0.141 6.457294e-39
0.054933693 0.039420556 0.141 7.0111895e-39
0.055463213 0.03942056 0.14100002 7.0115482e-39
0.056465525 0.039420556 0.14100002 7.0108293e-39
0.057203077 0.039193615 0.141 7.0115482e-39
0.054593284 0.040517423 0.14100002 7.1030278e-39
0.05546321 0.040441778 0.14100002 7.0108293e-39
0.056244891 0.040353522 0.14100002 7.0111895e-39
0.05353424 0.041765586 0.14100002 7.0111923e-39
0.054479815 0.041576471 0.14100002 7.1033865e-39
0.055387568 0.041531082 0.14100002 6.8264409e-39
0.052891247 0.042711161 0.141 6.7342439e-39
0.053420767 0.042597685 0.14100002 8.1164566e-39
0.054479811 0.042597692 0.14100002 7.7480356e-39
0.055274099 0.042597692 0.14100002 6.9189966e-39
0.052815601 0.043656737 0.14100002 7.1012299e-39
0.053420763 0.043562185 0.14100002 8.4848846e-39
0.054479811 0.043562174 0.14100002 8.3001332e-39
0.055428836 0.043608595 0.14100002 7.2863414e-39
0.051983498 0.044867076 0.141 7.6561987e-39
0.05258866 0.044640135 0.14100002 7.2866974e-39
0.053420767 0.044640131 0.14100002 8.8533056e-39
0.05435374 0.044589702 0.14100002 9.4993953e-39
0.05516063 0.044413198 0.141 7.7469594e-39
0.051870029 0.045472246 0.14100002 7.472169e-39
0.052588668 0.045472246 0.14100002 7.287419e-39
0.053373493 0.045434423 0.14100002 8.9465816e-39
0.054025937 0.045094013 0.141 1.0328437e-38
0.051659297 0.04650427 0.14100002 7.1959409e-39
0.05258866 0.04645564 0.14100002 7.1959395e-39
0.053118184 0.046001766 0.141 8.0253442e-39
0.050758034 0.047590334 0.141 8.0249813e-39
0.051586356 0.047514692 0.14100002 7.2874176e-39
0.052588664 0.047514688 0.14100002 7.379972e-39
0.053345125 0.047726497 0.141 7.8402313e-39
0.049941052 0.048951965 0.141 7.2874162e-39
0.050642494 0.048539352 0.14100002 7.8402299e-39
0.051586356 0.048498087 0.14100002 7.3796119e-39
0.052588671 0.04849809 0.14100002 7.1955807e-39
0.053345125 0.048430003 0.14100002 7.6561987e-39
0.049663678 0.049557131 0.14100002 6.9186337e-39
0.050621867 0.049481485 0.14100002 7.3796119e-39
0.05158636 0.049481481 0.14100002 7.4714474e-39
0.052550841 0.049434207 0.14100002 7.1952206e-39
0.053118184 0.049178902 0.141 7.2881351e-39
0.048664525 0.050597265 0.14100002 6.6420468e-39
0.049543906 0.050483793 0.14100002 6.4580143e-39
0.050621867 0.050483793 0.14100002 7.103025e-39
0.051586356 0.050483797 0.14100002 7.103025e-39
0.052361727 0.050162304 0.141 7.3796119e-39
0.047841873 0.05161849 0.141 7.4707327e-39
0.048579421 0.051523935 0.14100002 6.5487736e-39
0.049543906 0.051523939 0.14100002 6.5498512e-39
0.050621867 0.051523931 0.14100002 7.4718075e-39
0.051550247 0.051489547 0.14100002 7.0115482e-39
0.047700033 0.052384403 0.14100002 7.0104734e-39
0.048579421 0.052356038 0.14100002 6.549854e-39
0.049543913 0.052356035 0.14100002 6.8271569e-39
0.050621867 0.052356038 0.14100002 7.84059e-39
0.051399946 0.052291196 0.14100002 7.1037438e-39
0.046673141 0.053536117 0.141 7.0108307e-39
0.047558196 0.053377263 0.14100002 6.9182778e-39
0.048579425 0.053377267 0.14100002 7.1026662e-39
0.049543906 0.053377263 0.14100002 7.1955807e-39
0.05060124 0.053346314 0.14100002 7.379972e-39
0.051075742 0.053036854 0.141 7.2874162e-39
0.045742691 0.054511953 0.141 7.4714502e-39
0.046536978 0.054398485 0.14100002 6.6420468e-39
0.0475582 0.054398481 0.14100002 7.4718061e-39
0.048579421 0.054398485 0.14100002 7.103025e-39
0.049543913 0.054398488 0.14100002 7.1952192e-39
0.0504857 0.054353096 0.141 6.8267968e-39
0.045742691 0.0550793 0.141 7.7480384e-39
0.046366774 0.055249501 0.141 6.9186337e-39
0.047785141 0.055192769 0.141 7.5640031e-39
0.048579421 0.055192769 0.14100002 7.103025e-39
0.049577951 0.055412151 0.14100002 7.2877736e-39
0.050440319 0.0554424 0.141 6.5480533e-39
0.04555358 0.056693085 0.14100002 7.5632843e-39
0.0465694 0.05673271 0.14100002 7.2874162e-39
0.047558203 0.056554392 0.14100002 7.1955793e-39
0.048579421 0.056554392 0.14100002 6.8264367e-39
0.049441788 0.056690563 0.14100002 7.1026634e-39
0.05039493 0.056667868 0.141 7.7483944e-39
0.044559371 0.057608042 0.14100002 8.0242624e-39
0.045515757 0.057575617 0.14100002 7.8398711e-39
0.046536978 0.057575624 0.14100002 7.3799734e-39
0.04749012 0.057552923 0.14100002 6.9193526e-39
0.049714115 0.057575624 0.14100002 7.1952192e-39
0.05039493 0.057575621 0.141 7.6561959e-39
0.044608001 0.058029499 0.141 8.0239023e-39
0.045515753 0.058029499 0.141 7.7473154e-39
0.046536978 0.058029499 0.141 7.3799734e-39
0.047444731 0.058029499 0.141 6.9189938e-39
0.069264717 -0.050804798 0.142 2.4935672e-39
0.067893431 -0.049776331 0.142 1.9421941e-39
0.068383172 -0.04959676 0.142 2.1265853e-39
0.068236247 -0.048976414 0.142 1.9421913e-39
0.060122799 -0.04417691 0.142 3.4140759e-39
0.054637652 -0.041434336 0.142 2.1237127e-39
-0.015755085 -0.030006947 0.142 4.7966601e-39
-0.015726516 -0.029349869 0.142 4.6126289e-39
-0.01621218 -0.028407112 0.142 4.3367623e-39
-0.015983632 -0.02863566 0.142 4.4289565e-39
-0.017126372 -0.027950017 0.142 4.7037358e-39
-0.016440729 -0.027797652 0.142 4.5200718e-39
-0.015983632 -0.027950017 0.142 4.4289593e-39
0.02458361 -0.025207443 0.142 3.9647344e-39
0.024469336 -0.024674164 0.142 4.2406038e-39
-0.042038083 -0.022007773 0.142 6.4547044e-39
-0.041695263 -0.022007773 0.142 5.532395e-39
-0.05354166 -0.021398313 0.142 3.7850094e-39
-0.04340937 -0.021093583 0.142 9.865612e-39
-0.042462531 -0.021420078 0.142 7.1911933e-39
-0.049465891 -0.020407939 0.142 1.2262363e-38
-0.047066137 -0.020522213 0.142 1.1800306e-38
-0.046380494 -0.020407939 0.142 1.1708111e-38
-0.045409165 -0.020407939 0.142 1.1616995e-38
-0.044323564 -0.020499358 0.142 1.1525157e-38
-0.04363792 -0.020807896 0.142 1.0326597e-38
-0.042647544 -0.020865032 0.142 7.0986389e-39
-0.051560912 -0.019798478 0.142 1.2262726e-38
-0.049123067 -0.019950842 0.142 1.1801745e-38
-0.047237545 -0.019779433 0.142 1.0971627e-38
-0.046359718 -0.019639187 0.14199999 1.0603204e-38
-0.045409165 -0.019608023 0.14199999 1.0603204e-38
-0.044399749 -0.019608021 0.14199999 1.0602468e-38
0.024697883 -0.019265199 0.142 5.0718148e-39
-0.046151947 -0.018693831 0.142 9.6808873e-39
-0.045409162 -0.018693831 0.142 9.6808859e-39
-0.04455211 -0.018808104 0.142 9.7723458e-39
-0.0082891881 -0.0012861057 0.142 9.401736e-39
-0.0076797269 -0.0012861057 0.142 1.2720802e-38
-0.0083272792 -0.0004671427 0.142 7.4699368e-39
-0.0074457377 -0.00039368094 0.14199999 8.8503615e-39
-0.0064608059 -0.00021954924 0.142 1.2537508e-38
-0.0056989794 -6.7184046e-05 0.142 1.3089247e-38
-0.0085246619 0.00057690521 0.14199999 6.0884442e-39
-0.0074130879 0.00054227677 0.14199999 5.9951682e-39
-0.0063846228 0.00054227677 0.142 9.6794145e-39
-0.0054990002 0.00058989087 0.142 1.2720822e-38
-0.0093557453 0.0019897462 0.142 5.1668467e-39
-0.0085558267 0.0015897877 0.14199999 5.0746524e-39
-0.0074130879 0.0015897874 0.14199999 4.8902612e-39
-0.0063846228 0.0015897873 0.14199999 6.3625158e-39
-0.0054704314 0.0014412313 0.14199999 1.1061652e-38
-0.015697947 0.0027896636 0.142 1.7329888e-38
-0.01415525 0.0029039374 0.142 1.732953e-38
-0.013812428 0.0029039374 0.142 1.7237335e-38
-0.0093557453 0.0029039374 0.142 4.983903e-39
-0.0085558267 0.0025992075 0.14199999 4.4303676e-39
-0.0074511799 0.0024976304 0.142 4.7058755e-39
-0.0063846228 0.002218294 0.142 6.0870121e-39
-0.015983632 0.0038181287 0.142 1.4377077e-38
-0.013012511 0.0038181287 0.142 1.7145139e-38
-0.0086048022 0.0032957334 0.142 4.1541451e-39
-0.015526537 0.0045418637 0.142 1.5023182e-38
-0.013103929 0.004640901 0.142 1.6775993e-38
-0.012783962 0.0045799548 0.142 1.6868548e-38
-0.0093557453 0.0049608676 0.142 3.7842878e-39
-0.014475216 0.0054179635 0.142 1.6130263e-38
-0.013428053 0.0055218488 0.14199999 1.6222458e-38
-0.012783962 0.0058750589 0.142 1.594587e-38
-0.010498485 0.0058750589 0.142 4.1519913e-39
-0.013469607 0.0063321539 0.14199999 1.4286347e-38
-0.012490115 0.0063321549 0.142 1.2720085e-38
-0.011669792 0.0063607227 0.142 6.3621613e-39
-0.010727032 0.0063321544 0.142 4.3363812e-39
0.070712186 0.0076272595 0.142 7.2892029e-39
0.071321644 0.0074748942 0.142 7.2895714e-39
0.072098717 0.0075206035 0.142 7.1970185e-39
0.069759898 0.0084652677 0.142 6.7356634e-39
0.070436016 0.0083605163 0.142 7.1051732e-39
0.071264505 0.0082176737 0.142 7.2888414e-39
0.072007291 0.0081605371 0.142 6.6430964e-39
0.020812569 0.0093032764 0.142 1.2168247e-38
0.021269666 0.0097603723 0.142 1.2812883e-38
0.069680259 0.0093863867 0.14199999 7.1018885e-39
0.070293173 0.0093032764 0.142 6.825659e-39
0.021498214 0.010446016 0.142 1.2351919e-38
-0.017583467 0.018399481 0.142 1.7185852e-38
-0.0093557453 0.018902285 0.142 1.5067884e-38
0.021955309 0.018902285 0.142 1.0971272e-38
0.022595244 0.018719446 0.142 9.9574826e-39
-0.017629176 0.019313671 0.142 1.699822e-38
-0.010269936 0.019587928 0.142 1.7010108e-38
-0.0095557244 0.019387947 0.142 1.5067889e-38
-0.0088986494 0.01935938 0.142 1.424064e-38
0.020698296 0.019587928 0.142 1.078321e-38
0.021726761 0.019416517 0.142 1.0786873e-38
0.022640953 0.019359378 0.142 9.681253e-39
-0.01621218 0.020730667 0.142 1.8488481e-38
-0.010447696 0.020552909 0.142 1.4794532e-38
-0.0095842928 0.020444982 0.14199999 1.4146645e-38
-0.008588477 0.02050212 0.14199999 1.4056967e-38
-0.0076797274 0.020806849 0.142 1.49854e-38
0.018412817 0.020959215 0.142 9.8645036e-39
0.019898379 0.020959215 0.142 1.11541e-38
0.020604799 0.020481342 0.14199999 1.1061196e-38
0.021612488 0.020444984 0.14199999 9.3109571e-39
0.022640953 0.020444982 0.14199999 8.6666863e-39
0.023212321 0.02067353 0.142 7.9298457e-39
0.049381051 0.020959215 0.142 7.2877624e-39
0.051437981 0.020730667 0.142 6.2721082e-39
-0.016269317 0.021473449 0.142 1.6365821e-38
-0.010581592 0.021437088 0.14199999 1.4701621e-38
-0.0095842928 0.021416312 0.142 1.4526577e-38
-0.0085558277 0.021416312 0.14199999 1.387905e-38
-0.0074816523 0.021439165 0.14199999 1.4156e-38
0.017612901 0.021644859 0.142 9.7719268e-39
0.018412817 0.021416312 0.14199999 9.6800927e-39
0.019565947 0.021437086 0.14199999 1.0325789e-38
0.020551372 0.02135101 0.142 1.0233222e-38
0.021643654 0.021395534 0.14199999 9.6804192e-39
0.022640953 0.021302035 0.142 9.4963895e-39
0.023489844 0.02141631 0.142 8.4826145e-39
0.02401224 0.021644859 0.142 8.298589e-39
0.049609601 0.021187762 0.142 6.7345507e-39
-0.017354921 0.022604758 0.142 1.6918639e-38
-0.016538678 0.022461101 0.142 1.4613386e-38
-0.01152695 0.022673324 0.142 1.4883492e-38
-0.010612758 0.022444775 0.14199999 1.4147364e-38
-0.0095842928 0.022444777 0.14199999 1.3235118e-38
-0.0085558277 0.022444775 0.14199999 1.3050007e-38
-0.0074130879 0.022444773 0.14199999 1.2773424e-38
-0.0065152207 0.02249375 0.142 1.1856505e-38
0.017498627 0.022444773 0.142 1.097187e-38
0.018340098 0.02241361 0.14199999 1.0787474e-38
0.019486992 0.022307647 0.14199999 1.041833e-38
0.024501985 0.022493752 0.142 8.2074724e-39
-0.017126372 0.02347324 0.142 1.6457296e-38
-0.016714986 0.023427531 0.142 1.5441346e-38
-0.011412675 0.023358967 0.142 1.5624652e-38
-0.010612759 0.023473239 0.14199999 1.3790079e-38
-0.0095842928 0.02347324 0.142 1.3323714e-38
-0.0085558267 0.023473239 0.14199999 1.2585433e-38
-0.0074130888 0.023473239 0.14199999 1.2590832e-38
-0.0066131707 0.023358967 0.142 1.093599e-38
0.024697883 0.023358967 0.142 7.746497e-39
0.02515498 0.023701789 0.142 7.2851629e-39
0.027745189 0.023397058 0.142 4.5226039e-39
0.028126102 0.02347324 0.142 4.7073595e-39
-0.017126372 0.024158884 0.142 1.7564714e-38
-0.010555621 0.024444571 0.14199999 1.3324793e-38
-0.0095842928 0.024387432 0.142 1.3414113e-38
-0.0085231783 0.024452731 0.14199999 1.185255e-38
-0.0074746204 0.024440171 0.14199999 1.2037301e-38
0.02515498 0.024158884 0.142 6.5476007e-39
0.026983364 0.024615981 0.142 5.809335e-39
-0.0075273621 0.025301624 0.142 1.185327e-38
0.024697883 0.026901457 0.142 9.3130913e-39
0.018584229 0.027244281 0.142 9.5864369e-39
0.019568255 0.027485525 0.142 9.4942511e-39
0.023669418 0.027701374 0.142 9.5893152e-39
0.024195079 0.027449971 0.142 9.3130898e-39
0.018069996 0.028501293 0.142 1.2804677e-38
0.019669831 0.028044198 0.142 9.4917414e-39
0.021681052 0.028912678 0.142 1.1058706e-38
0.022669522 0.028758409 0.142 1.0967953e-38
0.023451261 0.028522069 0.14199999 1.050876e-38
0.02401224 0.028272744 0.142 9.6807878e-39
0.020641159 0.029586893 0.142 1.35469e-38
0.021612488 0.029567853 0.14199999 1.1796261e-38
0.022583816 0.029301209 0.142 1.1151979e-38
0.020812569 0.030101128 0.142 1.3454342e-38
0.055323295 0.033872169 0.142 7.2859673e-39
0.056408897 0.033986442 0.142 7.469997e-39
0.05743736 0.033872169 0.142 7.4689166e-39
0.058065869 0.033757895 0.142 6.7306257e-39
0.054866198 0.034443535 0.142 7.5621996e-39
0.055437569 0.0344721 0.142 7.2856128e-39
0.056408908 0.034443531 0.14199999 7.3781643e-39
0.057380226 0.034443535 0.142 7.2856072e-39
0.058065869 0.034214988 0.142 6.8239073e-39
0.054790016 0.035510093 0.142 7.4718047e-39
