# .PCD v0.7 - Point Cloud Data file format
VERSION 0.7
FIELDS x y z rgb
SIZE 4 4 4 4
TYPE F F F F
COUNT 1 1 1 1
WIDTH 970
HEIGHT 1
VIEWPOINT 0 0 0 1 0 0 0
POINTS 970
DATA ascii
-0.023618286 0.040181756 0.16500001 1.171173e-38
-0.018041398 0.040819116 0.16500001 1.1252197e-38
-0.014057905 0.040022418 0.16500001 1.1435866e-38
-0.013659555 0.040022418 0.16500001 1.115964e-38
-0.012530901 0.04008881 0.16500001 1.1160001e-38
-0.011402245 0.040022418 0.16500001 1.1160001e-38
-0.010406371 0.04008881 0.16500001 1.1436588e-38
-0.0093662376 0.040022418 0.16500001 1.1160001e-38
-0.0083924942 0.040110942 0.16500001 1.1159644e-38
-0.0076511228 0.040321179 0.16500001 1.0790863e-38
-0.0066979299 0.040439732 0.16500001 1.1251841e-38
-0.002638561 0.040022418 0.16500001 1.0422801e-38
-0.0015431007 0.040321179 0.16500001 1.0330605e-38
-0.00051403191 0.040376503 0.16500001 1.0422439e-38
0.0004597106 0.040376499 0.16500001 1.0145852e-38
0.0014334532 0.040376503 0.16500001 9.6852341e-39
0.002495718 0.040376503 0.16500001 9.2242559e-39
0.0034694604 0.040376503 0.16500001 8.8554748e-39
0.0045317248 0.040376503 0.16500001 8.3941365e-39
0.0055939895 0.040376503 0.16500001 7.3807007e-39
0.0065677324 0.040376503 0.16500001 7.1955891e-39
0.0075414744 0.040376503 0.16500001 7.9335157e-39
0.008382434 0.040376507 0.16500001 8.3952141e-39
0.0094446987 0.04037651 0.16499999 8.6725227e-39
0.010639747 0.040376503 0.16500001 8.7654386e-39
0.011613488 0.04037651 0.16500001 8.7657987e-39
0.012498709 0.040376503 0.16500001 8.7657987e-39
0.013295407 0.040376503 0.16500001 8.8576356e-39
0.014490456 0.04037651 0.16499999 8.9498298e-39
0.015685502 0.040376503 0.16500001 9.0420255e-39
0.016614987 0.040376503 0.16500001 9.1342225e-39
0.017312096 0.040420767 0.16500001 8.9498312e-39
0.018341167 0.040553551 0.16500001 8.95019e-39
0.01940343 0.040553547 0.16500001 8.7657987e-39
0.020200128 0.040819116 0.16500001 8.6739632e-39
-0.018041398 0.041084681 0.16500001 1.1160001e-38
-0.017643049 0.041217465 0.16500001 1.1067806e-38
-0.0066220537 0.041084681 0.16500001 1.0976332e-38
-0.0038336087 0.041615814 0.16500001 9.4097276e-39
-0.002638561 0.04143877 0.16500001 9.5015631e-39
0.00068101578 0.041084681 0.16500001 9.223893e-39
0.0016104974 0.041244023 0.16500001 8.3030171e-39
0.002495718 0.041350245 0.16500001 7.7502035e-39
0.0034694604 0.041350245 0.16500001 7.6576477e-39
0.0045317253 0.041350249 0.16500001 7.1037578e-39
0.0055939895 0.041350245 0.16500001 6.643137e-39
0.0065677315 0.041350245 0.16500001 6.5513001e-39
0.0075414744 0.041350245 0.16500001 7.0122769e-39
0.008382434 0.041350249 0.16500001 7.3803405e-39
0.0094446987 0.041350245 0.16499999 7.9345989e-39
0.010639747 0.041350245 0.16500001 8.1200706e-39
0.011613488 0.041350249 0.16500001 8.1211496e-39
0.012498709 0.041350245 0.16500001 8.1215083e-39
0.013295408 0.041350245 0.16500001 8.2129851e-39
0.014490456 0.041350245 0.16499999 8.4888531e-39
0.015685506 0.041350245 0.16500001 8.5817676e-39
0.016614987 0.041350245 0.16500001 8.5817676e-39
0.017367424 0.041350245 0.16500001 8.489572e-39
0.018341165 0.041350245 0.16500001 8.5821277e-39
0.01940343 0.041350245 0.16500001 8.489572e-39
0.020495201 0.041409262 0.16500001 8.489572e-39
0.0353374 0.041615814 0.16500001 7.3806979e-39
-0.012198943 0.042678077 0.16500001 9.8696267e-39
-0.01166781 0.042678077 0.16500001 9.7774311e-39
0.0018760635 0.042146947 0.16500001 7.5661709e-39
0.002495718 0.042146947 0.16500001 7.1973912e-39
0.0032038942 0.042146947 0.16500001 7.2892281e-39
0.0045317248 0.042146947 0.16500001 7.1963094e-39
0.0056471028 0.042253174 0.16500001 6.7353313e-39
0.006567732 0.042279731 0.16500001 6.6431356e-39
0.0076047042 0.042336639 0.16500001 6.8275269e-39
0.008382434 0.042412516 0.16500001 7.0122783e-39
0.0094446987 0.042412516 0.16499999 7.2895854e-39
0.010639746 0.042412516 0.16500001 7.750565e-39
0.011613488 0.042412516 0.16500001 7.8434823e-39
0.012498709 0.042412516 0.16500001 7.8434837e-39
0.013295409 0.042412516 0.16500001 7.8434837e-39
0.014490456 0.042412516 0.16499999 7.8442026e-39
0.015685504 0.042412516 0.16500001 8.0285938e-39
0.016614987 0.042412508 0.16500001 8.1204293e-39
0.017367423 0.042412512 0.16500001 8.2126249e-39
0.018341165 0.042412512 0.16500001 7.9367569e-39
0.01940343 0.042412516 0.16500001 7.9371171e-39
0.020598479 0.042412516 0.16499999 8.0293127e-39
0.021660743 0.042412516 0.16500001 7.7527258e-39
0.022059092 0.042678077 0.16500001 7.5683345e-39
-0.012198943 0.04320921 0.16500001 9.7770668e-39
-0.0052942229 0.043474779 0.16500001 8.6728814e-39
0.009577482 0.04320921 0.16500001 7.1966695e-39
0.010639747 0.04320921 0.16500001 7.1051928e-39
0.01170201 0.043315437 0.16500001 7.1051956e-39
0.012498708 0.043341994 0.16500001 7.1970325e-39
0.013295409 0.043341994 0.16500001 7.4736208e-39
0.014526669 0.043450631 0.16499999 7.3828629e-39
0.015685502 0.043474775 0.16500001 7.4750599e-39
0.016614987 0.043474775 0.16500001 7.47542e-39
0.017367424 0.043474771 0.16500001 7.6598113e-39
0.018341167 0.043474775 0.16500001 7.5676157e-39
0.01940343 0.043474775 0.16500001 7.5676157e-39
0.020598477 0.043474767 0.16499999 7.7523657e-39
0.021660743 0.043474775 0.16500001 7.7520069e-39
0.022457441 0.043507971 0.16500001 7.5668968e-39
0.023386924 0.043673951 0.16500001 7.6598113e-39
0.024316404 0.043740343 0.16500001 7.8442026e-39
0.025511453 0.043740343 0.16500001 7.5683345e-39
0.026573718 0.043634117 0.16500001 7.4750585e-39
0.02763598 0.043541167 0.16500001 7.6587281e-39
0.028631855 0.043673951 0.16500001 8.2108229e-39
0.029317901 0.043651819 0.16500001 8.3952141e-39
0.030203121 0.043651819 0.16500001 7.6576505e-39
-0.0052942229 0.044271477 0.16500001 8.7650771e-39
0.017810034 0.044005908 0.16500001 7.5676157e-39
0.018341165 0.044005912 0.16500001 7.3832244e-39
0.019403428 0.044271473 0.16500001 7.3832244e-39
0.020617446 0.044233534 0.16500001 7.47542e-39
0.021660741 0.044271473 0.16500001 7.5676157e-39
0.022557028 0.044404257 0.16500001 7.1984744e-39
0.023475446 0.044448517 0.16500001 7.3832244e-39
0.024449186 0.044448517 0.16500001 7.3835831e-39
0.025511453 0.044448514 0.16500001 7.2917476e-39
0.026540522 0.044503842 0.16500001 7.015158e-39
0.027547458 0.044404257 0.16500001 7.3825013e-39
0.028432678 0.044218361 0.16500001 7.6583708e-39
0.029362161 0.044271477 0.16500001 7.8420418e-39
0.030388212 0.044488754 0.16499999 7.4739781e-39
0.031672589 0.044696379 0.16500001 6.0895989e-39
-0.033178668 0.045068175 0.16500001 1.0515352e-38
-0.004364741 0.045068175 0.16500001 8.3955757e-39
0.023475444 0.045068175 0.16500001 7.1988331e-39
0.024316404 0.045068175 0.16500001 7.1988331e-39
0.030610319 0.045174401 0.16500001 6.9222393e-39
0.031619474 0.045200955 0.16500001 6.0903178e-39
0.032150604 0.045200959 0.16500001 7.839511e-39
-0.03848999 0.046396002 0.16500001 1.0330958e-38
0.032681737 0.046661571 0.16500001 5.4431477e-39
0.03148669 0.059674311 0.16500001 5.5382258e-39
0.024183622 0.060471009 0.16500001 6.8286059e-39
0.025644235 0.060471009 0.16500001 6.6442146e-39
-0.030257441 0.061002139 0.16500001 8.025347e-39
-0.029859092 0.061002139 0.16500001 7.841676e-39
-0.0042319582 0.061798837 0.16500001 6.4598206e-39
0.0021416298 0.061002139 0.16500001 6.5509344e-39
0.016747769 0.061798837 0.16500001 6.4598234e-39
0.017013336 0.061798837 0.16500001 6.4598234e-39
-0.0044090021 0.062329974 0.16500001 6.4598192e-39
-0.0034352595 0.062595539 0.16500001 6.3669033e-39
-0.0029041274 0.062197186 0.16500001 6.5509344e-39
0.016614987 0.062329974 0.16500001 6.3679893e-39
0.017013336 0.062329974 0.16500001 6.3679893e-39
-0.0042319582 0.063126668 0.16500001 6.3676221e-39
0.016614987 0.063392229 0.16500001 6.1832337e-39
0.017101856 0.063215189 0.16500001 6.2754293e-39
0.031009579 -0.037483122 0.16600001 1.0973395e-38
0.033414159 -0.037616711 0.16600001 1.7793738e-38
0.031410344 -0.036948774 0.16600001 1.161984e-38
0.03221187 -0.036815185 0.16600001 1.5581032e-38
0.0097691156 -0.030603351 0.16600001 2.1433697e-38
0.010303466 -0.030536557 0.16600001 2.1615208e-38
0.016475223 -0.030215949 0.16600001 1.9220639e-38
0.016493035 -0.029378796 0.16600001 1.8572382e-38
0.0010859066 -0.025460223 0.16600001 1.6300264e-38
0.0013530822 -0.024525108 0.16600001 1.7104821e-38
0.0093683517 -0.024257932 0.16600001 1.8112133e-38
0.0017538457 -0.023589993 0.16600001 1.6454054e-38
0.0024217849 -0.023055643 0.16600001 1.5808681e-38
0.0093683517 -0.023411876 0.16600001 1.7923786e-38
0.0096355267 -0.02265488 0.16600001 1.8203251e-38
0.0018874336 -0.021452589 0.16600001 1.5901593e-38
0.0025553727 -0.021853352 0.16600001 1.6270378e-38
0.0093683517 -0.021986939 0.16600001 1.7463884e-38
0.0018874336 -0.020918237 0.16600001 1.5807602e-38
0.0025553727 -0.020383887 0.16600001 1.543666e-38
-0.00024997164 -0.019048007 0.16600001 1.3875454e-38
0.0029561361 -0.019181594 0.16600001 1.4698371e-38
0.0088339997 -0.019315183 0.16600001 1.7460278e-38
0.0091011757 -0.019582359 0.16600001 1.9123758e-38
0.0029561361 -0.018380068 0.16600001 1.3780012e-38
0.0085668247 -0.018380068 0.16600001 1.6537598e-38
0.0085668247 -0.017623072 0.16600001 1.6547318e-38
0.0010859066 -0.016376251 0.16600001 1.2403564e-38
0.00033781477 -0.01552129 0.16600001 1.1760353e-38
0.0012194945 -0.015708312 0.16600001 1.203514e-38
0.032612633 -0.010298006 0.16600001 5.167204e-39
0.033414159 -0.010231212 0.16600001 7.1944149e-39
0.032746222 -0.0096968608 0.16600001 5.4441482e-39
0.033647936 -0.0093962885 0.16600001 7.1937114e-39
0.033681333 -0.0084500415 0.16600001 9.4042485e-39
0.034482863 -0.0080938069 0.16600001 1.2078303e-38
0.033814922 -0.0075594559 0.16600001 1.1062327e-38
0.034616452 -0.00738134 0.16600001 1.1707699e-38
0.035284389 -0.0070918985 0.16600001 1.2444909e-38
0.036085919 -0.0070251049 0.16600001 1.3369068e-38
0.033814922 -0.006757929 0.16600001 1.1247078e-38
0.034750037 -0.006757929 0.16600001 1.1523663e-38
0.035017215 -0.006757929 0.16600001 1.1799533e-38
-0.0098682949 0.017822227 0.16600001 1.4383247e-38
-0.008265241 0.023432914 0.16600001 1.4014462e-38
-0.0266113 0.028776428 0.16600001 1.2265627e-38
-0.022425549 0.028776428 0.16600001 1.3370896e-38
-0.026166009 0.029043604 0.16600001 1.2450018e-38
-0.025698449 0.029644746 0.16600001 1.2173431e-38
-0.023494253 0.029577956 0.16600001 1.2817722e-38
-0.026166009 0.030646658 0.16600001 1.2265627e-38
-0.025631657 0.030379482 0.16600001 1.2173431e-38
-0.024601122 0.030455815 0.16600001 1.2265629e-38
-0.023654558 0.030432915 0.16600001 1.2173431e-38
-0.028125295 0.031893473 0.16600001 1.2725526e-38
-0.027501887 0.031848945 0.16600001 1.2909918e-38
-0.026166009 0.031314597 0.16600001 1.2541135e-38
-0.025685092 0.031287879 0.16600001 1.2448939e-38
-0.024830131 0.031181008 0.16600001 1.2356744e-38
-0.028125295 0.032605946 0.16600001 1.2540773e-38
-0.027368298 0.032650474 0.16600001 1.2909196e-38
-0.012139289 0.032784063 0.16600001 1.2174153e-38
-0.028036239 0.033496533 0.16600001 1.2633331e-38
-0.027368298 0.033496529 0.16600001 1.2633331e-38
-0.026967535 0.033496529 0.16600001 1.2725166e-38
-0.018417915 0.033852763 0.16600001 1.1067806e-38
-0.015478983 0.033852763 0.16600001 1.2265627e-38
-0.014610662 0.033785969 0.16600001 1.2265627e-38
-0.013430637 0.033644959 0.16600001 1.235782e-38
-0.012272877 0.033496529 0.16600001 1.2358183e-38
-0.01147135 0.033496529 0.16600001 1.2174153e-38
-0.010936998 0.033852763 0.16600001 1.2174153e-38
-0.0033224917 0.033852763 0.16600001 1.1252561e-38
-0.0023873767 0.033785969 0.16600001 1.1712819e-38
-0.0014077327 0.033852763 0.16600001 1.2634417e-38
-0.028036239 0.034119941 0.16600001 1.2448939e-38
-0.0273683 0.03425353 0.16600001 1.2633331e-38
-0.026700359 0.034226812 0.16600001 1.2633331e-38
-0.019286236 0.034587499 0.16600001 1.1251837e-38
-0.018417915 0.034476172 0.16600001 1.1160004e-38
-0.017501885 0.034577955 0.16600001 1.1344754e-38
-0.016369568 0.034654289 0.16600001 1.1805011e-38
-0.015612572 0.034476172 0.16600001 1.2081239e-38
-0.014677457 0.034476176 0.16600001 1.1989043e-38
-0.013475166 0.034476172 0.16600001 1.2634048e-38
-0.012272876 0.034476176 0.16600001 1.2173792e-38
-0.01147135 0.034476176 0.16600001 1.2174153e-38
-0.010580763 0.034476172 0.16600001 1.2081958e-38
-0.0097792363 0.03474335 0.16600001 1.2266349e-38
-0.0050591333 0.034921467 0.16600001 1.1252564e-38
-0.0044866139 0.034577955 0.16600001 1.1252563e-38
-0.0034560796 0.034476176 0.16600001 1.1252561e-38
-0.0023873767 0.034476176 0.16600001 1.1620984e-38
-0.0014077327 0.034476176 0.16600001 1.2173797e-38
-0.0005171473 0.034476172 0.16600001 1.2081602e-38
0.00024621168 0.034577955 0.16600001 1.2173797e-38
0.0014866701 0.034921467 0.16600001 1.2357828e-38
0.0028225482 0.034921467 0.16600001 1.2265993e-38
0.0036240751 0.034921467 0.16600001 1.1989406e-38
0.0056278924 0.034921467 0.16600001 1.2173797e-38
0.0064294194 0.034654289 0.16600001 1.1990126e-38
-0.021089671 0.035990167 0.16600001 1.2264548e-38
-0.020402649 0.035646658 0.16600001 1.2265267e-38
-0.019486617 0.03554488 0.16600001 1.1896845e-38
-0.018417915 0.035544876 0.16600001 1.1621338e-38
-0.01743827 0.035544876 0.16600001 1.1621338e-38
-0.016369568 0.035544876 0.16600001 1.1805011e-38
-0.015612572 0.035544876 0.16600001 1.1897206e-38
-0.014677455 0.03554488 0.16600001 1.1712456e-38
-0.013475166 0.03554488 0.16600001 1.2173433e-38
-0.012272876 0.035544876 0.16600001 1.1896846e-38
-0.011471349 0.035544876 0.16600001 1.2081597e-38
-0.010580764 0.03554488 0.16600001 1.1989403e-38
-0.0096011199 0.035544876 0.16600001 1.2081958e-38
-0.0085705854 0.035646658 0.16600001 1.2081958e-38
-0.0076240199 0.035776429 0.16600001 1.1989763e-38
-0.0064840703 0.035990167 0.16600001 1.1989406e-38
-0.0054598968 0.035589408 0.16600001 1.171282e-38
-0.0045247818 0.03554488 0.16600001 1.1805376e-38
-0.0034560799 0.035544876 0.16600001 1.1805375e-38
-0.0023873767 0.03554488 0.16600001 1.1989406e-38
-0.0014077327 0.035544876 0.16600001 1.2358188e-38
-0.0005171473 0.035544876 0.16600001 1.2819164e-38
0.00028437964 0.03554488 0.16600001 1.2634773e-38
0.0014866701 0.035544876 0.16600001 1.245074e-38
0.0026889606 0.03554488 0.16600001 1.245074e-38
0.0036240751 0.035544876 0.16600001 1.2358544e-38
0.0043810727 0.035544876 0.16600001 1.2358544e-38
0.0052004112 0.035455819 0.16600001 1.2174155e-38
0.015513392 0.035990167 0.16600001 1.0699387e-38
0.019788202 0.035544876 0.16600001 1.0054018e-38
0.020055378 0.035455819 0.16600001 1.0054018e-38
-0.024429366 0.036791697 0.16600001 1.1713171e-38
-0.020020969 0.036257345 0.16600001 1.2450018e-38
-0.019433182 0.036364213 0.16600001 1.2450018e-38
-0.018471351 0.036364216 0.16600001 1.2265627e-38
-0.01743827 0.036257345 0.16600001 1.2265627e-38
-0.016369568 0.036257345 0.16600001 1.2081955e-38
-0.015612571 0.036257345 0.16600001 1.1989759e-38
-0.014677457 0.036524519 0.16600001 1.1805008e-38
-0.013475166 0.036524527 0.16600001 1.1805369e-38
-0.012272877 0.036524519 0.16600001 1.2173794e-38
-0.01147135 0.036524519 0.16600001 1.2173793e-38
-0.010580763 0.036524519 0.16600001 1.1989043e-38
-0.0096011199 0.036524519 0.16600001 1.1989402e-38
-0.0085324161 0.036524519 0.16600001 1.1989762e-38
-0.0075527728 0.036524519 0.16600001 1.2174153e-38
-0.0064840708 0.036524519 0.16600001 1.2358186e-38
-0.0055044265 0.036524519 0.16600001 1.2542218e-38
-0.0045247818 0.036524523 0.16600001 1.2634054e-38
-0.0034560799 0.036524519 0.16600001 1.2634414e-38
-0.0023873767 0.036524519 0.16600001 1.2726609e-38
-0.0014077327 0.036524523 0.16600001 1.2542937e-38
-0.0005171473 0.036524519 0.16600001 1.2542577e-38
0.0002509827 0.036491126 0.16600001 1.2542217e-38
0.0014866701 0.036390934 0.16600001 1.2542936e-38
0.0026889604 0.03639093 0.16600001 1.245074e-38
0.0036240751 0.036524519 0.16600001 1.226635e-38
0.0043254113 0.036491126 0.16600001 1.226599e-38
0.0077652978 0.036791697 0.16600001 1.2358188e-38
0.0085668238 0.036724903 0.16600001 1.1805375e-38
0.0094574094 0.036658108 0.16600001 1.1621342e-38
0.010437054 0.036684826 0.16600001 1.1252919e-38
0.011372169 0.036791697 0.16600001 1.1160721e-38
0.016225861 0.03661358 0.16600001 1.0330962e-38
0.019788202 0.03639093 0.16600001 1.0054018e-38
-0.024295779 0.037326045 0.16600001 1.1805368e-38
-0.023761427 0.037593223 0.16600001 1.1711727e-38
-0.018685091 0.037326045 0.16600001 1.2173431e-38
-0.013875929 0.037326045 0.16600001 1.2081958e-38
-0.01046944 0.03739284 0.16600001 1.1989043e-38
-0.0096011199 0.037459631 0.16600001 1.1989762e-38
-0.0084789824 0.037432916 0.16600001 1.2081958e-38
-0.0075527728 0.037459631 0.16600001 1.2358544e-38
-0.0064840703 0.037459631 0.16600001 1.2634771e-38
-0.0055934843 0.037432916 0.16600001 1.2818804e-38
-0.0045247823 0.037326045 0.16600001 1.3370896e-38
-0.0034560796 0.037326045 0.16600001 1.3647483e-38
-0.0023873767 0.037459631 0.16600001 1.32787e-38
-0.0016749083 0.037415106 0.16600001 1.2910278e-38
-0.00024997164 0.037326045 0.16600001 1.2173434e-38
1.7203998e-05 0.037326045 0.16600001 1.2450021e-38
0.0087004118 0.037326045 0.16600001 1.1897566e-38
0.0095909974 0.037504163 0.16600001 1.1805731e-38
0.010526113 0.037593219 0.16600001 1.1344753e-38
0.011505757 0.037593219 0.16600001 1.097633e-38
0.012574459 0.037726808 0.16600001 1.0884135e-38
0.013643163 0.037726808 0.16600001 1.0699743e-38
0.014578277 0.037860397 0.16600001 1.0515352e-38
0.015379804 0.037860397 0.16600001 1.0607548e-38
0.016348315 0.037626617 0.16600001 1.0423156e-38
0.017205505 0.03777134 0.16600001 1.014729e-38
0.020055378 0.037726812 0.16600001 9.9618224e-39
0.022326373 0.037860397 0.16600001 9.5019232e-39
0.010526113 0.038127575 0.16600001 1.1436588e-38
0.011559191 0.038341314 0.16600001 1.0975972e-38
0.012574459 0.038572866 0.16600001 1.0515355e-38
0.013609766 0.038528338 0.16600001 1.0331322e-38
0.014622807 0.038394749 0.16600001 1.0239488e-38
0.015379803 0.038394749 0.16600001 1.0239488e-38
0.01631492 0.038572866 0.16600001 1.0054737e-38
0.017480776 0.038613349 0.16600001 9.7785101e-39
0.018452324 0.038929101 0.16600001 9.6863145e-39
0.019610086 0.038840041 0.16600001 9.6863145e-39
0.02012217 0.038661923 0.16600001 9.6859544e-39
0.021524845 0.038572866 0.16600001 9.2256951e-39
0.022557111 0.038613349 0.16600001 8.8579915e-39
0.012708047 0.039463453 0.16600001 9.6870334e-39
0.016493035 0.039374392 0.16600001 9.594479e-39
0.017517209 0.039641574 0.16600001 9.5022848e-39
0.0187195 0.039641574 0.16600001 9.3182522e-39
0.019521028 0.03964157 0.16600001 9.2256979e-39
0.020355951 0.03969723 0.16600001 9.0416667e-39
0.021424653 0.03969723 0.16600001 9.0413066e-39
0.022593545 0.039641574 0.16600001 8.8572727e-39
0.023528662 0.039864216 0.16600001 8.7650771e-39
-0.023761427 0.040264979 0.16600001 1.1620611e-38
0.017784385 0.040264979 0.16600001 9.3182536e-39
0.0187195 0.040264979 0.16600001 9.226058e-39
0.019521028 0.040264979 0.16600001 8.9494711e-39
0.020411612 0.040398568 0.16600001 8.8572755e-39
0.021391258 0.040398568 0.16600001 9.0416667e-39
0.022593547 0.040398564 0.16600001 8.8572755e-39
0.023528662 0.040398568 0.16600001 8.9494711e-39
0.020856906 0.041200094 0.16600001 8.5817676e-39
0.021415545 0.041430835 0.16600001 8.3973763e-39
0.022593545 0.041467272 0.16599998 8.3051807e-39
0.02366225 0.041467268 0.16600001 8.3051807e-39
0.026467593 0.041734442 0.16600001 8.1207866e-39
0.027380444 0.041534059 0.16600001 8.1207866e-39
0.028604999 0.041600853 0.16600001 8.0278693e-39
0.029640304 0.04163425 0.16600001 8.4884832e-39
0.030208053 0.041600857 0.16600001 8.3037304e-39
0.035818741 0.041600857 0.16600001 7.5661681e-39
0.036353093 0.041600857 0.16600001 7.7505594e-39
0.037688971 0.041734442 0.16600001 7.1973856e-39
0.038437061 0.041707724 0.16600001 7.3817797e-39
0.022629978 0.042645272 0.16600001 7.6605302e-39
0.023662249 0.042669561 0.16600001 7.8449214e-39
0.025933241 0.042936735 0.16600001 7.8449214e-39
0.026334004 0.042669561 0.16600001 7.8445613e-39
0.027322557 0.042696279 0.16600001 7.3828615e-39
0.028694058 0.042758618 0.16600001 8.303736e-39
0.029584642 0.042669561 0.16600001 8.3959302e-39
0.030208053 0.042669561 0.16600001 8.3037332e-39
0.02299431 0.043471087 0.16600001 7.8431236e-39
0.02366225 0.043604676 0.16600001 7.7520069e-39
0.024396982 0.043671466 0.16600001 7.9363982e-39
0.025559196 0.043631393 0.16600001 7.6605302e-39
0.026334006 0.043471087 0.16600001 7.4757802e-39
0.027402708 0.043471087 0.16600001 7.289947e-39
0.028551564 0.043577954 0.16600001 8.4874084e-39
0.029139349 0.043471087 0.16600001 8.7636323e-39
-0.0050591333 0.044806965 0.16600001 8.6728814e-39
0.02486454 0.044005439 0.16600001 7.7527258e-39
0.030742403 0.044005439 0.16600001 7.7505622e-39
0.031143166 0.044539787 0.16600001 7.5665325e-39
0.03221187 0.044272613 0.16600001 7.9324283e-39
-0.0047919578 0.045074139 0.16600001 8.4884902e-39
0.024730951 0.0608375 0.16600001 6.8286059e-39
-0.030574407 0.061639026 0.16600001 8.0253442e-39
-0.029639294 0.061639026 0.16600001 7.9338688e-39
-0.0035896674 0.061639026 0.16600001 6.7353285e-39
-0.0042576063 0.06270773 0.16600001 6.3676249e-39
-0.003367021 0.062351495 0.16600001 6.6431314e-39
0.030793205 -0.037440144 0.16700001 1.1065597e-38
0.034153022 -0.037171356 0.16700001 1.9912817e-38
0.031644359 -0.036812976 0.16700001 1.3093174e-38
0.032092337 -0.036723379 0.16700001 1.6318244e-38
0.00055487792 -0.025613597 0.16700001 1.898618e-38
0.009424787 -0.025613597 0.16700001 1.8942973e-38
0.00082366302 -0.024807243 0.16700001 1.7847425e-38
0.0010924481 -0.024000887 0.16700001 1.5994161e-38
0.0096039772 -0.024359265 0.16700001 1.8572034e-38
0.001764411 -0.023328923 0.16700001 1.6268942e-38
0.0098279649 -0.023328925 0.16700001 1.8571675e-38
1.7307637e-05 -0.022119392 0.16700001 1.5442786e-38
0.0023019812 -0.022656962 0.16700001 1.562465e-38
-0.0002514775 -0.021850606 0.16700001 1.5442786e-38
0.00046528285 -0.021492228 0.16700003 1.5351665e-38
0.001438029 -0.021543425 0.16700003 1.5442416e-38
0.00046528291 -0.02050668 0.16700003 1.4705575e-38
0.0015404234 -0.02050668 0.16700003 1.5070396e-38
0.0021675886 -0.020372286 0.16700001 1.5713965e-38
-0.00034107253 -0.019521134 0.16700001 1.4061285e-38
0.00046528285 -0.019431541 0.16700003 1.3875093e-38
0.0015404234 -0.019431541 0.16700003 1.4334267e-38
0.002301981 -0.019431541 0.16700001 1.4701968e-38
0.0094247879 -0.019610731 0.16700001 1.7744062e-38
-0.0002514775 -0.018625185 0.16700001 1.3321201e-38
0.00052127976 -0.018389996 0.16700003 1.3137529e-38
0.0015404234 -0.018356398 0.16700003 1.3322638e-38
0.0023979757 -0.018318001 0.16700003 1.3690336e-38
-0.0002514775 -0.017012475 0.16700001 1.2310649e-38
0.0005996754 -0.017236462 0.16700001 1.2403564e-38
0.0015404234 -0.017370854 0.16700003 1.2311007e-38
0.0021675886 -0.017818829 0.16700001 1.277126e-38
-0.0002514775 -0.016609296 0.16700001 1.2126617e-38
0.00039360681 -0.016636174 0.16700001 1.2403202e-38
0.0016300185 -0.016636174 0.16700001 1.1667437e-38
0.0029739439 -0.016609296 0.16700001 1.2495036e-38
-0.0002514775 -0.015802942 0.16700001 1.15756e-38
0.00055487792 -0.015668549 0.16700001 1.1944022e-38
0.0014508283 -0.015668549 0.16700001 1.1851108e-38
0.0029739439 -0.015937334 0.16700001 1.2035858e-38
0.00028609278 -0.014862194 0.16700001 1.1300455e-38
0.010768713 -0.014055838 0.16700001 1.5166902e-38
0.011440676 -0.014503814 0.16700001 1.4707725e-38
0.010768713 -0.013518268 0.16700001 1.3414106e-38
0.015786037 -0.012353532 0.16700001 1.0107305e-38
0.016592393 -0.012443126 0.16700001 9.9229139e-39
0.017434586 -0.012711911 0.16700001 9.3701003e-39
0.018025912 -0.012980697 0.16700001 7.9018057e-39
0.016643587 -0.01167517 0.16700003 9.0953141e-39
0.017488342 -0.011435183 0.16700001 8.0844019e-39
0.016950771 -0.010830416 0.16700001 7.9014526e-39
0.033279471 -0.010628827 0.16700001 6.3642997e-39
0.034368049 -0.01040036 0.16700001 8.945427e-39
0.034498598 -0.0095248884 0.16700003 1.0142555e-38
0.035228163 -0.0094864909 0.16700001 1.1985784e-38
0.034556199 -0.0085457424 0.16700001 1.1801719e-38
0.035362557 -0.0084113507 0.16700001 1.2723705e-38
0.035550706 -0.0076587521 0.16700001 1.2907353e-38
0.036034517 -0.0073362095 0.16700001 1.3920788e-38
0.034421805 -0.0066642473 0.16700001 1.097049e-38
-0.0096589578 0.017929589 0.16700001 1.4475443e-38
-0.008359829 0.023394888 0.16700001 1.4198853e-38
-0.0081806388 0.024111645 0.16700001 1.3646764e-38
-0.033849619 0.027068282 0.16700001 1.2081233e-38
-0.031161768 0.028949779 0.16700001 1.1528062e-38
-0.030317012 0.028604198 0.16700003 1.1896845e-38
-0.029318672 0.028604198 0.16700003 1.1712453e-38
-0.028473917 0.028613796 0.16700001 1.1896845e-38
-0.027721319 0.028627235 0.16700001 1.2081236e-38
-0.02659242 0.028412208 0.16700001 1.2450018e-38
-0.025571037 0.028734753 0.16700001 1.2450018e-38
-0.023098214 0.028949779 0.16700001 1.32787e-38
-0.022695035 0.028412208 0.16700001 1.263441e-38
-0.03129616 0.029352956 0.16700001 1.1620258e-38
-0.030355411 0.029352954 0.16700001 1.1896845e-38
-0.029280273 0.029352957 0.16700001 1.1804649e-38
-0.028742701 0.029218564 0.16700001 1.1804649e-38
-0.027846752 0.029308157 0.16700001 1.198904e-38
-0.025463521 0.029326078 0.16700001 1.2542214e-38
-0.02460341 0.029379835 0.16700001 1.2450018e-38
-0.023635784 0.029218564 0.16700001 1.3370896e-38
-0.031161768 0.030024918 0.16700001 1.1528781e-38
-0.030355416 0.030428097 0.16700004 1.1805009e-38
-0.029340003 0.030443029 0.16700003 1.2173431e-38
-0.028563512 0.030383298 0.16700001 1.198904e-38
-0.025248494 0.030024918 0.16700001 1.2173431e-38
-0.02462133 0.030114511 0.16700001 1.2265627e-38
-0.013556342 0.03015931 0.16700001 1.2173793e-38
-0.012436404 0.030323569 0.16700003 1.226599e-38
-0.011574051 0.030596089 0.16700003 1.1989405e-38
-0.010465313 0.030696882 0.16700001 1.1989406e-38
-0.0094499029 0.030532625 0.16700003 1.2081602e-38
-0.0085838167 0.030831274 0.16700001 1.2358549e-38
-0.031161768 0.031906415 0.16700001 1.1344392e-38
-0.030355411 0.031637628 0.16700003 1.1436588e-38
-0.029280271 0.031637628 0.16700003 1.1158562e-38
-0.028527673 0.031583872 0.16700001 1.2725523e-38
-0.017722512 0.031906415 0.16700001 1.2542214e-38
-0.016647371 0.031906415 0.16700001 1.2726605e-38
-0.015841015 0.031906415 0.16700001 1.2265627e-38
-0.012293052 0.031691384 0.16700001 1.2266349e-38
-0.011540454 0.031637628 0.16700003 1.2081958e-38
-0.010465313 0.031637628 0.16700003 1.1713539e-38
-0.0093901725 0.031637628 0.16700003 1.1897931e-38
-0.0084046265 0.031637631 0.16700003 1.2266353e-38
-0.0076430687 0.031637628 0.16700001 1.2081962e-38
-0.0067023207 0.031637628 0.16700003 1.1528788e-38
-0.0054927878 0.031637635 0.16700004 1.1436592e-38
-0.0045520398 0.031637628 0.16700001 1.1160366e-38
-0.030176222 0.032533582 0.16700001 1.0145849e-38
-0.029414665 0.032443985 0.16700001 1.0145849e-38
-0.01826008 0.032712772 0.16700001 1.1897566e-38
-0.01772251 0.032712769 0.16700003 1.2081956e-38
-0.016647369 0.032712772 0.16700003 1.2081236e-38
-0.015437839 0.032712769 0.16700004 1.1896846e-38
-0.014362697 0.032847162 0.16700001 1.2541494e-38
-0.013601139 0.032847162 0.16700001 1.2265626e-38
-0.012577197 0.032635976 0.16700003 1.2173793e-38
-0.011540454 0.032712772 0.16700003 1.2081958e-38
-0.010465313 0.032712772 0.16700003 1.2173797e-38
-0.0093901725 0.032712769 0.16700003 1.2265993e-38
-0.0084046265 0.032712772 0.16700003 1.2266353e-38
-0.0076430687 0.032712772 0.16700001 1.2082322e-38
-0.0067023211 0.032712772 0.16700003 1.1252201e-38
-0.0054927878 0.032712772 0.16700004 1.106817e-38
-0.0015954032 0.032981556 0.16700001 1.2448944e-38
-0.00052026269 0.032847162 0.16700001 1.2265993e-38
0.00039360681 0.03287404 0.16700001 1.2265993e-38
0.0015404234 0.032981556 0.16700001 1.1989406e-38
0.0023019812 0.032981556 0.16700001 1.1989406e-38
-0.019200828 0.03378791 0.16700001 1.1251479e-38
-0.018528866 0.033519126 0.16700001 1.1344392e-38
-0.017722512 0.033519123 0.16700001 1.1620979e-38
-0.016647371 0.033519123 0.16700001 1.1989762e-38
-0.015437837 0.033519123 0.16700003 1.2450018e-38
-0.014362697 0.033250339 0.16700001 1.2449298e-38
-0.013825126 0.033250339 0.16700001 1.2173429e-38
-0.010465313 0.033519123 0.16700001 1.2358546e-38
-0.0093901725 0.033519123 0.16700001 1.2450383e-38
-0.0084046265 0.033519123 0.16700001 1.2450383e-38
-0.0076430691 0.033519123 0.16700001 1.2173797e-38
-0.0067023207 0.033519123 0.16700001 1.1344037e-38
-0.0054927878 0.033519123 0.16700003 1.1252201e-38
-0.0043504508 0.033653516 0.16700001 1.1344757e-38
-0.0034768991 0.03378791 0.16700001 1.1528788e-38
-0.0025361513 0.03378791 0.16700001 1.189685e-38
-0.0015954032 0.033519123 0.16700001 1.2634414e-38
-0.00052026263 0.033519123 0.16700001 1.2173797e-38
0.00046528285 0.033519123 0.16700001 1.2173797e-38
0.0015404234 0.033519123 0.16700001 1.2081241e-38
0.0025259687 0.033519123 0.16700001 1.1989406e-38
0.0033323243 0.03360872 0.16700001 1.1989406e-38
0.0040490846 0.03378791 0.16700001 1.2081602e-38
-0.01953681 0.034258284 0.16700001 1.1343676e-38
-0.017668754 0.034164209 0.16700001 1.1620979e-38
-0.016647371 0.034191087 0.16700001 1.1989403e-38
-0.015841015 0.034056693 0.16700001 1.2265627e-38
-0.010465313 0.034056693 0.16700001 1.2358544e-38
-0.0093901725 0.03432548 0.16700003 1.245074e-38
-0.0084046265 0.03432548 0.16700003 1.245074e-38
-0.0076430687 0.03432548 0.16700001 1.2634412e-38
-0.0067023211 0.03432548 0.16700003 1.1436232e-38
-0.0055294405 0.034301046 0.16700004 1.1252201e-38
-0.0043504508 0.03412389 0.16700001 1.1252561e-38
-0.00052026263 0.034056693 0.16700001 1.2081602e-38
0.0005996754 0.034235884 0.16700001 1.2265993e-38
0.0015404234 0.03432548 0.16700003 1.2173797e-38
0.0025259687 0.03432548 0.16700003 1.1989406e-38
0.0033771219 0.03432548 0.16700001 1.189721e-38
0.0043477346 0.034385212 0.16700003 1.1989406e-38
0.0056617954 0.034594264 0.16700001 1.2081602e-38
0.0061993659 0.034594264 0.16700001 1.1897931e-38
-0.020410364 0.035221431 0.16700001 1.2357823e-38
-0.0092557799 0.035131834 0.16700001 1.2174153e-38
-0.0083150314 0.03523935 0.16700001 1.2174153e-38
-0.0076430691 0.035266228 0.16700001 1.2450381e-38
-0.0067023211 0.035400618 0.16700003 1.1435873e-38
-0.0058063702 0.035221431 0.16700001 1.1436234e-38
0.0021675886 0.035131834 0.16700001 1.2173797e-38
0.0044522621 0.035131834 0.16700001 1.2173797e-38
0.0053930101 0.035131834 0.16700001 1.2173797e-38
0.016144417 0.035669405 0.16700001 1.0607192e-38
0.017219556 0.035535015 0.16700001 1.0330605e-38
0.019369839 0.035535015 0.16700001 1.0238409e-38
0.0078120767 0.036744546 0.16700001 1.2173797e-38
0.0082152542 0.036744546 0.16700001 1.1989766e-38
0.0096167773 0.036360566 0.16700003 1.1621344e-38
0.010499928 0.036475759 0.16700001 1.1160366e-38
0.012247032 0.036744546 0.16700001 1.106817e-38
0.015875632 0.036206976 0.16700001 1.0607192e-38
0.01681638 0.036610153 0.16700001 1.0330605e-38
0.019369839 0.036475763 0.16700001 1.0238409e-38
-0.025248494 0.03701333 0.16700001 1.1436585e-38
-0.024710923 0.037685294 0.16700001 1.1805006e-38
0.011843854 0.03701333 0.16700001 1.097633e-38
0.012247032 0.037282117 0.16700001 1.097633e-38
0.016950771 0.037282117 0.16700001 1.033168e-38
0.017488342 0.037685294 0.16700001 1.0147649e-38
0.019571427 0.03734931 0.16700001 9.9618224e-39
-0.02426295 0.038178068 0.16700001 1.1342588e-38
0.017757127 0.038088471 0.16700001 1.0055097e-38
0.018249899 0.038446855 0.16700001 9.7785101e-39
0.019437036 0.038558848 0.16700001 9.9618224e-39
0.023536008 0.039298005 0.16700001 8.5814047e-39
0.024315486 0.039593663 0.16700001 8.8572727e-39
0.039528724 0.039432395 0.16700001 7.2895812e-39
0.024342364 0.040507536 0.16700001 8.7650771e-39
0.026761431 0.040776324 0.16700001 8.6728814e-39
0.027254201 0.040686727 0.16700001 8.3973735e-39
0.036706477 0.040776324 0.16700001 7.6583638e-39
0.037455238 0.040584333 0.16700003 7.7505594e-39
0.038184799 0.040776324 0.16700001 7.1973856e-39
0.024275165 0.041515484 0.16700001 8.3973763e-39
0.025820682 0.041582678 0.16700001 8.4895692e-39
0.026403049 0.041493084 0.16700001 8.3973735e-39
0.027567785 0.041313894 0.16700001 8.2129823e-39
0.029852459 0.041313894 0.16700001 8.304452e-39
0.030524421 0.041717071 0.16700001 8.0271435e-39
0.035541747 0.041537877 0.16700001 7.566887e-39
0.036482494 0.041448284 0.16700001 7.8431137e-39
0.03741204 0.041549079 0.16700003 7.8423935e-39
0.038543176 0.041448284 0.16700001 7.1051886e-39
0.03925994 0.041313894 0.16700001 7.1973856e-39
0.02420797 0.042568222 0.16700001 8.0289525e-39
0.025820682 0.042120248 0.16700001 8.3051807e-39
0.026089467 0.042120248 0.16700001 8.3051807e-39
0.030735608 0.042504229 0.16700003 8.0267875e-39
0.024476755 0.043464173 0.16700001 7.8445627e-39
0.025283111 0.04373296 0.16700001 7.8442026e-39
0.031599563 0.044539314 0.16700001 7.6583666e-39
0.032809094 0.046420813 0.16700001 7.1015858e-39
0.025283111 0.061203994 0.16700001 6.6442146e-39
-0.029414665 0.062547922 0.16700001 8.0260659e-39
-0.0042832545 0.062816702 0.16700001 6.3676221e-39
0.033681542 -0.038610712 0.16800001 1.3461959e-38
0.030436806 -0.037258741 0.16800001 1.1249634e-38
0.031112794 -0.037123542 0.16800001 1.060677e-38
0.034492727 -0.037664331 0.16800001 1.926888e-38
0.030391743 -0.036763016 0.16800003 1.0697172e-38
0.031383187 -0.036505494 0.168 1.4199531e-38
0.0097516179 -0.027118944 0.16800001 1.9953882e-38
0.0097516179 -0.026488023 0.16800003 1.9308514e-38
0.00010754282 -0.025586709 0.16800003 1.8154978e-38
0.0097516179 -0.025631774 0.16800001 1.8944053e-38
0.00028780592 -0.024955789 0.16800001 1.6837959e-38
0.0097516179 -0.024820592 0.16800001 1.9498304e-38
0.010022013 -0.024279803 0.16800001 1.8851143e-38
0.00028780592 -0.023063026 0.16800001 1.5536779e-38
0.0013693844 -0.023063026 0.16800001 1.6086347e-38
0.010292407 -0.023603816 0.16800001 1.8941901e-38
0.00042300322 -0.022387041 0.16800001 1.5351666e-38
0.0014369831 -0.02231944 0.16800001 1.5719004e-38
0.0089404341 -0.019277502 0.16800001 1.7181526e-38
0.010022013 -0.019818291 0.16800001 1.7381039e-38
-0.00043324646 -0.018466318 0.16800003 1.3137891e-38
1.7411276e-05 -0.018195923 0.16800001 1.2677993e-38
0.0089404341 -0.018466318 0.16800003 1.6080218e-38
-0.00025298336 -0.017655134 0.16800001 1.2402485e-38
0.00010754282 -0.017745266 0.16800003 1.2494681e-38
0.002489591 -0.017461995 0.168 1.2495035e-38
0.0089404341 -0.017925529 0.16800001 1.5901949e-38
0.0092108287 -0.017925529 0.16800001 1.5164384e-38
0.0022481671 -0.01637076 0.16800001 1.15756e-38
0.0015045818 -0.015491977 0.16800001 1.185039e-38
0.0023968841 -0.015654216 0.16800001 1.185075e-38
0.0076425401 -0.015654216 0.16800001 1.507183e-38
0.0086024404 -0.015559576 0.16800001 1.4883122e-38
0.0094812233 -0.015491977 0.16800001 1.4607612e-38
0.010360006 -0.015559576 0.16800001 1.4055157e-38
0.011193722 -0.01558211 0.16800003 1.3871486e-38
0.0014294719 -0.014650749 0.168 1.1208258e-38
0.0021805684 -0.014545596 0.16800001 1.1300093e-38
0.0076425401 -0.014491516 0.168 1.3966201e-38
0.0086700395 -0.014545596 0.168 1.4058397e-38
0.0094812233 -0.014545597 0.168 1.4518654e-38
0.010267827 -0.014582469 0.168 1.479848e-38
0.011103591 -0.014815991 0.16800001 1.4708086e-38
0.024893718 -0.014140004 0.16800001 4.9802904e-39
0.007588461 -0.013464019 0.168 1.3045328e-38
0.0086700395 -0.013464019 0.168 1.2861295e-38
0.0094812233 -0.013464019 0.16800001 1.3230075e-38
0.010112144 -0.013509084 0.16800003 1.3230074e-38
0.024893718 -0.013464019 0.16800001 4.9795687e-39
0.025164112 -0.013599215 0.16800001 4.7969782e-39
0.035979897 -0.0081913229 0.16800001 1.3368721e-38
0.034087136 -0.0065689553 0.16800001 1.0970492e-38
-0.011068769 0.017766558 0.16800001 1.4752029e-38
-0.01052798 0.017766558 0.16800001 1.429177e-38
-0.0099871904 0.017766558 0.16800001 1.4107742e-38
-0.0072832438 0.017766558 0.16800001 1.4199937e-38
-0.0075874375 0.018341145 0.168 1.4936418e-38
-0.0094464011 0.023985634 0.16800001 1.3370896e-38
-0.0089056119 0.024256028 0.16800001 1.3646764e-38
-0.02053258 0.025743196 0.16800001 1.3001031e-38
-0.019991791 0.025878394 0.16800001 1.3276899e-38
-0.029455602 0.026959974 0.16800001 1.198904e-38
-0.028644418 0.026959976 0.16800003 1.2265627e-38
-0.027427642 0.026959974 0.16800001 1.2173431e-38
-0.026346065 0.026959974 0.16800001 1.3001753e-38
-0.025561919 0.026851818 0.16800001 1.2908839e-38
-0.024858894 0.026959974 0.16800001 1.2263829e-38
-0.020442449 0.026509317 0.16800003 1.3185424e-38
-0.019755198 0.026723376 0.168 1.3277621e-38
-0.029671919 0.027554844 0.16800001 1.1712455e-38
-0.028644418 0.027500764 0.168 1.2081237e-38
-0.027427642 0.027500764 0.168 1.2173431e-38
-0.026346065 0.027500764 0.16800001 1.2633331e-38
-0.025489815 0.027500764 0.168 1.2541135e-38
-0.024768762 0.027590895 0.16800003 1.2540775e-38
-0.019667316 0.027446683 0.16800001 1.3370896e-38
-0.018910212 0.027771158 0.16800001 1.3832227e-38
-0.029545734 0.028131684 0.16800003 1.1712455e-38
-0.028644418 0.028266884 0.168 1.1896845e-38
-0.027427644 0.028176751 0.168 1.2173431e-38
-0.026346065 0.028176749 0.16800001 1.244966e-38
-0.025433484 0.028345747 0.168 1.2357463e-38
-0.024723696 0.028402077 0.168 1.2541855e-38
-0.023506921 0.028852737 0.16800001 1.3002113e-38
-0.022425342 0.028852737 0.16800001 1.346417e-38
-0.019721396 0.028402081 0.168 1.3002115e-38
-0.018910212 0.028402081 0.16800003 1.3370893e-38
-0.0053904811 0.028311947 0.16800001 1.2910642e-38
-0.02873455 0.029573789 0.16800003 1.1804649e-38
-0.025129288 0.029123131 0.16800001 1.2450018e-38
-0.024385704 0.02919073 0.16800001 1.2726245e-38
-0.023777315 0.029123131 0.16800001 1.3094309e-38
-0.020262185 0.02966392 0.16800001 1.4107016e-38
-0.019721396 0.029393524 0.168 1.3646759e-38
-0.014313503 0.02966392 0.16800001 1.2633694e-38
-0.013502319 0.02966392 0.16800003 1.226563e-38
-0.012353144 0.029596321 0.16800001 1.2357827e-38
-0.011339162 0.029393528 0.168 1.2081243e-38
-0.01052798 0.029528722 0.16800001 1.2081962e-38
-0.0097167948 0.029528722 0.168 1.2081602e-38
-0.0086352173 0.029528722 0.168 1.2358188e-38
-0.0075085727 0.029573789 0.168 1.2358188e-38
-0.0063368627 0.02966392 0.16800001 1.254258e-38
-0.029455602 0.030475104 0.16800001 1.1896845e-38
-0.028914813 0.03020471 0.16800001 1.1528062e-38
-0.019721396 0.03020471 0.16800001 1.3831148e-38
-0.015232844 0.030529182 0.16800001 1.2633694e-38
-0.014550098 0.030508906 0.168 1.2541857e-38
-0.013592452 0.030520171 0.168 1.2081958e-38
-0.011285084 0.03031287 0.16800001 1.189721e-38
-0.01052798 0.030339906 0.16800001 1.1989406e-38
-0.0094464011 0.03020471 0.16800001 1.2173797e-38
-0.0086352173 0.030475106 0.168 1.2358188e-38
-0.0074184407 0.030475108 0.168 1.2265993e-38
-0.0063368627 0.030475104 0.168 1.2173797e-38
-0.0056270766 0.030508906 0.168 1.2173797e-38
-0.0044247857 0.030552361 0.168 1.2449665e-38
-0.0035315179 0.030508906 0.168 1.2541861e-38
-0.0024702193 0.030637342 0.16800001 1.2265274e-38
-0.0014697592 0.030745499 0.16800001 1.2910999e-38
0.0029917522 0.030745499 0.16800001 1.1989406e-38
0.0037128043 0.030655367 0.16800003 1.1989407e-38
0.0044789226 0.030508906 0.168 1.1989406e-38
0.0055154352 0.030475106 0.168 1.189721e-38
0.0064682546 0.030552361 0.168 1.2081602e-38
0.0073180664 0.030745499 0.16800001 1.1805735e-38
-0.018459553 0.031736944 0.16800003 1.2633329e-38
-0.017423043 0.031691879 0.168 1.2818442e-38
-0.016314423 0.031556681 0.16800001 1.2910278e-38
-0.015485214 0.031466555 0.168 1.2357824e-38
-0.014493767 0.031466551 0.168 1.2358544e-38
-0.013231925 0.031466555 0.16800003 1.2174153e-38
-0.012691136 0.031286288 0.16800001 1.2358544e-38
-0.0074184407 0.031015893 0.16800001 1.2081602e-38
-0.0063368627 0.031015893 0.16800001 1.1805015e-38
-0.0055707446 0.031015893 0.16800003 1.1989406e-38
-0.0044247857 0.031363543 0.168 1.1805015e-38
-0.0034977188 0.031466551 0.168 1.2450025e-38
-0.0024161404 0.031466555 0.168 1.2265274e-38
-0.0013345618 0.031466551 0.168 1.2634055e-38
-0.00057745696 0.031556681 0.16800001 1.2450024e-38
1.7411276e-05 0.031827077 0.16800001 1.2541861e-38
0.0015721804 0.031489085 0.16800001 1.235747e-38
0.0025861606 0.031466551 0.168 1.2081602e-38
0.003667739 0.031466551 0.168 1.2173799e-38
0.0044338568 0.031466551 0.168 1.1989407e-38
0.0055154352 0.031466551 0.168 1.1989406e-38
0.0065068826 0.031466551 0.168 1.1989766e-38
0.0073180664 0.031466551 0.16800003 1.1713539e-38
-0.018842615 0.032435466 0.16800001 1.2081596e-38
-0.015259884 0.032097474 0.16800001 1.1989759e-38
-0.014493766 0.03236787 0.168 1.2265986e-38
-0.013556398 0.03231379 0.16800001 1.217379e-38
-0.004624363 0.032412935 0.168 1.1252201e-38
-0.0034301202 0.032232672 0.16800001 1.2818446e-38
-0.0023823408 0.032503061 0.168 1.2725891e-38
-0.0013683612 0.032503065 0.168 1.2173436e-38
-0.00052337802 0.03236787 0.16800001 1.235783e-38
0.000233727 0.03242195 0.16800001 1.235783e-38
0.0014031837 0.032604463 0.168 1.2173437e-38
0.0025861606 0.032548126 0.168 1.2081602e-38
0.003667739 0.03254813 0.168 1.2173797e-38
0.0043823533 0.032445125 0.168 1.1989406e-38
0.0055154352 0.03254813 0.168 1.1989406e-38
0.006473083 0.032503065 0.168 1.1989766e-38
0.0073180664 0.032097474 0.16800001 1.1713539e-38
-0.019451002 0.033449445 0.16800001 1.1436588e-38
-0.018910212 0.033179052 0.16800001 1.1989762e-38
-0.0048496919 0.033179052 0.16800001 1.1160366e-38
0.0028565549 0.033179052 0.16800001 1.2081602e-38
0.0036677388 0.033314247 0.16800001 1.2081602e-38
0.0041634622 0.033539575 0.16800003 1.2081602e-38
-0.020262185 0.034666222 0.16800001 1.2542214e-38
0.0048845145 0.034395829 0.16800001 1.2081602e-38
0.0055154352 0.034531023 0.16800003 1.2081602e-38
0.006236488 0.034531023 0.16800001 1.1897931e-38
0.016673723 0.035666682 0.16800001 1.0514996e-38
0.017728262 0.035747796 0.16800001 1.0238409e-38
0.01858451 0.035792861 0.16800003 1.0238409e-38
0.0077236583 0.03669418 0.16800001 1.2266349e-38
0.0086700395 0.036604047 0.16800003 1.1806092e-38
0.011373986 0.036964573 0.16800003 1.1160366e-38
0.016511485 0.036491383 0.16800001 1.0422801e-38
0.017390266 0.036626577 0.16800001 1.0330605e-38
0.018945036 0.036558982 0.16800001 1.0238409e-38
0.03156345 0.03687444 0.16800003 9.1320519e-39
0.032374635 0.036739245 0.168 8.1168168e-39
0.017457865 0.037505366 0.16800001 1.0331321e-38
0.031653583 0.037234969 0.16800001 9.0402164e-39
0.032284502 0.037415233 0.16800003 8.3022884e-39
0.018945036 0.039398126 0.16800001 9.7785101e-39
0.024893718 0.040479705 0.16800003 8.8572727e-39
0.025164112 0.040750097 0.16800001 8.6728814e-39
0.036791082 0.040750097 0.16800001 7.6583638e-39
0.037331872 0.040479705 0.16800001 8.0260673e-39
0.024893718 0.04147115 0.16800003 8.5814061e-39
0.025299311 0.04147115 0.168 8.489209e-39
0.035439111 0.041155692 0.16800001 8.027505e-39
0.036250293 0.041020494 0.16800001 7.3824957e-39
-0.0037681134 0.042642862 0.16800001 9.0409451e-39
0.02475852 0.042575262 0.16800001 8.2133438e-39
0.025299311 0.042552728 0.168 8.2133438e-39
0.03138319 0.042913254 0.16800001 8.1193447e-39
-0.0051200865 0.043994833 0.16800001 8.6728814e-39
0.024893718 0.043454044 0.16800001 7.8449214e-39
0.025344377 0.04336391 0.16800003 7.9371171e-39
-0.0051200865 0.044535622 0.16800003 8.5803257e-39
-0.0048496919 0.045346808 0.16800001 8.4884902e-39
0.034426037 -0.038296532 0.16900001 1.8715696e-38
0.03517697 -0.03838633 0.17 1.9176684e-38
0.010141322 -0.026210528 0.17 1.9125925e-38
-0.00025448922 -0.025104335 0.16900001 1.8052342e-38
0.010141322 -0.025526494 0.17 1.8670344e-38
0.010282888 -0.024609305 0.16933334 1.9128088e-38
0.00056152319 -0.023550024 0.16900001 1.5628975e-38
0.0011055314 -0.023472311 0.16900001 1.5808325e-38
0.0008335273 -0.022656297 0.16900001 1.5626448e-38
0.0015135376 -0.022656297 0.16900001 1.5994512e-38
-0.00071097934 -0.021470418 0.16966666 1.4706299e-38
-0.0010768359 -0.020054223 0.17 1.415312e-38
-0.00052649336 -0.020480266 0.16900001 1.4060924e-38
0.009667024 -0.019559951 0.16966666 1.7555354e-38
0.010247497 -0.019858435 0.16950001 1.7473235e-38
-0.00079849747 -0.018576236 0.16900001 1.3323359e-38
0.0095570078 -0.018522209 0.16933334 1.5619963e-38
0.0090468684 -0.017591702 0.17 1.6181777e-38
0.0026571508 -0.01528085 0.16966666 1.1575601e-38
0.0031455625 -0.015312187 0.16900001 1.1483405e-38
0.0046690502 -0.015265985 0.17 1.2309926e-38
0.0053873858 -0.015281923 0.16966666 1.2493953e-38
0.0063824118 -0.015257786 0.16900001 1.2585069e-38
0.0070896223 -0.015312187 0.16900001 1.3137523e-38
0.002616948 -0.014718759 0.17 1.1300453e-38
0.0036087977 -0.014616152 0.16999999 1.1116062e-38
0.004574615 -0.014572601 0.16988888 1.1484124e-38
0.0055935993 -0.014496175 0.16900001 1.2033697e-38
0.006454946 -0.014496176 0.16900001 1.212589e-38
0.0070896223 -0.01476818 0.16900001 1.2586148e-38
0.0048320759 -0.013616477 0.16933334 1.1300093e-38
0.0055935993 -0.013544161 0.16900001 1.1391567e-38
0.006454946 -0.013544161 0.16900001 1.1850383e-38
0.0040975767 -0.012048138 0.16900001 1.093275e-38
-0.0076093609 0.016575795 0.16999999 1.4383247e-38
-0.0068227216 0.016518792 0.17 1.4383247e-38
-0.012294994 0.017978065 0.17 1.4292133e-38
-0.011678662 0.017872311 0.16900001 1.4475445e-38
-0.0097746337 0.017872311 0.16900001 1.4107742e-38
-0.0084400447 0.0174697 0.16950001 1.392263e-38
-0.0075134593 0.017400149 0.16937502 1.4014826e-38
-0.0068227216 0.017522041 0.17 1.4107023e-38
-0.012464043 0.018538404 0.16950001 1.4384687e-38
-0.011950666 0.018144315 0.16900001 1.4292133e-38
-0.0084146131 0.018280316 0.16900001 1.4568717e-38
-0.007122593 0.018620322 0.16900001 1.4936418e-38
-0.0068227216 0.018251678 0.17 1.4752029e-38
-0.012532446 0.019152425 0.16950001 1.4844944e-38
-0.02406038 0.022903109 0.17 1.2817e-38
-0.023513153 0.022903109 0.17 1.2632609e-38
-0.023786766 0.023176722 0.17 1.2724805e-38
-0.010106085 0.023723949 0.17 1.3001391e-38
-0.0095588583 0.023587141 0.17 1.3369092e-38
-0.0012136428 0.02331353 0.17 1.2909199e-38
-0.023431089 0.024570314 0.16980001 1.3093227e-38
-0.022581344 0.024424205 0.16916668 1.3185424e-38
-0.012294994 0.024818404 0.17 1.3739678e-38
-0.01141943 0.02470896 0.17 1.3463091e-38
-0.010470903 0.02454479 0.16999999 1.3094307e-38
-0.0096318563 0.024678536 0.16966666 1.3555287e-38
-0.0087203467 0.02476974 0.16966666 1.3738959e-38
-0.0078487732 0.024613194 0.17 1.3555646e-38
-0.0060018809 0.024818404 0.17 1.2910997e-38
-0.0053178463 0.024681598 0.17 1.2173431e-38
-0.0046338127 0.024750002 0.17 1.1988681e-38
-0.0036305627 0.024727201 0.17 1.1526623e-38
-0.0026364336 0.024599513 0.16999999 1.3001036e-38
-0.0013504494 0.024681598 0.17 1.3554931e-38
-0.00052960869 0.024818404 0.17 1.3094312e-38
0.00015442536 0.024818404 0.17 1.290992e-38
-0.023374841 0.025760429 0.16900001 1.2909915e-38
-0.022377491 0.025760429 0.16900001 1.2356742e-38
-0.013498893 0.025803411 0.17 1.364712e-38
-0.012568608 0.025639243 0.16999999 1.3647483e-38
-0.011474153 0.02563924 0.16999999 1.3739678e-38
-0.010470903 0.025639243 0.16999999 1.32787e-38
-0.0093764495 0.025639242 0.16999999 1.3463451e-38
-0.0086012101 0.025639243 0.17 1.3186867e-38
-0.0076435623 0.02563924 0.16999999 1.3095391e-38
-0.0063438979 0.025741845 0.16999999 1.2818804e-38
-0.0053178463 0.025639242 0.17 1.1620259e-38
-0.0045426078 0.025639243 0.16999999 1.2910279e-38
-0.0036761649 0.025639245 0.17 1.3279782e-38
-0.0025817109 0.025639242 0.16999997 1.3002116e-38
-0.0013504496 0.025639243 0.16999999 1.3186507e-38
-0.00052960863 0.025639243 0.17 1.290992e-38
0.00038243673 0.025639243 0.16999999 1.2817725e-38
0.0013309639 0.025803411 0.17 1.2541498e-38
-0.028361581 0.026757777 0.16900001 1.2542214e-38
-0.027545568 0.026485777 0.16900001 1.2357823e-38
-0.026820226 0.026757777 0.16900001 1.2725523e-38
-0.024190852 0.026848445 0.16900001 1.2909196e-38
-0.023374841 0.026485775 0.16900001 1.2817362e-38
-0.022377491 0.026485775 0.16900001 1.1895768e-38
-0.021470809 0.026485777 0.16900001 1.1434792e-38
-0.020926803 0.026848445 0.16900001 1.2817003e-38
-0.019158777 0.026848445 0.16900001 1.2171634e-38
-0.018342763 0.026848445 0.16900001 1.2817366e-38
-0.016302733 0.026848445 0.16900001 1.3278343e-38
-0.015431936 0.026779598 0.16960001 1.3370178e-38
-0.014483904 0.026460087 0.17 1.3185784e-38
-0.013571858 0.026460087 0.17 1.3462372e-38
-0.012568608 0.026460083 0.17 1.3555287e-38
-0.011425653 0.026515564 0.16985714 1.3371616e-38
-0.010526868 0.026515564 0.16985714 1.3187223e-38
-0.0093764486 0.026460083 0.17 1.3002835e-38
-0.0086012101 0.026460085 0.17 1.2910999e-38
-0.0076435623 0.026460083 0.17 1.3003196e-38
-0.0064123007 0.026460085 0.16999999 1.2911001e-38
-0.0053178463 0.026460085 0.17 1.2541857e-38
-0.0045426083 0.026460083 0.17 1.4015902e-38
