# .PCD v0.7 - Point Cloud Data file format
VERSION 0.7
FIELDS x y z rgb
SIZE 4 4 4 4
TYPE F F F F
COUNT 1 1 1 1
WIDTH 990
HEIGHT 1
VIEWPOINT 0 0 0 1 0 0 0
POINTS 990
DATA ascii
-0.026507845 0.03846626 0.16000001 1.0606467e-38
-0.025649449 0.03846626 0.16000001 1.0698662e-38
-0.024705213 0.038466264 0.16000001 1.0789777e-38
-0.023546377 0.03846626 0.16 1.0513909e-38
-0.022387542 0.03846626 0.16000001 1.0238042e-38
-0.021614987 0.038680859 0.16000001 1.0237322e-38
-0.0092540905 0.038809616 0.16000001 8.5799669e-39
-0.0083527751 0.03829458 0.16000001 8.8561937e-39
-0.0075158393 0.038165823 0.16000001 8.8554748e-39
-0.0069364221 0.038466256 0.16000001 8.5792481e-39
-0.036036037 0.039453417 0.16000001 1.0145845e-38
-0.032430772 0.039582174 0.16000001 1.0606826e-38
-0.031143179 0.039067138 0.16000001 1.0513907e-38
-0.027248209 0.039356843 0.16000001 1.1159638e-38
-0.026507845 0.039410498 0.16000001 1.0238044e-38
-0.025649449 0.039410494 0.16000001 9.8696225e-39
-0.024705211 0.039410491 0.16000001 1.0513909e-38
-0.023546381 0.039410498 0.16 1.0604665e-38
-0.022387544 0.039410491 0.16000001 1.0789415e-38
-0.021431046 0.039471809 0.16000001 1.0512828e-38
-0.018267244 0.039839692 0.16000001 9.2246133e-39
-0.017623449 0.039839692 0.16000001 9.040222e-39
-0.016207095 0.039839692 0.16000001 9.041301e-39
-0.0155633 0.039839692 0.16000001 9.041301e-39
-0.0094472291 0.039517798 0.16000001 8.4877713e-39
-0.0082240161 0.039839692 0.16000001 8.5799669e-39
-0.0076231384 0.039668012 0.16000001 8.4877713e-39
-0.0069364225 0.039324656 0.16000001 8.3955757e-39
-0.039126258 0.040354729 0.16000001 1.0883412e-38
-0.038353704 0.040097211 0.16000001 1.1527336e-38
-0.036036037 0.040225968 0.16000001 1.0053648e-38
-0.035778515 0.040354729 0.16000001 1.0145844e-38
-0.032173254 0.040097211 0.16000001 1.0883412e-38
-0.027151641 0.040225968 0.16000001 1.1343309e-38
-0.026507845 0.040354729 0.16000001 1.0883051e-38
-0.025649449 0.040354729 0.16000001 1.0238764e-38
-0.024705213 0.040354732 0.16000001 9.2256923e-39
-0.023546381 0.040354729 0.16 9.7781416e-39
-0.022387544 0.040354729 0.16000001 1.0513909e-38
-0.021357469 0.040354729 0.16000001 1.0421712e-38
-0.020456156 0.040386919 0.16000001 9.5926727e-39
-0.019334108 0.040428307 0.16000001 9.2246133e-39
-0.018438924 0.040354729 0.16000001 9.2246133e-39
-0.01749469 0.040354729 0.16000001 9.0409423e-39
-0.016464615 0.040354729 0.16000001 9.1331365e-39
-0.01543454 0.040354729 0.16000001 9.4086444e-39
-0.014713487 0.040406235 0.16000001 9.3168089e-39
-0.010026647 0.040612247 0.16000001 8.4877713e-39
-0.0093828496 0.040354729 0.16000001 8.3955757e-39
-0.0086102942 0.040322538 0.16000001 8.3955757e-39
-0.039512537 0.041384805 0.16000001 1.1067081e-38
-0.038096186 0.041256048 0.16000001 1.1066359e-38
-0.026250325 0.041384805 0.16000001 9.777064e-39
-0.025703097 0.041352615 0.16000001 1.0053292e-38
-0.024705211 0.041384809 0.16000001 1.0516431e-38
-0.023546381 0.041384805 0.16 9.501919e-39
-0.022387544 0.041384809 0.16000001 1.0329879e-38
-0.021357467 0.041384805 0.16000001 9.6841495e-39
-0.020413235 0.041384805 0.16000001 9.5926727e-39
-0.019383157 0.041384805 0.16000001 9.4082843e-39
-0.018438924 0.041384809 0.16000001 9.1324176e-39
-0.017494688 0.041384809 0.16000001 9.4090045e-39
-0.016464613 0.041384805 0.16000001 9.3178879e-39
-0.01543454 0.041384809 0.16000001 9.4090045e-39
-0.014490303 0.041384805 0.16000001 9.1324176e-39
-0.013546069 0.041642323 0.16000001 8.6725185e-39
-0.010181159 0.041487809 0.16000001 8.2111844e-39
-0.0093828496 0.041127287 0.16000001 8.3955757e-39
-0.0086102951 0.041320425 0.16000001 8.2111844e-39
-0.026250325 0.042157359 0.16000001 9.5004771e-39
-0.025992807 0.04228612 0.16000001 9.3160872e-39
-0.024447694 0.042414881 0.16000001 1.0514991e-38
-0.023558082 0.042391464 0.16 9.9621769e-39
-0.022387544 0.042543638 0.16 9.5015589e-39
-0.02133406 0.04250852 0.16 9.1313358e-39
-0.020413233 0.042543638 0.16 9.3160872e-39
-0.019383159 0.042543638 0.16 8.948025e-39
-0.018438924 0.042543635 0.16 8.8558293e-39
-0.017494692 0.042543638 0.16 8.6714395e-39
-0.016464615 0.042543635 0.16 8.9476662e-39
-0.01543454 0.042543638 0.16 9.0398605e-39
-0.014490304 0.042543638 0.16 8.8558293e-39
-0.013546068 0.042543638 0.16 8.6717968e-39
-0.012666214 0.042640205 0.16000001 8.2111788e-39
-0.011829278 0.042929918 0.16000001 7.6583638e-39
-0.010312779 0.042500716 0.16000001 8.0271491e-39
-0.0084815351 0.042543635 0.16000001 7.9349534e-39
-0.020413235 0.04344495 0.16000001 9.4082815e-39
-0.01929732 0.043547962 0.16000001 8.6714367e-39
-0.018438926 0.043702468 0.16000001 8.5792411e-39
-0.01749469 0.043702476 0.16000001 8.8554678e-39
-0.016464613 0.043702476 0.16000001 9.591951e-39
-0.01543454 0.043702472 0.16000001 1.005185e-38
-0.014490303 0.043702476 0.16000001 1.005185e-38
-0.013546068 0.043702472 0.16000001 9.4990351e-39
-0.012515994 0.043702476 0.16000001 8.3012136e-39
-0.01157176 0.043702468 0.16000001 7.8409571e-39
-0.010361421 0.043753982 0.16 8.2108201e-39
-0.0093828496 0.043702472 0.16000001 8.0264288e-39
-0.0086654769 0.043739259 0.16000001 8.0260701e-39
-0.0078377379 0.04395999 0.16000001 7.6572876e-39
0.020360559 0.043702472 0.16000001 6.552019e-39
-0.037709907 0.044732548 0.16000001 9.2246105e-39
-0.01537016 0.044346265 0.16000001 1.0051849e-38
-0.014490304 0.044475023 0.16000001 9.4068395e-39
-0.013484755 0.044548601 0.16000001 8.3937694e-39
-0.012569644 0.044603787 0.16000001 7.6565659e-39
-0.011571758 0.04447503 0.16000001 7.7487601e-39
-0.010412925 0.044646706 0.16 8.4866853e-39
-0.0093828496 0.044646706 0.16000001 8.2100984e-39
-0.0085673742 0.044646703 0.16000001 8.1175454e-39
-0.0076231384 0.044646706 0.16000001 7.9335143e-39
-0.006715693 0.044769336 0.16000001 8.3026542e-39
-0.0059063477 0.044990066 0.16000001 8.4870482e-39
-0.0020435674 0.044990066 0.16000001 7.287782e-39
-0.001356851 0.044990066 0.16000001 7.2881449e-39
-0.00075597392 0.044990066 0.16000001 7.6572876e-39
-0.037838668 0.045505103 0.16000001 9.0394989e-39
-0.036036037 0.045762621 0.16000001 9.8685379e-39
-0.035778515 0.045762621 0.16000001 9.591951e-39
-0.010026647 0.045247585 0.16000001 8.6699976e-39
-0.0093828496 0.045505106 0.16000001 8.2093781e-39
-0.0085673742 0.045505106 0.16000001 8.0253484e-39
-0.0076231384 0.045505106 0.16000001 8.3022954e-39
-0.0066789039 0.045505106 0.16000001 9.0402206e-39
-0.005648829 0.045505106 0.16000001 9.040222e-39
-0.0044899951 0.045505106 0.16000001 8.302294e-39
-0.0033955404 0.04563386 0.16000001 7.8409557e-39
-0.0023010862 0.045556612 0.16000001 7.287782e-39
-0.0013568508 0.045505106 0.16000001 7.1037522e-39
-0.00062721455 0.045505103 0.16000001 7.3806993e-39
0.00020972117 0.04563386 0.16000001 7.3806979e-39
-0.037581146 0.046020139 0.16000001 9.4075626e-39
-0.036036037 0.046277657 0.16000001 9.4997554e-39
-0.035606835 0.046277657 0.16000001 9.3157243e-39
-0.0092540905 0.046020139 0.16000001 8.2090194e-39
-0.008444747 0.04624087 0.16000001 7.9331514e-39
-0.0076231384 0.046277665 0.16000001 8.1175454e-39
-0.0066789044 0.046277661 0.16000001 8.9473061e-39
-0.005648829 0.046277661 0.16000001 8.9480264e-39
-0.0044899946 0.046277668 0.16 8.3015752e-39
-0.0033311606 0.046277661 0.16000001 7.9327912e-39
-0.0023869257 0.046277661 0.16000001 7.287782e-39
-0.0013568508 0.046277665 0.16000001 7.0115552e-39
-0.00062721455 0.046277661 0.16000001 7.104111e-39
0.0004028602 0.046277661 0.16 7.1963066e-39
0.001432935 0.046535179 0.16000001 7.288505e-39
0.0027205287 0.046406418 0.16000001 7.0119181e-39
0.0034287048 0.046470799 0.16000001 6.8275269e-39
0.0044802395 0.046535179 0.16000001 6.7353313e-39
0.0051669562 0.046535179 0.16000001 6.7353313e-39
-0.037838668 0.04782277 0.16000001 9.8692596e-39
-0.035649754 0.047500871 0.16000001 9.4079199e-39
-0.032259095 0.047565252 0.16000001 9.593393e-39
-0.0082240161 0.047050215 0.16000001 8.025347e-39
-0.0075158393 0.047307733 0.16000001 7.8416788e-39
-0.0066789039 0.047436494 0.16 7.8416788e-39
-0.005648829 0.047436491 0.16 7.7494832e-39
-0.0045157461 0.047410734 0.16000001 7.7491231e-39
-0.0033311611 0.047436491 0.16 8.0257099e-39
-0.0023869257 0.047436494 0.16 7.3803405e-39
-0.0013568508 0.047436491 0.16 7.0119181e-39
-0.00062721461 0.047436494 0.16000001 7.0119181e-39
0.00040286017 0.047436487 0.16000001 7.1041138e-39
0.0015616944 0.047436491 0.16 7.1041138e-39
0.0025917694 0.047436494 0.16 6.9197225e-39
0.0035360039 0.047436494 0.16 6.7353313e-39
0.0044802399 0.047436494 0.16 6.6434944e-39
0.0054712961 0.047471609 0.16 6.6431356e-39
0.00642236 0.047597442 0.16000001 6.55094e-39
0.0075361282 0.047771268 0.16000001 6.6431356e-39
-0.0064213853 0.04833781 0.16000001 7.7494832e-39
-0.0055973255 0.048440821 0.16000001 7.288505e-39
-0.0046831341 0.04840219 0.16000001 7.3807007e-39
-0.0033311609 0.048337806 0.16000001 7.7494832e-39
-0.0024555973 0.048440814 0.16000001 7.3807007e-39
-0.0012195075 0.04849232 0.16000001 7.1037564e-39
-0.00062721455 0.048466571 0.16000001 7.1041152e-39
0.00040286014 0.048595328 0.16 7.0119181e-39
0.0015616943 0.048595328 0.16000001 7.1041138e-39
0.0025917692 0.048595328 0.16000001 6.6438545e-39
0.0034930846 0.048563138 0.16000001 6.4598234e-39
0.0044802395 0.048466567 0.16000001 6.4598234e-39
0.0055716285 0.04852175 0.16000001 6.5513001e-39
0.0064545497 0.048595328 0.16000001 6.55094e-39
0.0076133832 0.048595328 0.16 6.55094e-39
0.0086434586 0.048595328 0.16000001 6.55094e-39
0.0094589349 0.048595335 0.16000001 6.458743e-39
0.01040317 0.048595332 0.16000001 6.3669061e-39
0.011379594 0.048627518 0.16000001 6.1832351e-39
0.012377479 0.048724085 0.16000001 6.1832365e-39
0.013536314 0.048852846 0.16000001 6.2754321e-39
0.014437629 0.048852846 0.16000001 6.3676277e-39
0.00045804278 0.049478244 0.16000001 6.9200827e-39
0.0015616943 0.0496254 0.16000001 6.7360501e-39
0.0025181924 0.049588613 0.16000001 6.5516589e-39
0.0031068064 0.049367882 0.16000001 6.6431356e-39
0.005939512 0.049367882 0.16000001 6.6431356e-39
0.0064867395 0.04959321 0.16000001 6.55094e-39
0.0076133837 0.0496254 0.16 6.3669089e-39
0.0086434586 0.0496254 0.16000001 6.3672676e-39
0.0094589358 0.049625397 0.16000001 6.3672676e-39
0.01040317 0.049625397 0.16000001 6.2747132e-39
0.011433244 0.0496254 0.16000001 6.0910409e-39
0.01237748 0.0496254 0.16000001 6.1832365e-39
0.013536313 0.0496254 0.16 6.2754321e-39
0.014662958 0.049657591 0.16000001 6.1832365e-39
0.015467704 0.049882919 0.16000001 6.1832365e-39
0.026712686 0.049711239 0.16000001 5.9066482e-39
0.0076133832 0.050569639 0.16 6.2750734e-39
0.0086434586 0.050569639 0.16000001 6.2754321e-39
0.0094589349 0.050569639 0.16000001 6.2754321e-39
0.010403169 0.050569642 0.16000001 6.275072e-39
0.011433244 0.050569639 0.16000001 6.0906821e-39
0.01237748 0.050569639 0.16000001 6.2754321e-39
0.013536314 0.050569639 0.16 6.2754321e-39
0.014695148 0.050569639 0.16000001 6.1832365e-39
0.015693033 0.05062329 0.16000001 6.1832365e-39
0.01641194 0.050827157 0.16000001 6.2750692e-39
0.018557929 0.050912995 0.16000001 6.4587416e-39
0.019459244 0.050912995 0.16000001 6.4587416e-39
0.020618077 0.050784234 0.16000001 6.3665459e-39
0.021493642 0.050809987 0.16000001 6.0895989e-39
0.025510931 0.050741315 0.16000001 5.9970432e-39
0.0265732 0.05062329 0.16000001 5.9055678e-39
0.027485244 0.05031212 0.16000001 5.813012e-39
0.007709953 0.051363647 0.16000001 6.4594632e-39
0.0086434586 0.051513869 0.16000001 6.3676291e-39
0.009458934 0.051513866 0.16000001 6.3679879e-39
0.01040317 0.051513869 0.16000001 6.3676291e-39
0.011433244 0.051513866 0.16000001 6.2754335e-39
0.01237748 0.051513866 0.16000001 6.3676291e-39
0.013536314 0.051513866 0.16 6.2757936e-39
0.014695148 0.051513869 0.16000001 6.1835966e-39
0.015725221 0.051513866 0.16000001 6.1832365e-39
0.01649778 0.051513869 0.16000001 6.275072e-39
0.017270334 0.051513869 0.16000001 6.0910394e-39
0.01830041 0.051513869 0.16000001 6.2750692e-39
0.019459244 0.051513869 0.16 6.3669061e-39
0.020618079 0.051513869 0.16000001 6.2743503e-39
0.021562314 0.051513869 0.16000001 6.0896003e-39
0.02216319 0.051513869 0.16000001 6.0896003e-39
0.024609618 0.051685553 0.16000001 5.6286208e-39
0.025478743 0.051556788 0.16000001 5.8126519e-39
0.02628349 0.051685549 0.16000001 5.9970432e-39
0.0086434586 0.052543942 0.16000001 6.6438587e-39
0.0094589358 0.052543946 0.16000001 6.5520218e-39
0.01040317 0.052543949 0.16000001 6.5520232e-39
0.011433244 0.052543949 0.16000001 6.2761566e-39
0.01237748 0.052543946 0.16000001 6.2761552e-39
0.013536313 0.052543949 0.16 6.1835994e-39
0.014695148 0.052543953 0.16000001 6.275795e-39
0.015725223 0.052543949 0.16000001 6.1828791e-39
0.01649778 0.052543942 0.16000001 6.2757908e-39
0.017270334 0.052543946 0.16000001 6.276151e-39
0.01830041 0.052543946 0.16000001 6.276151e-39
0.019459244 0.052543949 0.16 6.3676277e-39
0.020618079 0.052543946 0.16000001 6.3672676e-39
0.021562312 0.052543946 0.16000001 6.275072e-39
0.02216319 0.052543942 0.16000001 6.6431356e-39
0.024566697 0.052672703 0.16000001 5.9066524e-39
0.025510933 0.052543949 0.16000001 5.7218996e-39
0.026347868 0.052651245 0.16000001 5.9977662e-39
0.0079996614 0.053745698 0.16000001 6.4601863e-39
0.0086005395 0.0533165 0.16000001 6.5520218e-39
0.0094711976 0.053414602 0.16000001 6.4598276e-39
0.010464484 0.053414602 0.16000001 6.4601863e-39
0.011433244 0.053359419 0.16000001 6.1846784e-39
0.012377479 0.053359419 0.16000001 6.1839596e-39
0.013536314 0.05348818 0.16 6.1832407e-39
0.014695148 0.053488176 0.16000001 6.3676305e-39
0.015693033 0.053455986 0.16000001 6.1828806e-39
0.016549284 0.053436674 0.16000001 6.3676277e-39
0.017270334 0.053488176 0.16000001 6.4598234e-39
0.01830041 0.053488176 0.16000001 6.5523777e-39
0.01940774 0.053436678 0.16 6.6442132e-39
0.020650269 0.053455994 0.16000001 6.459822e-39
0.021562314 0.053488176 0.16000001 6.459822e-39
0.022549469 0.053520367 0.16000001 6.5513001e-39
0.023597937 0.053561755 0.16000001 6.4591059e-39
0.024480859 0.053488176 0.16000001 6.4598248e-39
0.025510933 0.05348818 0.16000001 5.9070125e-39
0.02654101 0.053488176 0.16000001 5.9062923e-39
0.027056046 0.053745698 0.16000001 5.8148169e-39
0.0015616943 0.054775771 0.16000001 6.3665459e-39
0.0023342504 0.054647014 0.16000001 6.1821547e-39
0.0076133842 0.054647014 0.16000001 6.6445776e-39
0.009802293 0.054518253 0.16000001 6.3679907e-39
0.015467704 0.054260734 0.16000001 6.3676277e-39
0.017270336 0.054260734 0.16000001 6.552019e-39
0.018300408 0.054260734 0.16000001 6.6442146e-39
0.019072965 0.054260734 0.16000001 7.0119181e-39
0.020875597 0.054260734 0.16000001 6.8275269e-39
0.021562314 0.054518253 0.16000001 6.8275269e-39
0.022420708 0.054415245 0.16000001 6.7353313e-39
0.023536623 0.054260734 0.16000001 6.55094e-39
0.024566697 0.054432411 0.16000001 6.4587444e-39
0.025478743 0.054486062 0.16000001 6.1832379e-39
0.026541008 0.054389492 0.16000001 6.0914038e-39
0.027416572 0.054363739 0.16000001 6.0910451e-39
0.02808612 0.054260734 0.16000001 6.0899619e-39
0.00078913826 0.055805847 0.16000001 6.4587416e-39
0.0013041756 0.055805847 0.16000001 6.3665459e-39
0.0024372577 0.05549683 0.16000001 6.2743503e-39
0.0075168139 0.055516146 0.16000001 6.8286059e-39
0.009544774 0.055677086 0.16000001 6.276874e-39
0.020875597 0.055290811 0.16000001 6.6442146e-39
0.021615963 0.055516139 0.16000001 6.6438545e-39
0.02216319 0.055419572 0.16000001 6.6438545e-39
-0.0028161234 0.05683592 0.16000001 6.3665459e-39
0.00078913826 0.05683592 0.16000001 6.1832337e-39
0.0014758548 0.056363802 0.16000001 6.091038e-39
0.0023342504 0.056063365 0.16000001 6.1821547e-39
0.0076133837 0.056063365 0.16000001 6.6442146e-39
0.009544774 0.056492563 0.16000001 6.2761524e-39
0.021648152 0.056063365 0.16000001 6.3676277e-39
0.00027410086 0.057436798 0.16000001 6.3661858e-39
0.0013041756 0.057222199 0.16000001 6.1821547e-39
0.0075275437 0.057436798 0.16000001 5.9062881e-39
0.009544774 0.057093438 0.16000001 6.3665459e-39
-0.0035886795 0.058123514 0.16000001 5.9977634e-39
-0.0028161234 0.058896068 0.16000001 5.905565e-39
-0.00062721455 0.058896068 0.16000001 5.8133694e-39
0.00014534152 0.058466867 0.16000001 6.0892388e-39
-0.00058429479 0.059239428 0.16000001 5.9052049e-39
1.6582168e-05 0.05915359 0.16000001 5.8133694e-39
0.0025917692 0.063788928 0.16000001 4.6137402e-39
0.0028492878 0.064046443 0.16000001 4.3371533e-39
0.003364325 0.064175203 0.16000001 4.3367931e-39
0.0049094371 0.064303964 0.16000001 4.4282699e-39
-0.012086797 0.065591559 0.16000001 5.1658377e-39
-0.011829278 0.065334037 0.16000001 5.4424246e-39
0.014823907 0.065334037 0.16000001 4.1498851e-39
0.030783836 -0.042576883 0.162 1.5305179e-38
0.031044573 -0.042576883 0.162 1.4291378e-38
0.0086211329 -0.037101392 0.162 2.0463826e-38
0.0083603952 -0.036058441 0.162 2.0740415e-38
0.00070933835 -0.033400316 0.16133334 2.0740415e-38
0.0014508466 -0.033451065 0.162 2.0740415e-38
-0.00024244239 -0.032208066 0.16100001 2.0556024e-38
0.00050255115 -0.032596756 0.16100001 2.0556383e-38
0.0014495383 -0.032446004 0.16179998 2.0463828e-38
0.0005349422 -0.031884156 0.16100001 2.0371633e-38
0.0013182972 -0.031502526 0.16166666 2.0095046e-38
0.0020897114 -0.031689808 0.16100001 2.000285e-38
0.0071957251 -0.031443518 0.16160001 2.1799235e-38
-0.0030928524 -0.030523732 0.16100001 2.018796e-38
0.0017058994 -0.030618928 0.16150001 1.953719e-38
0.0020897114 -0.030394169 0.16100001 1.8979338e-38
0.0072012241 -0.030630117 0.16133334 2.1521565e-38
-0.0024882196 -0.029573597 0.16100001 2.0095765e-38
-0.0015400691 -0.029435836 0.16125001 1.9726982e-38
0.0018305832 -0.029746348 0.16100001 1.960671e-38
0.0020897114 -0.029875912 0.16100001 1.8688714e-38
0.031826787 -0.029279262 0.162 8.2986114e-39
-0.0024494319 -0.028299935 0.16125001 1.9082692e-38
-0.0016935602 -0.028321141 0.16100001 1.8989417e-38
0.0013939694 -0.028365111 0.16140001 1.8668911e-38
0.0020897114 -0.028321143 0.16100001 1.9774896e-38
0.031826787 -0.028627418 0.162 8.0209455e-39
-0.0024911531 -0.027313143 0.16116668 1.8430847e-38
-0.001443855 -0.027261073 0.16100001 1.7678521e-38
0.0014756121 -0.027628472 0.1618 1.7467487e-38
0.0084383525 -0.027025502 0.16100001 1.8299407e-38
-0.0025816362 -0.026468482 0.16140001 1.7866874e-38
-0.0014640467 -0.026544262 0.16100001 1.6650688e-38
0.0086408239 -0.026500355 0.16174999 1.783555e-38
-0.0023154677 -0.025729859 0.16100001 1.6744324e-38
-0.0014862576 -0.025703948 0.16100001 1.6092475e-38
0.0085465619 -0.025701256 0.16128573 1.7652238e-38
0.0091426084 -0.025759306 0.162 1.7189818e-38
-0.0023154677 -0.024952477 0.16100001 1.5908803e-38
-0.0015380833 -0.024952477 0.16100001 1.5355266e-38
0.0090861721 -0.024822913 0.16100001 1.8388361e-38
-0.0023250557 -0.023494055 0.16166668 1.4983601e-38
-0.0017972114 -0.023138579 0.16100001 1.4891404e-38
0.0013903166 -0.023534257 0.16142859 1.5993424e-38
0.0020897114 -0.023268145 0.16100001 1.6360406e-38
-0.0021560246 -0.022500083 0.162 1.4338226e-38
-0.0017972114 -0.022620324 0.16100001 1.4615173e-38
0.0018305832 -0.022620324 0.16100001 1.6450088e-38
0.0020897114 -0.022620324 0.16100001 1.681887e-38
0.072378233 -0.022231631 0.16100001 6.0837765e-39
-0.0032163579 -0.021457132 0.162 1.3601021e-38
-0.0023670979 -0.021419886 0.16200002 1.3415554e-38
-0.0016281804 -0.021454671 0.16133334 1.3231165e-38
0.0005349422 -0.021065554 0.16100001 1.3505583e-38
0.007165296 -0.021130975 0.16150001 1.5894034e-38
-0.0031120628 -0.020935658 0.162 1.3232603e-38
-0.0024566229 -0.020480053 0.16174999 1.2679431e-38
-0.0015380833 -0.020288169 0.16100001 1.2495041e-38
-0.00032881845 -0.020115418 0.16100001 1.2494679e-38
0.00047902518 -0.020357464 0.16155556 1.3046051e-38
0.0014049415 -0.020501474 0.16166668 1.3504508e-38
0.0023488395 -0.020288169 0.16100001 1.4329949e-38
0.0066997241 -0.02031927 0.16125001 1.5532802e-38
0.007165296 -0.020871043 0.16150001 1.534374e-38
-0.0021994808 -0.019892707 0.162 1.2495041e-38
-0.0013715212 -0.019504305 0.16166666 1.2219533e-38
-0.00045968921 -0.019463731 0.16133334 1.1942946e-38
0.00020303064 -0.019594723 0.16200002 1.2219171e-38
-0.00115653 -0.018589022 0.162 1.1943665e-38
-0.00063505472 -0.01858902 0.162 1.185039e-38
1.6789443e-05 -0.01858902 0.162 1.1758555e-38
0.0075932327 -0.018512996 0.161625 1.4423938e-38
0.0082050273 -0.018791176 0.16150001 1.4146632e-38
-0.0011130738 -0.017719895 0.162 1.1392289e-38
-0.00076542358 -0.017806808 0.162 1.1483766e-38
0.007165296 -0.017751848 0.16150001 1.4702681e-38
0.022179492 -0.017285332 0.162 4.4296376e-39
0.021760982 -0.016514197 0.16160001 5.1625223e-39
0.022179492 -0.016633488 0.162 4.7962593e-39
0.030523099 -0.011288365 0.162 8.9429046e-39
0.029816428 -0.0057769925 0.16100001 6.7312913e-39
-0.011455668 0.01348171 0.162 1.4383247e-38
0.082847111 0.014320414 0.16166668 3.5920044e-39
0.08397422 0.01469413 0.16100001 7.4620362e-39
0.084233344 0.01469413 0.16100001 7.5542319e-39
0.084233344 0.015471515 0.16100001 7.18725e-39
0.085408375 0.015567611 0.162 6.4504038e-39
0.086060219 0.015437242 0.162 5.7135633e-39
0.085364915 0.016262913 0.162 5.8068393e-39
0.086060219 0.016219456 0.162 5.3465842e-39
0.082935169 0.017640276 0.16140001 4.8841669e-39
0.08293137 0.018435726 0.162 3.6874258e-39
-0.032053944 0.024954166 0.162 1.1989037e-38
-0.031206548 0.024888981 0.162 1.1804646e-38
-0.030340409 0.024815908 0.16166668 1.1896845e-38
-0.029441159 0.024601649 0.16140001 1.2081236e-38
-0.028746543 0.024800127 0.16100001 1.2265627e-38
0.076459505 0.024800127 0.16100001 5.2507915e-39
-0.032249499 0.025540825 0.162 1.1897202e-38
-0.031329717 0.025607474 0.16155556 1.1897203e-38
-0.03033833 0.025466459 0.16100001 1.1804649e-38
-0.028705448 0.025397819 0.16150001 1.2081596e-38
0.075941242 0.025059257 0.16100001 5.0664002e-39
0.079463951 0.025857249 0.16166668 5.1625559e-39
-0.032140855 0.026344767 0.162 1.1805368e-38
-0.031219583 0.026362151 0.162 1.1989759e-38
-0.030750256 0.026388224 0.162 1.2081955e-38
-0.029264798 0.026873151 0.16100001 1.2357823e-38
0.07448712 0.026695874 0.16150001 4.7909007e-39
-0.031010995 0.027300807 0.162 1.1896486e-38
-0.030352497 0.027216008 0.16150001 1.263441e-38
-0.029353291 0.027402772 0.16128573 1.2542214e-38
0.073805548 0.027561544 0.162 4.0555049e-39
0.074146733 0.027388642 0.16175 4.3317288e-39
-0.031010995 0.028343758 0.162 1.0606106e-38
-0.03045227 0.028418252 0.16200002 1.1896126e-38
-0.029902859 0.028539311 0.162 1.2725526e-38
0.073609091 0.028168794 0.16100001 3.9654701e-39
0.074066289 0.028517582 0.162 3.6892461e-39
0.074645601 0.029205307 0.16100001 4.2434863e-39
-0.024231814 0.030951133 0.162 1.2081233e-38
-0.023645155 0.030885948 0.162 1.2081236e-38
-0.022797758 0.030820765 0.162 1.2173431e-38
-0.025237517 0.031770598 0.16200002 1.235674e-38
-0.024492553 0.031646434 0.162 1.2172348e-38
-0.02371034 0.031646434 0.162 1.217271e-38
-0.022667388 0.031646434 0.162 1.2265626e-38
-0.021624437 0.031807847 0.16200002 1.217343e-38
-0.032508392 0.032534495 0.16166668 1.1712815e-38
-0.028746543 0.032833099 0.16100001 1.134439e-38
-0.025222618 0.032359116 0.162 1.2264904e-38
-0.024492551 0.032385189 0.162 1.217235e-38
-0.02371034 0.032385189 0.162 1.2264545e-38
-0.022667388 0.032385189 0.162 1.2448937e-38
-0.021494068 0.032385189 0.162 1.2448937e-38
-0.020451117 0.032515559 0.162 1.2356744e-38
-0.019103974 0.032428648 0.162 1.2173431e-38
-0.018495586 0.032385189 0.162 1.2081236e-38
-0.017843742 0.032515559 0.162 1.2081236e-38
-0.034400582 0.03355851 0.162 1.0423154e-38
-0.033525042 0.033464611 0.1618 1.1251837e-38
-0.032836158 0.033297773 0.162 1.1805371e-38
-0.02861698 0.033416141 0.16100001 1.1620979e-38
-0.025228461 0.033303548 0.1618889 1.189612e-38
-0.024507971 0.033342447 0.16185714 1.2172708e-38
-0.02360349 0.033308335 0.1618 1.2080154e-38
-0.022639083 0.033100225 0.1618 1.217235e-38
-0.021458516 0.033274069 0.16199999 1.2080517e-38
-0.020283502 0.033223279 0.16200002 1.2173071e-38
-0.019364711 0.033297773 0.162 1.2081236e-38
-0.018495586 0.033297777 0.162 1.2081236e-38
-0.017713372 0.033297777 0.162 1.198904e-38
-0.016757334 0.033384684 0.162 1.198904e-38
-0.015888209 0.03355851 0.162 1.2081236e-38
-0.034400582 0.034471095 0.162 1.097561e-38
-0.033567369 0.034435429 0.16157143 1.1620618e-38
-0.028228287 0.03412874 0.16100001 1.2173431e-38
-0.027882783 0.034301493 0.16100001 1.2449298e-38
-0.024386559 0.034373403 0.16130002 1.1989043e-38
-0.023476152 0.034370434 0.16136362 1.1805369e-38
-0.022112861 0.034439698 0.16100001 1.1805368e-38
-0.021754807 0.034340724 0.162 1.1712813e-38
-0.019203303 0.034340721 0.16200002 1.1805009e-38
-0.018495586 0.034471095 0.162 1.1897563e-38
-0.01771337 0.034471091 0.16199999 1.1897563e-38
-0.016670421 0.034471091 0.16199999 1.1713172e-38
-0.015523177 0.034497164 0.16199997 1.1805008e-38
-0.014361031 0.034675959 0.16200002 1.1713172e-38
-0.01354157 0.034862198 0.162 1.1252917e-38
-0.0091959424 0.034775283 0.162 1.1160361e-38
-0.0085875541 0.034862198 0.162 1.1344392e-38
-0.0031642101 0.034549315 0.162 1.1620978e-38
-0.0028513251 0.034601461 0.162 1.1621338e-38
0.02009359 0.034862198 0.162 8.9494683e-39
-0.034400582 0.035644412 0.162 1.3186865e-38
-0.033463456 0.035592716 0.16142859 1.3279059e-38
-0.032892592 0.035813075 0.16100001 1.3463089e-38
-0.024341365 0.035553947 0.16100001 1.1713175e-38
-0.023278937 0.035476208 0.16100001 1.1897566e-38
-0.022009211 0.035165254 0.16100001 1.1805368e-38
-0.021597739 0.035756208 0.1618 1.134439e-38
-0.019127598 0.035737574 0.16183333 1.1897565e-38
-0.018495586 0.035644412 0.162 1.2081955e-38
-0.017713374 0.035644412 0.162 1.2081955e-38
-0.016670421 0.035644412 0.162 1.1528782e-38
-0.015497102 0.035644412 0.16199999 1.097633e-38
-0.014323784 0.035644412 0.162 1.1160361e-38
-0.013469187 0.035623919 0.16157143 1.1344392e-38
-0.012427763 0.035572149 0.16108334 1.1344392e-38
-0.011613954 0.035593562 0.16130002 1.1160001e-38
-0.010496684 0.035661168 0.16157143 1.0884136e-38
-0.0093697663 0.035644412 0.162 1.0700103e-38
-0.0084571857 0.035644412 0.162 1.1160721e-38
0.019901205 0.035923894 0.16150001 8.7650771e-39
-0.034400582 0.036426626 0.162 1.2631887e-38
-0.033534165 0.036650755 0.161125 1.152554e-38
-0.032892592 0.036720023 0.16100001 1.170993e-38
-0.0242118 0.036460895 0.16100001 1.1067806e-38
-0.023406425 0.036549095 0.16125001 1.1344392e-38
-0.022138774 0.03697915 0.16100001 1.1252198e-38
-0.021319205 0.036264222 0.16166668 1.115964e-38
-0.020620661 0.036566824 0.16114286 1.1159998e-38
-0.019527586 0.036640864 0.16114286 1.116e-38
-0.018412407 0.036639865 0.16127275 1.1068166e-38
-0.017578043 0.036585815 0.16155556 1.1068526e-38
-0.016670421 0.036600456 0.162 1.1160361e-38
-0.015464927 0.036654554 0.16185713 1.0699743e-38
-0.01437838 0.03666931 0.16181816 1.0607548e-38
-0.013572756 0.036766544 0.16133335 1.0239127e-38
-0.012421467 0.036720019 0.16100001 1.0055097e-38
-0.01171111 0.036752861 0.16133334 1.0239128e-38
-0.010586542 0.036165886 0.162 1.0883779e-38
-0.0093697673 0.036165886 0.162 1.0975973e-38
-0.0083268164 0.036165886 0.162 1.1344392e-38
-0.0073707779 0.036861185 0.162 1.042172e-38
-0.036225747 0.037860684 0.162 1.1804649e-38
-0.033151723 0.037497409 0.16100001 9.6841467e-39
-0.032633465 0.037626971 0.16100001 9.8678205e-39
-0.031856082 0.037756536 0.16100001 1.1618813e-38
-0.022138774 0.037626974 0.16100001 1.0699387e-38
-0.021750081 0.037756536 0.16100001 1.0883779e-38
-0.02045444 0.037626974 0.16100001 1.1252197e-38
-0.019547492 0.037626971 0.16100001 1.0791217e-38
-0.018381415 0.037626971 0.16100001 1.0145849e-38
-0.017344905 0.037626971 0.16100001 1.0514632e-38
-0.016566925 0.037539348 0.16155556 1.0699383e-38
-0.015507997 0.037567236 0.16114286 1.0514992e-38
-0.014624057 0.037626974 0.16100001 1.0238765e-38
-0.013587544 0.037626971 0.16100001 9.6859544e-39
-0.012421466 0.037626971 0.16100001 9.6863145e-39
-0.01166533 0.03763929 0.16175 9.77815e-39
-0.008313966 0.037671685 0.16175 9.4097276e-39
-0.0073810681 0.037576597 0.16154546 9.132782e-39
-0.0067623905 0.037643399 0.162 9.316453e-39
-0.0011565301 0.037991051 0.162 8.3019367e-39
-0.00076542358 0.037991051 0.162 7.5661709e-39
0.019702485 0.037860684 0.162 7.7509279e-39
0.020485736 0.037825968 0.16166668 7.9353192e-39
-0.037007961 0.038512524 0.162 1.1251472e-38
-0.036308687 0.038392857 0.16150001 1.1159278e-38
-0.033151723 0.038274791 0.16100001 1.0698301e-38
-0.032479241 0.03846154 0.16166666 1.0145488e-38
-0.031467386 0.038145229 0.16100001 1.1343308e-38
-0.022095585 0.038102042 0.16100001 1.0422799e-38
-0.021594604 0.038274791 0.16100001 1.0422798e-38
-0.020681178 0.03840436 0.16100001 1.0422436e-38
-0.019547492 0.038361169 0.16100001 1.0330241e-38
-0.018381417 0.038361169 0.16100001 9.8696225e-39
-0.017344901 0.038361169 0.16100001 9.8696225e-39
-0.016394768 0.038361173 0.16100001 9.8696267e-39
-0.01544463 0.038361173 0.16100001 9.8699855e-39
-0.014624056 0.038361166 0.16100001 9.6859515e-39
-0.013587546 0.038361169 0.16100001 9.317169e-39
-0.012421466 0.038361173 0.16100001 9.3171704e-39
-0.011679842 0.038425647 0.16150001 9.2246161e-39
-0.0093466323 0.038572587 0.16160001 9.0402248e-39
-0.0086641088 0.038145229 0.16100001 9.2242573e-39
-0.0067206468 0.038015664 0.16100001 8.9476704e-39
-0.0054587014 0.038512524 0.162 9.0398661e-39
-0.0045895763 0.038512524 0.162 8.6710822e-39
-0.0035031689 0.038512524 0.162 8.6707192e-39
-0.0021560246 0.038425613 0.162 8.6710794e-39
-0.0013738115 0.038382154 0.162 8.1182657e-39
-0.00063505478 0.038382158 0.162 7.3817797e-39
0.00014715828 0.038512524 0.162 7.1051928e-39
-0.037007961 0.039034002 0.162 1.0790494e-38
-0.036520388 0.039052177 0.16100001 1.0422431e-38
-0.032344513 0.039303824 0.16150001 9.8699827e-39
-0.021490954 0.039052177 0.16100001 1.023732e-38
-0.020713568 0.039311308 0.16100001 9.8692582e-39
-0.019547492 0.039311305 0.16100001 9.5933944e-39
-0.018381417 0.039311308 0.16100001 9.5933958e-39
-0.017344903 0.039311305 0.16100001 9.317169e-39
-0.016394766 0.039311301 0.16100001 9.041301e-39
-0.015444628 0.039311305 0.16100001 9.2256937e-39
-0.014624056 0.039311305 0.16100001 9.3178893e-39
-0.013587545 0.039311301 0.16100001 8.7647155e-39
-0.012421467 0.039311305 0.16100001 8.5803229e-39
-0.011514518 0.039343696 0.16100001 8.5803229e-39
-0.010478126 0.039356343 0.16140001 8.6721626e-39
-0.0098301852 0.039052177 0.16100001 8.7643582e-39
-0.0065746508 0.039647374 0.16166668 8.4874126e-39
-0.005695736 0.039460666 0.16199999 8.6710822e-39
-0.0045461198 0.039425105 0.16199997 8.670722e-39
-0.0033728003 0.039425109 0.16199999 8.8554706e-39
-0.0024862923 0.039372962 0.16199999 8.8551105e-39
-0.001395684 0.039392363 0.16171427 8.1179056e-39
-0.00063505478 0.039425105 0.162 7.4728963e-39
0.0003818222 0.039451182 0.16199997 7.1041138e-39
0.0015812155 0.039711919 0.162 6.7356914e-39
0.0026241662 0.039555475 0.162 6.8286059e-39
0.0035802047 0.039555475 0.162 6.6442146e-39
0.0046231546 0.039555471 0.162 6.552019e-39
0.0053358385 0.039607622 0.162 6.7364103e-39
0.006326641 0.039764069 0.162 6.7360501e-39
0.0073174448 0.039816212 0.162 6.8286059e-39
0.027858282 0.039473549 0.16166668 7.5661709e-39
0.028326439 0.039311305 0.16100001 7.1037536e-39
-0.032575421 0.040337689 0.162 1.0791219e-38
-0.02071357 0.040088691 0.16100001 9.6848669e-39
-0.019633869 0.040175065 0.16100001 9.2246119e-39
-0.017215338 0.040088691 0.16100001 8.9480264e-39
-0.016826646 0.040088691 0.16100001 8.9491054e-39
-0.015012749 0.040088691 0.16100001 9.1334966e-39
-0.014624057 0.040218253 0.16100001 9.2249734e-39
-0.013587546 0.040347815 0.16100001 8.7647141e-39
-0.012421467 0.040347815 0.16100001 8.5803229e-39
-0.011471331 0.040347818 0.16100001 8.3037388e-39
-0.010434818 0.040347818 0.16100001 8.3955757e-39
-0.0073386393 0.040473282 0.16150001 8.3955757e-39
-0.0066320207 0.040598426 0.162 8.30338e-39
-0.0057194396 0.040598422 0.162 8.3033786e-39
-0.0045461194 0.040598422 0.16199999 8.302657e-39
-0.0033728003 0.040598426 0.162 8.6707192e-39
-0.0025140364 0.040525146 0.16185714 8.486328e-39
-0.0013737595 0.040394012 0.16109091 7.8413187e-39
-0.00060835795 0.040495835 0.1618 7.4728963e-39
0.00040789598 0.040598422 0.16199999 7.1041138e-39
0.0015812154 0.040598426 0.162 7.0119181e-39
0.0025915741 0.040565833 0.162 6.7364103e-39
0.003578047 0.040570401 0.1618889 6.552019e-39
0.0046231556 0.040598426 0.162 6.4598234e-39
0.0053619123 0.040598426 0.162 6.3676277e-39
0.0064048632 0.040598422 0.16199999 6.552019e-39
0.0075781825 0.040598426 0.162 6.7364103e-39
0.0086211329 0.040598422 0.162 6.7364103e-39
0.0095771709 0.040728793 0.162 6.5520218e-39
0.010315929 0.040859163 0.162 6.5523819e-39
0.027915722 0.040468059 0.162 7.1977471e-39
0.028176459 0.040468059 0.162 7.0133559e-39
-0.040148184 0.041254766 0.16100001 1.0882691e-38
-0.039622232 0.041448474 0.16150001 1.1158918e-38
-0.038852543 0.041125201 0.16100001 1.1343671e-38
-0.014494493 0.041125201 0.16100001 9.5004799e-39
-0.013587545 0.041384332 0.16100001 8.6725185e-39
-0.012421467 0.041513897 0.16100001 8.6725185e-39
-0.01147133 0.041513901 0.16100001 8.3037388e-39
-0.01060757 0.041384328 0.16100001 8.2111844e-39
-0.008229306 0.041513115 0.16137502 8.2111844e-39
-0.0073707784 0.041641381 0.162 7.9345975e-39
-0.0066320207 0.041641373 0.162 7.8424019e-39
-0.0057194391 0.041641377 0.162 8.1186286e-39
-0.0046064323 0.041527495 0.16155556 8.2101054e-39
-0.0034933232 0.041478563 0.16100001 8.1179056e-39
-0.0025745959 0.041513897 0.16100001 8.2101012e-39
-0.001408519 0.041513894 0.16100001 7.9331542e-39
-0.00037200647 0.041513897 0.16100001 7.4725362e-39
0.00043604424 0.041542944 0.16123079 7.2881449e-39
0.0014363234 0.041641846 0.16163635 7.0119181e-39
0.0027110789 0.041554466 0.162 6.7364103e-39
0.0035149164 0.041513897 0.16100001 6.4598234e-39
0.00457008 0.041625384 0.16133334 6.2757908e-39
0.0053756931 0.041678693 0.16185714 6.2757922e-39
0.0064048623 0.041641381 0.16199999 6.2757908e-39
0.0075781825 0.041641381 0.162 6.73569e-39
0.0086211329 0.041641377 0.162 6.7353313e-39
0.0095771709 0.041641377 0.162 6.7353313e-39
0.01053321 0.041641377 0.162 6.7360501e-39
0.011332805 0.041693524 0.162 6.7356914e-39
0.012206275 0.041836929 0.162 6.5516589e-39
-0.039615337 0.042336676 0.162 1.079085e-38
-0.038852543 0.042550407 0.16100001 1.01462e-38
-0.023563979 0.0429391 0.16100001 9.9621755e-39
-0.01234743 0.042642951 0.16100001 8.1193447e-39
-0.011471331 0.042679969 0.16100001 8.1193447e-39
-0.008223081 0.04255069 0.16125001 8.118986e-39
-0.0074303895 0.0425946 0.16141665 7.842039e-39
-0.0065297196 0.042655151 0.16139999 8.0257099e-39
-0.0057418216 0.042631581 0.1619 8.0260701e-39
-0.0045461198 0.042597413 0.16199999 8.0260687e-39
-0.0034260172 0.042716987 0.16100001 7.7494818e-39
-0.0025745959 0.042679969 0.16100001 8.0260673e-39
-0.0014085192 0.042679969 0.16100001 8.0257085e-39
-0.00037200647 0.042679969 0.16100001 7.8409586e-39
0.00044856613 0.042679969 0.16100001 7.5643717e-39
0.0013920174 0.042654604 0.16120002 7.1955891e-39
0.0025734154 0.042768255 0.16150001 6.9200813e-39
0.0034177434 0.042712361 0.16100001 6.4594632e-39
0.0045514293 0.042679969 0.16100001 6.276151e-39
0.0056851152 0.042712361 0.16100001 6.276151e-39
0.0064449576 0.042596918 0.16191666 6.1839553e-39
0.0075781825 0.042597413 0.162 6.5513001e-39
0.0086211329 0.042597409 0.162 6.6431356e-39
0.0095771709 0.042597413 0.162 6.367269e-39
0.01053321 0.042597409 0.162 6.4598234e-39
0.01135888 0.042597413 0.162 6.5509386e-39
0.01240183 0.042597413 0.16199999 6.3672676e-39
0.013575149 0.042597413 0.162 6.1832379e-39
0.014487731 0.042651732 0.162 6.4594646e-39
0.015504608 0.042840771 0.162 6.4591045e-39
0.016530177 0.042945068 0.162 6.4591045e-39
0.017355844 0.042945065 0.162 6.552019e-39
0.018659534 0.042945065 0.162 6.9208015e-39
0.019572115 0.042814698 0.162 7.0115608e-39
0.02009359 0.042814694 0.162 6.9193652e-39
-0.011212203 0.043370981 0.16100001 8.1189846e-39
-0.010866698 0.043457355 0.16100001 8.3030171e-39
-0.0082754157 0.043630108 0.16100001 7.9342346e-39
-0.0074980315 0.043630108 0.16100001 7.5650919e-39
-0.0064615184 0.043630108 0.16100001 8.025347e-39
-0.0055255075 0.043552961 0.16118182 8.5785208e-39
-0.0045900564 0.043524031 0.16125001 8.1182629e-39
-0.0035247328 0.043630108 0.16100001 7.8409557e-39
-0.0025745959 0.043630108 0.16100001 7.9335115e-39
-0.0014085191 0.043630108 0.16100001 8.1179028e-39
-0.00037200647 0.043630108 0.16100001 7.9335129e-39
0.00044856613 0.043630108 0.16100001 7.5643717e-39
0.0013987027 0.043630108 0.16100001 7.1041124e-39
0.0023488393 0.043630112 0.16100001 6.8282458e-39
0.0033853524 0.043630108 0.16100001 6.4598234e-39
0.0045514293 0.043630112 0.16100001 6.4598234e-39
0.0057175062 0.043630108 0.16100001 6.4598234e-39
0.0066489568 0.043569494 0.16114286 6.2754321e-39
0.0074585173 0.043637399 0.16174997 6.4591031e-39
0.0086211329 0.043553457 0.162 6.6431356e-39
0.0095771709 0.043553457 0.162 6.4591031e-39
0.010533209 0.043553457 0.162 6.3669089e-39
0.01135888 0.043553453 0.162 6.5509386e-39
0.01240183 0.043553453 0.16199999 6.3672676e-39
0.013575149 0.043553453 0.162 6.275072e-39
0.014531187 0.043553453 0.162 6.4591031e-39
0.015574138 0.043553453 0.162 6.4591045e-39
0.016530177 0.043553453 0.162 6.5513001e-39
0.017486215 0.043553453 0.162 6.6438559e-39
0.018529164 0.043553453 0.162 6.6445734e-39
0.019572116 0.043553453 0.162 6.552019e-39
0.020558173 0.043493468 0.16177779 6.5516589e-39
0.021136541 0.043988016 0.162 6.3683466e-39
-0.0073684677 0.044234738 0.16100001 7.5650919e-39
-0.0064615184 0.044493869 0.16100001 7.9335115e-39
-0.0055113821 0.044493865 0.16100001 8.4866853e-39
-0.0045612454 0.044493869 0.16100001 8.4863252e-39
-0.0035247328 0.044493869 0.16100001 7.8409557e-39
-0.0025745959 0.044493865 0.16100001 7.6565645e-39
-0.0014085193 0.044493865 0.16100001 7.656926e-39
-0.0003720065 0.044493869 0.16100001 7.7494832e-39
0.00044856613 0.044493869 0.16100001 7.3807007e-39
0.001398703 0.044493865 0.16100001 7.0119181e-39
0.0023488395 0.044493865 0.16100001 6.827887e-39
0.0033853522 0.044493869 0.16100001 6.5516589e-39
0.0045514293 0.044493869 0.16100001 6.6434958e-39
0.0057175062 0.044493865 0.16100001 6.5516589e-39
0.0066244546 0.044493869 0.16100001 6.4598234e-39
0.0074461265 0.044432588 0.16125001 6.367269e-39
0.0084594339 0.044446163 0.16166666 6.4591045e-39
0.0095771709 0.044379126 0.162 6.7349711e-39
0.01053321 0.044379126 0.162 6.4591045e-39
0.01135888 0.044379123 0.162 6.4594632e-39
0.012401829 0.044379126 0.162 6.4591045e-39
0.013575149 0.044379126 0.162 6.3676277e-39
0.014531187 0.044379126 0.162 6.4598234e-39
0.015574138 0.044379126 0.162 6.6442146e-39
0.016530177 0.044379126 0.162 6.6442146e-39
0.017486215 0.044379126 0.162 6.9208015e-39
0.018529166 0.044379126 0.162 6.9211603e-39
0.019572116 0.044379126 0.162 6.7371291e-39
0.020530768 0.044455618 0.16133334 6.4601835e-39
0.021136541 0.044379123 0.162 6.4605422e-39
-0.0062023904 0.045012124 0.16100001 8.0260673e-39
-0.0054250062 0.045115776 0.16100001 8.6714367e-39
-0.0045612454 0.045141686 0.16100001 8.4863252e-39
-0.0034630357 0.045197211 0.16100001 7.7487601e-39
-0.0026609721 0.045184877 0.16100001 7.4721732e-39
-0.0014085192 0.045012124 0.16100001 7.3803391e-39
-0.0003720065 0.045141689 0.16100001 7.5658108e-39
0.00050255115 0.045238856 0.16100001 7.4728963e-39
0.0013987029 0.045271251 0.16100001 7.1963094e-39
0.0023488395 0.045271248 0.16100001 6.9197225e-39
0.0033853524 0.045271248 0.16100001 6.8275269e-39
0.0045514293 0.045271248 0.16100001 6.7353313e-39
0.0057175062 0.045271251 0.16100001 6.8275269e-39
0.0066244546 0.045271248 0.16100001 6.7353313e-39
0.0073586502 0.045271251 0.16100001 6.5513001e-39
0.0083892811 0.045227561 0.16118182 6.367269e-39
0.009447976 0.045238875 0.16138461 6.7353313e-39
0.010520735 0.045298181 0.16142857 6.6431356e-39
0.011550024 0.045305021 0.16140001 6.3676277e-39
0.012462083 0.045263406 0.16161537 6.3676277e-39
0.013559914 0.045335099 0.16181818 6.5512987e-39
0.014531188 0.045422066 0.16199999 6.5516589e-39
0.015574138 0.045422066 0.16199999 6.552019e-39
0.016530177 0.045422073 0.16199999 6.6442146e-39
0.017486213 0.045422066 0.16199999 6.8286059e-39
0.018529164 0.045422066 0.16199999 7.0129971e-39
0.019572118 0.045422066 0.16199999 7.012637e-39
0.020562921 0.04550029 0.16199999 6.4601863e-39
0.021444686 0.045457628 0.16199999 6.3683508e-39
0.022527141 0.04555244 0.162 6.5531008e-39
0.023509255 0.04550029 0.16199999 6.3694298e-39
0.024502428 0.04543392 0.16199999 6.4609052e-39
0.025464788 0.04550029 0.162 6.4601863e-39
0.026416481 0.045226518 0.162 6.275795e-39
0.027133508 0.045030966 0.162 6.3679907e-39
-0.037427336 0.046696454 0.16100001 9.776701e-39
-0.036261261 0.046566892 0.16100001 9.316083e-39
0.00079407037 0.046048637 0.16100001 7.6565645e-39
0.001441891 0.046359591 0.16100001 7.2885036e-39
0.0022840574 0.046307765 0.16100001 7.1041138e-39
0.0034177436 0.046275374 0.16100001 6.8275269e-39
0.0045514293 0.046307761 0.16100001 6.7353313e-39
0.0057175062 0.046437327 0.16100001 6.6431356e-39
0.0066244546 0.046437331 0.16100001 6.8275269e-39
0.0073586511 0.046437327 0.16100001 6.7353313e-39
0.0083087878 0.046437327 0.16100001 6.55094e-39
0.0093452996 0.046437327 0.16100001 6.367269e-39
0.010511378 0.046437331 0.16100001 6.3676277e-39
0.011677454 0.046437334 0.16100001 6.3676277e-39
0.01262759 0.046437334 0.16100001 6.4591031e-39
0.013491351 0.046437331 0.16100001 6.6424154e-39
0.014355893 0.046441283 0.16114286 6.4583842e-39
0.015487502 0.046576731 0.16135713 6.1828763e-39
0.01660062 0.046580821 0.16150001 6.2754321e-39
0.017486215 0.046595391 0.162 6.3683466e-39
0.018529164 0.046595395 0.162 6.4598234e-39
0.019572116 0.046595391 0.162 6.7353299e-39
0.020528154 0.046595395 0.162 6.3672718e-39
0.021484191 0.046595391 0.162 6.1832393e-39
0.022527141 0.046595391 0.162 6.0914024e-39
0.023483181 0.046595391 0.162 5.9995669e-39
0.024526132 0.046595395 0.162 6.0914038e-39
0.025569081 0.046595395 0.162 6.1835994e-39
0.026460929 0.046656813 0.16187501 5.9992082e-39
0.027309293 0.046841078 0.16150001 5.8148155e-39
-0.037297774 0.047344279 0.16100001 9.8692568e-39
0.0058470704 0.047344279 0.16100001 6.55094e-39
0.0066676424 0.047430653 0.16100001 6.6431356e-39
0.0074203485 0.047529366 0.16100001 6.6431356e-39
0.0083087878 0.047603402 0.16100001 6.55094e-39
0.0093453014 0.047603402 0.16100001 6.3669075e-39
0.010511377 0.047603402 0.16100001 6.2754321e-39
0.011677454 0.047603402 0.16100001 6.275072e-39
0.012627591 0.047603402 0.16100001 6.2747132e-39
0.013491351 0.047603402 0.16100001 6.3669075e-39
0.014268736 0.047603402 0.16100001 6.2747118e-39
0.015434813 0.047603402 0.16100001 6.0899619e-39
0.016600888 0.047603406 0.16100001 5.9977662e-39
0.017572612 0.04749427 0.16127275 6.090322e-39
0.01853436 0.047604565 0.16166668 6.2747118e-39
0.019572116 0.047551434 0.162 6.1832365e-39
0.020528154 0.047551427 0.162 6.0910409e-39
0.021484191 0.047551434 0.162 6.1832365e-39
0.022527141 0.047551434 0.162 5.9066496e-39
0.023483181 0.047551434 0.162 5.9066496e-39
0.024526132 0.047551427 0.162 5.814454e-39
0.025605123 0.047582541 0.1619 5.7229772e-39
0.026421309 0.047541674 0.16127275 5.6304214e-39
0.027527418 0.04755475 0.1611 5.6304214e-39
0.02826337 0.047812168 0.162 5.7222583e-39
-0.038075157 0.04863992 0.16100001 9.5926727e-39
-0.032575421 0.048681293 0.162 9.3168061e-39
0.0084383525 0.048380788 0.16100001 6.55094e-39
0.0093453005 0.048380788 0.16100001 6.4587444e-39
0.010511378 0.048380788 0.16100001 6.2750692e-39
0.01172928 0.048484441 0.16100001 6.1832351e-39
0.012676949 0.048565883 0.16100001 6.0910409e-39
0.013491351 0.04863992 0.16100001 6.2754321e-39
0.014268736 0.04863992 0.16100001 6.3676277e-39
0.015434814 0.04863992 0.16100001 5.9066496e-39
0.01660089 0.04863992 0.16100001 5.9066496e-39
0.017637402 0.04863992 0.16100001 6.0906821e-39
0.018587539 0.04863992 0.16100001 6.367269e-39
0.019534893 0.04854494 0.16133334 6.3676277e-39
0.020509543 0.04862231 0.16172725 6.4594632e-39
0.021484191 0.048594382 0.162 6.2757908e-39
0.022527141 0.048594374 0.162 6.0917597e-39
0.023483181 0.048594378 0.162 5.9995641e-39
0.024526132 0.048594378 0.162 6.1828791e-39
0.025515318 0.048607409 0.16136365 5.9070111e-39
0.02644776 0.04863992 0.16100001 5.9070125e-39
0.027553201 0.048604965 0.16140001 5.8148169e-39
0.028280754 0.048524849 0.162 5.7226199e-39
0.01547015 0.049558643 0.16100001 6.1832365e-39
0.01660089 0.049590055 0.16100001 6.1832351e-39
0.017637402 0.049590059 0.16100001 6.2754307e-39
0.018587539 0.049590051 0.16100001 6.459822e-39
0.019537676 0.049590051 0.16100001 6.552019e-39
0.020432185 0.049534731 0.16114286 6.6442132e-39
0.021421671 0.049532954 0.16126667 6.3679865e-39
0.022543989 0.049569566 0.16149999 6.0913996e-39
0.023464406 0.049559854 0.16154546 6.0917611e-39
0.02452613 0.049550425 0.162 6.3672718e-39
0.0255497 0.049259949 0.16133334 6.1828806e-39
0.026447764 0.049158175 0.16100001 6.0914038e-39
0.027472552 0.049510643 0.16177776 5.9066524e-39
0.028306827 0.049724244 0.162 5.7222625e-39
0.015823506 0.050194688 0.16100001 6.2754321e-39
0.016633281 0.050486207 0.16100001 6.1832351e-39
0.017637404 0.050540194 0.16100001 6.1825148e-39
0.018587539 0.05054019 0.16100001 6.4587416e-39
0.019537678 0.05054019 0.16100001 6.4594604e-39
0.02035825 0.05032425 0.16100001 6.4598206e-39
0.021394761 0.05032425 0.16100001 6.1832351e-39
0.022528445 0.050486203 0.16100001 5.8140924e-39
0.023532569 0.05032425 0.16100001 5.8144512e-39
0.024475666 0.050517168 0.16166668 5.9984837e-39
0.025230233 0.050480135 0.16150001 5.7222555e-39
0.027512996 0.05046232 0.16116668 5.7215367e-39
0.028291771 0.050228711 0.16166668 5.5367881e-39
0.017637402 0.051231194 0.16100001 6.1821547e-39
0.018155659 0.051231198 0.16100001 6.3665459e-39
0.022694461 0.051380187 0.16133334 5.9048475e-39
0.023483181 0.051419038 0.162 5.7211765e-39
0.02456934 0.051278792 0.16133335 5.7208164e-39
0.026706889 0.051490329 0.16100001 5.9055678e-39
0.027280977 0.051424179 0.16133334 5.8133722e-39
0.029557299 0.051231198 0.16100001 5.6282606e-39
0.022671893 0.052341748 0.16100001 6.0899604e-39
0.023520511 0.05261172 0.1619 5.8140952e-39
0.024219258 0.05242319 0.16100001 5.814454e-39
0.026754269 0.052513681 0.16160001 6.0892402e-39
0.027240315 0.052604549 0.16140001 5.9048489e-39
0.022780836 0.053240761 0.16133334 6.55094e-39
0.023410164 0.053469229 0.16150001 6.1832393e-39
0.027484275 0.053563353 0.16100001 5.8137351e-39
0.028391222 0.053692915 0.16100001 5.813375e-39
0.0083785839 0.054639336 0.16150001 6.4601863e-39
0.0093453005 0.054729432 0.16100001 6.3679907e-39
0.016392514 0.054510303 0.16150001 6.3676277e-39
0.022560839 0.054858994 0.16100001 6.8275269e-39
0.027613837 0.054081608 0.16100001 5.9066524e-39
0.028674949 0.054249562 0.16150001 5.9055706e-39
0.0014179302 0.055705495 0.16120002 6.3665459e-39
0.0080496594 0.055550005 0.16100001 6.7367732e-39
0.0093453005 0.055377252 0.16100001 6.2765139e-39
0.015823506 0.055377252 0.16100001 6.4598234e-39
0.016583255 0.055432197 0.16166668 6.2754321e-39
0.022694461 0.055318076 0.16133334 6.7353313e-39
0.0005349422 0.056802455 0.16100001 6.1828735e-39
0.0017058994 0.05619866 0.16150001 6.2743503e-39
0.008465765 0.05650178 0.16150001 6.3687081e-39
-0.0038702369 0.057579838 0.16100001 6.1821547e-39
0.00040537809 0.057450276 0.16100001 6.1821547e-39
0.008465765 0.05736836 0.16150001 6.1832337e-39
-0.0028337243 0.058486789 0.16100001 6.089959e-39
0.00066450628 0.058486789 0.16100001 6.27363e-39
0.00066450628 0.059264172 0.16100001 5.905565e-39
-0.0051658778 0.061855454 0.16100001 5.6278949e-39
-0.0051658778 0.062114581 0.16100001 5.5356993e-39
0.0042923009 0.064705864 0.16100001 4.5204655e-39
-0.01319392 0.065542333 0.162 5.2583921e-39
-0.012498619 0.065889977 0.162 5.3505891e-39
0.012558702 0.06549146 0.16150001 4.0594888e-39
0.013509965 0.065824792 0.162 4.0587685e-39
0.015400313 0.065889977 0.162 4.426472e-39
-0.013020094 0.066150717 0.162 4.9814465e-39
-0.012759357 0.066150717 0.162 5.2580334e-39
0.029924471 -0.043102052 0.163 1.8069983e-38
0.031236207 -0.043102052 0.163 1.6134937e-38
0.031498555 -0.042839702 0.163 1.3922595e-38
0.015495377 -0.039166842 0.163 1.7423535e-38
0.0091990447 -0.038117453 0.163 2.0280156e-38
0.014708335 -0.038379803 0.163 1.7791953e-38
0.015495376 -0.038510974 0.163 1.7975986e-38
0.0086743496 -0.037330411 0.163 2.0463828e-38
0.009428598 -0.037297621 0.163 2.0739694e-38
0.0085169412 -0.036228556 0.163 2.064822e-38
0.0094613917 -0.036368471 0.163 2.0463828e-38
