# .PCD v0.7 - Point Cloud Data file format
VERSION 0.7
FIELDS x y z rgb
SIZE 4 4 4 4
TYPE F F F F
COUNT 1 1 1 1
WIDTH 968
HEIGHT 1
VIEWPOINT 0 0 0 1 0 0 0
POINTS 968
DATA ascii
0.021435196 -0.001472792 0.16400002 9.4035829e-39
0.022453312 -0.0015733471 0.16400002 9.772364e-39
0.023245184 -0.0019252892 0.164 1.0140788e-38
0.080787733 -0.0017933107 0.164 3.778904e-39
0.081051692 -0.0017933107 0.164 4.3306302e-39
-0.025410829 -0.00060550612 0.164 1.5121168e-38
0.0089035379 -0.0007814772 0.164 6.8264353e-39
0.0095194373 -0.00073748443 0.164 7.103025e-39
0.01004735 -0.00086946273 0.164 7.103025e-39
0.012159004 -0.00073748443 0.164 6.9175547e-39
0.014666592 -0.00034154946 0.164 6.6409622e-39
0.015590441 -0.00049992342 0.164 6.5484022e-39
0.016306894 -0.00060550607 0.16400002 6.4562066e-39
0.017702093 -0.00060550612 0.164 7.2841666e-39
0.018493963 -0.00060550607 0.16400002 7.4689138e-39
0.019461803 -0.00060550607 0.16400002 8.0217275e-39
0.020429647 -0.00060550607 0.16400002 8.7592925e-39
0.021485472 -0.00060550612 0.16400002 9.128075e-39
0.022277342 -0.0007814772 0.164 9.3124663e-39
0.0076717404 0.00084625534 0.164 7.9317038e-39
0.014692989 0.00039752907 0.164 6.7338795e-39
0.015414469 0.00058229867 0.16400002 6.917912e-39
0.018493965 0.00031834209 0.16400002 7.6536708e-39
0.019197848 0.00027434932 0.164 7.8380621e-39
0.021265509 0.00018636379 0.164 9.4043018e-39
0.085011043 0.0004503204 0.164 9.3934529e-39
0.01479857 0.0017701036 0.164 7.1019432e-39
0.015414469 0.0016381252 0.16400002 7.2863344e-39
0.013742744 0.0026939518 0.164 7.103025e-39
0.01450162 0.0025289792 0.16400002 7.2870533e-39
0.015359478 0.0024299952 0.16400002 7.3785301e-39
0.016316321 0.0024299952 0.164 7.3785301e-39
0.017438138 0.0025619734 0.164 7.6551099e-39
0.018230006 0.0025619734 0.164 8.0224533e-39
0.013742744 0.003441829 0.164 7.0115482e-39
0.014358643 0.0033098506 0.16400002 7.4714474e-39
0.015062527 0.0030898869 0.164 7.6551169e-39
0.019549791 0.0033538435 0.164 8.3923148e-39
0.0097833937 0.0044096699 0.164 8.115742e-39
0.010179329 0.0045416481 0.164 7.8391537e-39
0.013742744 0.0044096694 0.164 7.3803307e-39
0.0089915236 0.0054654963 0.164 8.2072187e-39
0.0095194373 0.005597475 0.164 7.5625682e-39
0.010179329 0.0053335181 0.164 7.7469594e-39
0.0063519566 0.0065213232 0.164 9.1313358e-39
0.0089915236 0.0067852796 0.164 6.7324446e-39
0.0094314516 0.0066093081 0.164 6.6406077e-39
0.077620253 0.0066972938 0.164 6.2634944e-39
0.078764059 0.0066972938 0.164 4.8863235e-39
0.079467952 0.0067852796 0.164 4.3349462e-39
0.074980684 0.0078411056 0.164 6.5404513e-39
0.075376622 0.0078411056 0.164 7.6457072e-39
0.076300472 0.0077091274 0.16400002 7.9208494e-39
0.077409089 0.0075243576 0.16400002 5.8939945e-39
0.078412123 0.0078411056 0.164 3.4112047e-39
0.079643928 0.0072252066 0.164 3.9665252e-39
0.015854398 0.0081050629 0.164 8.3004864e-39
0.016118353 0.0081050629 0.164 8.9458586e-39
0.0748927 0.0082810335 0.164 6.355344e-39
0.075376622 0.008457005 0.16400002 7.7368225e-39
0.076262765 0.0085575599 0.16400002 7.4602314e-39
0.07745228 0.0084170112 0.16400002 4.6972575e-39
0.078676067 0.0084444359 0.16400002 2.9513069e-39
0.079467952 0.0088969329 0.164 2.3084542e-39
0.075508602 0.0094248457 0.164 6.9077891e-39
0.076168492 0.0096888021 0.164 6.0791102e-39
0.037498843 0.010744628 0.164 6.5476736e-39
0.071153313 0.010216716 0.164 3.5008864e-39
0.076300465 0.010405255 0.16400002 4.6987009e-39
0.077092342 0.010480672 0.164 4.4224727e-39
0.078500114 0.010480672 0.164 3.0431424e-39
0.037366867 0.011272542 0.164 6.3632851e-39
0.074628741 0.011800456 0.164 4.2391689e-39
0.075376622 0.011800456 0.164 4.2402465e-39
0.076300472 0.011800456 0.164 4.1484068e-39
0.077587254 0.011635481 0.16400002 3.4119249e-39
0.078412123 0.011272542 0.164 2.9516685e-39
0.073924862 0.012504339 0.164 4.1462544e-39
0.074628748 0.012592326 0.164 4.3320834e-39
0.07540302 0.012486743 0.164 4.3335211e-39
0.076262765 0.012403785 0.16400002 4.0576489e-39
0.077356294 0.012064412 0.164 3.5970309e-39
0.07381928 0.013489777 0.164 4.6072283e-39
0.074628748 0.013560168 0.16400002 4.4246363e-39
0.075376622 0.013560166 0.16400002 4.5189914e-39
0.076036513 0.013120239 0.164 4.2438394e-39
0.073748894 0.014659985 0.16400002 5.71285e-39
0.07464131 0.014402313 0.16400002 4.7930559e-39
0.075244643 0.014308043 0.164 4.5193473e-39
0.072869033 0.015495847 0.164 6.2631455e-39
0.073608115 0.015337473 0.164 6.3567789e-39
0.071813203 0.016815631 0.164 5.0653212e-39
0.072539084 0.016419694 0.16400002 5.710692e-39
0.071615234 0.017607501 0.164 4.9752906e-39
0.072341122 0.017475523 0.164 5.4362659e-39
0.071021333 0.018135414 0.164 4.8830978e-39
0.069701552 0.023942459 0.164 3.9679784e-39
0.069701552 0.024470374 0.164 3.1382205e-39
0.032947306 -0.036195058 0.16500001 1.7976243e-38
0.032947306 -0.03539836 0.16500001 1.521001e-38
0.032947306 -0.034601662 0.16500001 1.1520417e-38
-0.02861093 -0.015427788 0.16500001 1.6594856e-38
0.0058595557 -0.015215335 0.16500001 3.9575611e-39
-0.028664043 -0.014684203 0.16500001 1.5765456e-38
-0.0018418626 -0.014153071 0.16500001 4.3220277e-39
-0.00051403197 -0.014153071 0.16500001 4.2316299e-39
0.005793164 -0.014485029 0.16500001 3.3154315e-39
0.0064969147 -0.014259296 0.16500001 4.5171893e-39
-0.0015431008 -0.013455959 0.16500001 3.2214394e-39
-0.00064681499 -0.013444894 0.16500001 2.9459315e-39
0.0058595557 -0.013887505 0.16500001 3.5923786e-39
0.0069218199 -0.013621939 0.16500001 4.7948468e-39
-0.0015762965 -0.012471151 0.16500001 2.5789497e-39
-0.00064681499 -0.012471152 0.16500001 2.3952773e-39
-0.0015231833 -0.011656749 0.16500001 2.4878359e-39
-0.00056714518 -0.011656748 0.16500001 2.3956388e-39
-0.0013107305 -0.01070071 0.16500001 2.580393e-39
-0.00051403197 -0.010966277 0.16500001 2.5803902e-39
0.0064969147 -0.010275805 0.16500001 4.055872e-39
0.014800283 -0.010258101 0.16500001 8.0202827e-39
0.015685506 -0.010435145 0.16500001 8.8500434e-39
0.016482202 -0.010302361 0.16500001 9.034436e-39
-0.0043204799 -0.0091958353 0.16500001 3.4108782e-39
-0.0037008256 -0.0092135398 0.16500001 3.3186825e-39
-0.002638561 -0.0091073141 0.16500001 3.0424558e-39
0.0068155937 -0.0094259931 0.16500001 4.1495138e-39
0.0072759078 -0.0091958353 0.16500001 4.2424297e-39
0.013295408 -0.0096384464 0.16500001 6.269649e-39
0.014490457 -0.0095056621 0.16500001 7.2834393e-39
0.015652308 -0.0094060767 0.16500001 8.1124811e-39
0.016614985 -0.0096384464 0.16500001 8.6656535e-39
-0.0044975244 -0.0083991373 0.16500001 3.595631e-39
-0.0031696933 -0.0085761808 0.16500001 3.5034353e-39
-0.0028156054 -0.008664703 0.16500001 3.4112383e-39
0.0076521272 -0.0085097896 0.16500001 4.520097e-39
0.0082496507 -0.0080450494 0.16500001 4.9810765e-39
0.012764275 -0.0081778318 0.16500001 6.2700105e-39
0.015751895 -0.008310616 0.16500001 7.7444147e-39
-0.0044975244 -0.0075139171 0.16500001 3.8732997e-39
0.0078070406 -0.0074253953 0.16500001 4.9810793e-39
0.008382434 -0.0075139171 0.16500001 5.0732722e-39
0.012498708 -0.0075139171 0.16500001 6.0863409e-39
0.013029842 -0.0072483509 0.16500001 6.2700105e-39
0.015685504 -0.0075139175 0.16500001 7.2837995e-39
-0.0044975244 -0.0067172186 0.16500001 4.3353596e-39
0.0085152173 -0.0064516529 0.16500001 5.4424218e-39
0.0094446987 -0.0065844357 0.16500001 5.6260872e-39
0.010573355 -0.0065180445 0.16500001 6.0852633e-39
0.012764275 -0.0069827847 0.16500001 6.3629292e-39
0.013295408 -0.0067172186 0.16500001 6.454043e-39
0.014490455 -0.0067172186 0.16499999 6.6387902e-39
0.015685504 -0.0067172186 0.16500001 7.0997684e-39
0.018518209 -0.0065401751 0.16500001 8.943318e-39
0.019436624 -0.006684023 0.16500001 9.8638352e-39
-0.0043204804 -0.0057434761 0.16500001 5.1654846e-39
0.0014334532 -0.005522171 0.16500001 4.5226417e-39
0.0021416298 -0.005522171 0.16500001 4.6151961e-39
0.0069218199 -0.0053893882 0.16500001 5.2580306e-39
0.0076742582 -0.0055664326 0.16500001 5.9973949e-39
0.008382434 -0.0056549548 0.16500001 6.0895891e-39
0.0093414225 -0.005713969 0.16500001 5.7182856e-39
0.01069286 -0.0058142939 0.16500001 6.1785407e-39
0.011542671 -0.005601841 0.16500001 6.362932e-39
0.012498708 -0.0055221715 0.16500001 6.6387972e-39
0.013295408 -0.0057877372 0.16500001 6.915024e-39
0.01443355 -0.0058067064 0.16500001 6.5473162e-39
0.015685504 -0.0056928922 0.16500001 6.9153771e-39
0.016614985 -0.005522171 0.16500001 7.3759951e-39
0.017430652 -0.0055790781 0.16500001 8.1135587e-39
0.018341167 -0.0056549548 0.16500001 8.5745355e-39
0.019370234 -0.0056881499 0.16500001 9.4032172e-39
-0.015916869 -0.0045926897 0.16500001 1.3091429e-38
0.0014113226 -0.0047918642 0.16500001 4.7095511e-39
0.0023186738 -0.0045926897 0.16500001 5.1701692e-39
0.008382434 -0.0048582559 0.16500001 5.9966746e-39
0.014888805 -0.0040615578 0.16500001 6.5483994e-39
0.015685504 -0.0044599064 0.16499999 6.8235416e-39
0.016614987 -0.0044599068 0.16500001 7.0997684e-39
0.017367424 -0.0044599068 0.16499999 7.6529421e-39
0.018227352 -0.0045926897 0.16500001 8.390147e-39
0.019270647 -0.0048582559 0.16500001 9.1273505e-39
0.021740412 -0.0043802368 0.16500001 1.0232979e-38
0.022590224 -0.0044029998 0.16500001 1.0417372e-38
0.015619112 -0.0034640338 0.16500001 6.8235472e-39
0.017544467 -0.0035304253 0.16500001 7.3763552e-39
0.021793526 -0.0035304253 0.16500001 1.0140785e-38
0.022324659 -0.0035304253 0.16500001 1.0140785e-38
0.002495718 -0.0022025949 0.16500001 6.5530994e-39
0.007984085 -0.0022025949 0.16500001 7.9317038e-39
0.008382434 -0.0024681611 0.16500001 8.0238967e-39
0.0090463497 -0.0024681611 0.16500001 6.6409636e-39
0.079952516 -0.0022025949 0.16500001 3.2271693e-39
0.080572166 -0.0023796391 0.16500001 4.1487557e-39
0.081014775 -0.002645205 0.16500001 5.2543676e-39
-0.026273949 -0.0011403305 0.16500001 1.5397395e-38
-0.025344467 -0.0011403305 0.16500001 1.5028972e-38
-0.024946118 -0.0011403305 0.16500001 1.5028972e-38
0.0021416298 -0.0019370288 0.16500001 6.6456594e-39
0.007984085 -0.0019370288 0.16500001 7.6561987e-39
0.0085152173 -0.0014058966 0.16500001 7.102662e-39
0.0091791321 -0.0018042459 0.16500001 6.8253563e-39
0.023475444 -0.0014058966 0.16500001 9.7727256e-39
0.024183622 -0.0011403305 0.16500001 9.7730843e-39
0.080572166 -0.0018485067 0.16500001 3.4108473e-39
-0.027070647 -0.00087476429 0.16500001 1.4751306e-38
-0.026362469 -0.00069772016 0.16500001 1.5213003e-38
-0.025477249 -0.00087476429 0.16500001 1.5121168e-38
0.016747769 -0.0003436321 0.16500001 6.7317145e-39
0.017146118 -0.00047641512 0.16500001 6.8239101e-39
0.022749564 -0.00055608491 0.16500001 9.4964974e-39
0.023420118 -0.00064239395 0.16500001 9.6808887e-39
0.024183622 -0.00087476429 0.16500001 9.7730843e-39
0.025777018 -0.0003436321 0.16500001 1.0049671e-38
0.01743824 0.00029372663 0.16500001 7.1012159e-39
0.021793526 0.00018750015 0.16500001 9.4964974e-39
0.022541938 0.00054963579 0.16499999 9.588693e-39
0.023227584 0.00039995305 0.16500001 9.6808887e-39
0.085529402 0.00018750015 0.16500001 9.3927326e-39
0.0097102653 0.0016481138 0.16500001 9.1298925e-39
0.016482202 0.0017808968 0.16500001 7.6551169e-39
0.016614985 0.0020464628 0.16500001 7.7465937e-39
0.017013336 0.0020464628 0.16500001 7.8387893e-39
0.014446195 0.0037283821 0.16500001 7.4718075e-39
0.078757465 0.0031087273 0.16500001 4.8809384e-39
0.0069218199 0.0047021243 0.16500001 7.4707285e-39
0.007187386 0.0047021243 0.16500001 7.8387893e-39
0.006789037 0.0054988228 0.16500001 8.2097383e-39
0.0094446987 0.0054988228 0.16500001 8.0235463e-39
0.0085152173 0.0062955208 0.16500001 7.8409529e-39
0.009134871 0.006384043 0.16500001 6.917196e-39
0.077429637 0.0066938698 0.16500001 7.1847305e-39
0.078491896 0.0063619125 0.16500001 6.1723778e-39
0.079421379 0.006561087 0.16500001 5.162909e-39
0.074906759 0.0077561345 0.16500001 5.9869188e-39
0.075614937 0.0076233516 0.16500001 7.0007022e-39
0.077031285 0.0070922193 0.16500001 7.6457072e-39
0.074906759 0.0085528325 0.16500001 5.617423e-39
0.07517232 0.0089511825 0.16500001 6.1702296e-39
0.078491896 0.0089511825 0.16500001 3.2250155e-39
0.074906759 0.0092167482 0.16500001 5.5252246e-39
0.075544104 0.0093229758 0.16500001 6.5390079e-39
0.076367371 0.0092167482 0.16500001 7.3673225e-39
0.077296853 0.0093495315 0.16500001 5.5262937e-39
0.078434996 0.0093305623 0.16500001 3.2250141e-39
0.075836241 0.010411795 0.16500001 5.1593161e-39
0.076234587 0.010411795 0.16500001 5.1593175e-39
0.077330053 0.0103786 0.16500001 4.6065025e-39
0.078306004 0.010358683 0.16499999 3.4101243e-39
0.036930796 0.011606843 0.16500001 6.9164589e-39
0.037727494 0.011518321 0.16500001 6.0866982e-39
0.07464119 0.011739627 0.16500001 4.0544203e-39
0.075614929 0.011474061 0.16500001 4.4235573e-39
0.076367371 0.011474061 0.16500001 4.4235545e-39
0.077243738 0.011447504 0.16500001 4.0551349e-39
0.078093551 0.011341278 0.16500001 3.5026814e-39
0.075703457 0.012669108 0.16500001 4.33424e-39
0.073578924 0.01452807 0.16500001 5.9883565e-39
0.072782226 0.015590334 0.16500001 5.4333849e-39
0.072317488 0.016320642 0.16500001 5.1571553e-39
0.071587175 0.017714862 0.16500001 4.8830921e-39
0.07056918 0.018245995 0.16500001 4.8838166e-39
0.0180756 0.019839393 0.16500001 1.005185e-38
0.0180756 0.020104958 0.16500001 9.8674589e-39
-0.041145653 0.035242226 0.16500001 1.0973809e-38
-0.040880088 0.035242226 0.16500001 1.0881614e-38
0.033681337 -0.037483122 0.16600001 1.9359982e-38
0.033414159 -0.036280833 0.16600001 1.7607092e-38
0.033414159 -0.035345718 0.16600001 1.3457221e-38
0.033414159 -0.034544192 0.16600001 1.0691753e-38
0.0077652978 -0.016376251 0.16600001 5.9011747e-39
0.0085334266 -0.01661003 0.16600001 5.5327593e-39
0.0066965949 -0.015307549 0.16600001 4.7919783e-39
0.0072309463 -0.015307549 0.16600001 5.7167891e-39
0.0083664423 -0.015708312 0.16600001 5.070712e-39
-0.00024997164 -0.014238847 0.16600001 3.8646494e-39
0.005360717 -0.014506022 0.16600001 3.222873e-39
0.0065630069 -0.014773198 0.16600001 4.4239203e-39
0.0074217855 -0.014544191 0.16600001 4.9792366e-39
-0.0033224917 -0.013170144 0.16600001 2.7622648e-39
-0.0024319061 -0.01343732 0.16600001 3.1288837e-39
-0.00024997164 -0.013526377 0.16600001 2.8540974e-39
1.7203998e-05 -0.013526379 0.16600001 2.854096e-39
0.0074446863 -0.013651061 0.16600001 3.9643813e-39
-0.0031889037 -0.012546734 0.16600001 2.5789539e-39
-0.0025209645 -0.012546734 0.16600001 2.5789525e-39
-0.00024997164 -0.012546734 0.16600001 2.3952787e-39
1.7203998e-05 -0.012769381 0.16600001 2.3027229e-39
0.0048263655 -0.012368618 0.16600001 2.9488098e-39
0.005093541 -0.012902969 0.16600001 2.8566142e-39
0.016314918 -0.012101442 0.16600001 1.0047868e-38
-0.0024207737 -0.011433502 0.16600001 2.580393e-39
-0.0014077327 -0.011032739 0.16600001 2.4881974e-39
0.0048263655 -0.011834266 0.16600001 3.1339199e-39
0.0076317098 -0.011032739 0.16600001 3.9636792e-39
0.0084777661 -0.011032739 0.16600001 4.3324617e-39
0.0092347637 -0.011032739 0.16600001 4.6090458e-39
0.01070423 -0.011032739 0.16600001 5.0700226e-39
0.011572551 -0.011166326 0.16600001 5.5310007e-39
0.012396342 -0.011210856 0.16600001 5.7153906e-39
0.015513392 -0.011032739 0.16600001 9.0344346e-39
0.016348315 -0.011433501 0.16600001 9.6794439e-39
0.017116446 -0.011478032 0.16600001 1.0232978e-38
-0.0043911943 -0.010231212 0.16600001 2.9499e-39
-0.0035896674 -0.0103648 0.16600001 3.1332095e-39
-0.0021202012 -0.010498388 0.16600001 2.7647843e-39
-0.0015190559 -0.010631977 0.16600001 2.580393e-39
-0.00078432297 -0.010765564 0.16600001 2.580393e-39
0.0065630069 -0.010765564 0.16600001 4.0547888e-39
0.0074981218 -0.010498388 0.16600001 4.056235e-39
0.0084777651 -0.010498388 0.16600001 4.5172117e-39
0.009401748 -0.010464991 0.16600001 4.6097647e-39
0.010526113 -0.010498388 0.16600001 5.0703827e-39
0.011505757 -0.010498388 0.16600001 5.7153934e-39
0.012574459 -0.010498388 0.16600001 5.992339e-39
0.013910338 -0.010231212 0.16600001 7.1905248e-39
0.014177514 -0.010231212 0.16600001 7.5593046e-39
0.016448505 -0.010765564 0.16600001 9.2188259e-39
0.017116446 -0.010498387 0.16600001 9.7719997e-39
-0.0045915763 -0.0096300673 0.16600001 3.3186825e-39
-0.0035451381 -0.0096078021 0.16600001 3.0420957e-39
0.0075871809 -0.0095187435 0.16600001 4.2420696e-39
0.0084777661 -0.0094296858 0.16600001 4.7952433e-39
0.0094574094 -0.0094296858 0.16600001 4.7952405e-39
0.010526112 -0.0094296858 0.16600001 5.255497e-39
0.011505757 -0.0094296848 0.16600001 5.8090309e-39
0.012374077 -0.0094964784 0.16600001 5.9930635e-39
0.017116446 -0.0096968608 0.16600001 9.2188259e-39
-0.045669831 -0.0080938069 0.16600001 1.410954e-38
0.0077652978 -0.0088953339 0.16600001 4.5200956e-39
0.0086049931 -0.0085136546 0.16600001 4.9807164e-39
0.0094574103 -0.0084500415 0.16600001 5.1647447e-39
0.010398886 -0.0085136546 0.16600001 5.3487745e-39
0.011238581 -0.0088953339 0.16600001 5.7168367e-39
0.012307283 -0.0088953339 0.16600001 6.0856192e-39
0.016582094 -0.0080938069 0.16600001 7.9280871e-39
0.0087672062 -0.0074926624 0.16600001 5.1654678e-39
0.0094574094 -0.00738134 0.16600001 5.5338902e-39
0.010169879 -0.0073813391 0.16600001 5.6253669e-39
0.012307283 -0.0070251049 0.16600001 6.0863423e-39
0.016421787 -0.0074525857 0.16600001 7.560385e-39
0.017517209 -0.0074258684 0.16600001 8.2979486e-39
0.0187195 -0.0070251054 0.16600001 9.1273505e-39
0.019253852 -0.0072922804 0.16600001 9.7719997e-39
0.0024217849 -0.0064907535 0.16600001 4.5219131e-39
0.011772932 -0.006624341 0.16600001 6.1774589e-39
0.012440871 -0.006624341 0.16600001 6.5462414e-39
0.016314918 -0.006624341 0.16600001 7.4681907e-39
0.017606268 -0.0066243415 0.16600001 8.205753e-39
0.018452324 -0.006757929 0.16600001 8.943318e-39
-0.0047919578 -0.0054220511 0.16600001 5.2587592e-39
0.0018874336 -0.0059564025 0.16600001 4.5226361e-39
0.0024217849 -0.0059564025 0.16600001 4.6148318e-39
0.0073645338 -0.0058228145 0.16600001 5.6278921e-39
0.011772932 -0.0059564025 0.16600001 6.4551276e-39
0.012440871 -0.0059564025 0.16600001 6.6384371e-39
0.016448505 -0.0059564025 0.16600001 7.4681907e-39
0.017383622 -0.0059564025 0.16600001 8.0213645e-39
0.0017538457 -0.0046205241 0.16600001 4.8021083e-39
0.02235309 -0.004567089 0.16600001 1.0232981e-38
0.08097142 -0.0031510587 0.16600001 6.2702964e-39
0.081238598 -0.0034182342 0.16600001 7.1007633e-39
0.080704249 -0.0027502952 0.16600001 4.5182459e-39
0.0025553727 -0.0019487684 0.16600001 6.5534609e-39
0.0084777651 -0.00185971 0.16600001 7.8398669e-39
-0.027234711 -0.00061289029 0.16600001 1.4935698e-38
-0.0266113 -0.00061289029 0.16600001 1.5121168e-38
0.085691519 -0.00043477325 0.16600001 9.116866e-39
0.086047761 -0.00061289029 0.16600001 9.2090617e-39
0.0099027026 0.00085657556 0.16600001 8.4859622e-39
0.016448505 0.00058939995 0.16600001 6.9175463e-39
0.017205505 0.00063392922 0.16600001 7.101576e-39
0.0088339997 0.0017916901 0.16600001 8.3004892e-39
0.0093683517 0.0015245145 0.16600001 8.7611114e-39
0.059597369 0.0037955074 0.16600001 6.9132009e-39
0.014177514 0.0041962708 0.16600001 7.3803307e-39
0.058795843 0.0043298583 0.16600001 5.9012224e-39
0.059463784 0.0043298588 0.16600001 6.1770834e-39
0.0072309463 0.0052649733 0.16600001 7.7473154e-39
0.0093683517 0.0052649733 0.16600001 8.115742e-39
0.075895086 0.0053985612 0.16600001 8.7542156e-39
0.076162264 0.0055321488 0.16600001 8.9371663e-39
0.078166083 0.0057993243 0.16600001 7.3698434e-39
0.075627908 0.0068680267 0.16600001 7.8279503e-39
0.078166083 0.0063336757 0.16600001 7.1847319e-39
0.079635546 0.0063336757 0.16600001 5.8972301e-39
0.080704249 0.0068680267 0.16600001 4.2427506e-39
0.074737318 0.0077586123 0.16600001 6.5404471e-39
0.075627908 0.0071352026 0.16600001 7.0921803e-39
0.076607555 0.0071352026 0.16600001 7.4602412e-39
0.075627908 0.010474897 0.16600001 4.6061437e-39
0.036620267 0.011944364 0.16600001 7.2852414e-39
0.037421796 0.011944364 0.16600001 6.7320676e-39
0.038356908 0.011677188 0.16600001 5.9944998e-39
0.069349281 0.011410012 0.16600001 3.501608e-39
0.074826382 0.011677188 0.16600001 3.5938009e-39
0.07536073 0.011410012 0.16600001 4.1469746e-39
0.036620267 0.012478715 0.16600001 7.2852414e-39
0.037243679 0.012567773 0.16600001 7.0086545e-39
0.06948287 0.012612302 0.16600001 3.2253827e-39
0.07019534 0.012656831 0.16600001 3.5008864e-39
0.06948287 0.0133693 0.16600001 3.0406327e-39
0.070360735 0.013432913 0.16600001 3.3161364e-39
0.06948287 0.014081768 0.16600001 2.8569617e-39
0.070685163 0.014081768 0.16600001 3.3157748e-39
0.072956152 0.015684821 0.16600001 5.4333849e-39
0.073490508 0.015417646 0.16600001 5.9865558e-39
0.071887448 0.017822227 0.16600001 4.9745703e-39
0.071085922 0.018089402 0.16600001 4.9756493e-39
-0.040860668 0.035455819 0.16600001 1.051391e-38
0.034153022 -0.037708927 0.16700001 1.963549e-38
0.0084840395 -0.015534156 0.16700001 4.4246363e-39
-0.0065231309 -0.014145433 0.16700001 3.3136351e-39
-0.0058063702 -0.014145433 0.16700001 3.6802596e-39
0.00485544 -0.014593408 0.16700001 3.221794e-39
0.0053930101 -0.014190231 0.16700001 3.0392062e-39
0.0078120767 -0.014324623 0.16700001 4.2402507e-39
0.0083496468 -0.014459014 0.16700004 3.963668e-39
0.0091560027 -0.014459016 0.16700001 3.8711164e-39
-0.0067023207 -0.013383876 0.16700001 2.6707866e-39
-0.0058959657 -0.013518268 0.16700001 2.9462917e-39
-0.0040144697 -0.013383876 0.16700001 3.03813e-39
0.00485544 -0.013383876 0.16700001 2.8555352e-39
0.0083496468 -0.013518269 0.16700001 4.0547902e-39
-0.0065679285 -0.012980697 0.16700001 2.7629836e-39
-0.0040144697 -0.012846304 0.16700001 2.7629836e-39
-0.0037456844 -0.012622316 0.16700001 2.5789525e-39
0.0042730724 -0.012622316 0.16700001 2.5800273e-39
-0.0034768994 -0.011547175 0.16700001 2.7640654e-39
0.00073406799 -0.011278391 0.16700001 2.395999e-39
0.0015404234 -0.011367987 0.16700001 2.4881946e-39
0.0022571837 -0.011278391 0.16700001 2.4881946e-39
0.0042282748 -0.011815961 0.16700001 2.7651388e-39
0.0078120767 -0.011636771 0.16700001 3.8714822e-39
0.0083496468 -0.011636771 0.16700001 4.0558734e-39
0.0095741116 -0.011606907 0.16700003 4.424656e-39
0.010634321 -0.011636771 0.16700001 4.7934385e-39
0.011306283 -0.011636771 0.16700001 5.1622168e-39
0.015875632 -0.011905557 0.16700001 9.5868896e-39
-0.0050896099 -0.010427238 0.16700001 2.8577016e-39
-0.0021329736 -0.010830416 0.16700001 2.6725887e-39
-0.0018641885 -0.010292846 0.16700001 2.9491756e-39
0.0006892705 -0.010696024 0.16700001 2.580393e-39
0.0015404234 -0.010696024 0.16700001 2.6725887e-39
0.0024363738 -0.010722903 0.16700001 2.765143e-39
0.0096935723 -0.010830416 0.16700001 4.6090444e-39
-0.046348128 -0.0092177056 0.16700001 1.3555284e-38
-0.0053583956 -0.0094864899 0.16700001 3.4108782e-39
-0.0032081141 -0.0094864909 0.16700001 3.1342913e-39
-0.002468955 -0.0095536867 0.16700001 2.9499e-39
-0.046213735 -0.008680135 0.16700001 1.3925148e-38
-0.045676164 -0.008680135 0.16700001 1.3648559e-38
-0.0053583956 -0.0084113497 0.16700001 3.7803824e-39
0.010768713 -0.008276958 0.16700001 5.4409715e-39
0.011485473 -0.0085905399 0.16700001 5.8093925e-39
0.016950771 -0.0084113507 0.16700001 8.204674e-39
0.017488342 -0.0084113497 0.16700001 8.481621e-39
0.018261101 -0.0083777513 0.16700003 9.0347948e-39
0.019101053 -0.0081425654 0.16700001 9.8634764e-39
-0.0053583956 -0.0074258051 0.16700001 4.3353582e-39
0.010499928 -0.0074258051 0.16700001 5.6253641e-39
0.011843854 -0.0070674247 0.16700001 5.901951e-39
0.016861176 -0.0071570198 0.16700001 7.6525806e-39
0.017542098 -0.0073362095 0.16700001 8.1135573e-39
0.018294699 -0.0076049953 0.16700001 8.7589268e-39
0.019101053 -0.0076049948 0.16700001 9.5872497e-39
-0.0053583952 -0.0067986394 0.16700001 4.8892509e-39
0.016771583 -0.0066194497 0.16700001 7.4681907e-39
-0.016570574 -0.0056851013 0.16700003 1.2815561e-38
-0.015649024 -0.0056851013 0.16700003 1.2447139e-38
-0.0053583956 -0.0058130943 0.16700001 5.5342643e-39
0.00082366302 -0.005992284 0.16700001 4.5219131e-39
0.0013612333 -0.005992284 0.16700001 4.5219145e-39
0.016950771 -0.005992284 0.16700001 7.5603864e-39
-0.016512979 -0.0049171438 0.16700001 1.2907398e-38
-0.01557223 -0.0047827512 0.16700001 1.263153e-38
0.0021675886 -0.0016917229 0.16700001 6.737855e-39
0.056865364 -0.0011541527 0.16700001 7.8376865e-39
0.057268541 -0.0011541527 0.16700001 7.4685439e-39
0.05585742 -0.00061658246 0.16700001 7.4689026e-39
0.056730971 -0.0006165824 0.16700003 7.468904e-39
0.057537321 -0.00061658246 0.16700001 6.8224542e-39
0.058164496 -0.00043739239 0.16700001 5.0692967e-39
0.016771583 0.00090653315 0.16700001 7.101939e-39
0.056798168 0.00025696916 0.16700001 6.8235318e-39
0.057575725 0.00053535367 0.16700003 6.731339e-39
0.058392558 0.00062960299 0.16700004 5.0703827e-39
0.05915004 0.00086173567 0.16700001 4.3313771e-39
0.0091560027 0.0018024835 0.16700001 8.4848804e-39
0.016861176 0.0016232934 0.16700001 7.5629213e-39
0.058433276 0.0016680909 0.16700001 6.4540318e-39
0.05915004 0.0016680909 0.16700001 5.7150262e-39
0.057806112 0.0026088387 0.16700001 6.9168092e-39
0.058433279 0.0025192436 0.16700003 6.9153701e-39
0.059217237 0.0026088387 0.16700001 6.5444254e-39
0.058702063 0.0032360042 0.16700001 6.3621977e-39
0.059257556 0.0034151941 0.16700001 6.1770848e-39
0.01426292 0.0044903345 0.16700001 7.4725264e-39
0.01426292 0.0050279046 0.16700001 7.3796119e-39
0.052967981 0.0052966899 0.16700001 4.9799835e-39
0.053371157 0.0055654752 0.16700001 4.7952335e-39
0.054446299 0.0055654743 0.16700004 5.1640133e-39
0.055387046 0.0056998674 0.16700001 5.717187e-39
0.075814717 0.0056998674 0.16700001 8.8456966e-39
0.076486677 0.00583426 0.16700001 8.7527793e-39
0.053505551 0.0063718306 0.16700001 4.7952307e-39
0.054311905 0.0063718311 0.16700001 5.0718176e-39
0.074739575 0.0069094007 0.16700001 8.5701845e-39
0.075545929 0.0066406154 0.16700003 8.6602221e-39
0.076544277 0.0066790134 0.16700003 7.3680497e-39
0.080652848 0.0066406154 0.16700001 4.7941265e-39
0.074605182 0.0075141671 0.16700001 7.463481e-39
0.07527715 0.0071781855 0.16700001 8.0159289e-39
0.07527715 0.0082533257 0.16700001 5.6174202e-39
0.069408678 0.010672391 0.16700001 4.9745745e-39
0.070304617 0.010806784 0.16700001 4.4224825e-39
0.075545929 0.010537999 0.16700001 3.4086893e-39
0.070304617 0.011478747 0.16700001 4.1462558e-39
0.074739575 0.011747533 0.16700001 3.3164979e-39
0.07527715 0.011478747 0.16700001 3.501608e-39
0.037916012 0.012553887 0.16700001 6.4554807e-39
0.038184799 0.012016318 0.16700001 6.0866982e-39
0.070707798 0.012553887 0.16700001 3.5008864e-39
0.071514152 0.012822673 0.16700001 3.039188e-39
0.071514152 0.013449837 0.16700001 3.1313836e-39
0.07285808 0.015779309 0.16700001 5.5255749e-39
0.073664442 0.01537613 0.16700001 5.7099689e-39
0.072589293 0.016720057 0.16700001 5.4333793e-39
0.071782939 0.017929589 0.16700001 5.0667631e-39
0.072051726 0.017660804 0.16700001 4.7901762e-39
0.03417727 -0.037303805 0.16800003 1.889715e-38
0.034087136 -0.03649262 0.16800003 1.6776972e-38
0.034087136 -0.035636373 0.16800001 1.2350519e-38
0.034087136 -0.034960385 0.16800001 1.096834e-38
0.0048845145 -0.014275202 0.16800001 2.9466504e-39
-0.0062016654 -0.013193624 0.16800001 2.6704293e-39
0.0038029361 -0.013193624 0.16800001 2.7629808e-39
0.004208528 -0.013464019 0.16800001 2.6711439e-39
-0.00647206 -0.012788031 0.16800001 2.5796742e-39
-0.0040385081 -0.012247242 0.16800001 2.5796742e-39
0.0086700395 -0.012382439 0.16800001 4.0555119e-39
0.0092108287 -0.012247242 0.16800001 4.3324575e-39
0.0078588556 -0.011976847 0.16800001 3.7792837e-39
0.0085348422 -0.011976847 0.16800001 4.1480691e-39
0.010022013 -0.011976847 0.16800001 4.5168488e-39
0.011373986 -0.011976848 0.16800003 5.1618581e-39
-0.0062016654 -0.01035448 0.16800001 3.1346458e-39
-0.0057960735 -0.010489677 0.16800001 3.0424502e-39
-0.0032949229 -0.010557276 0.16800001 3.041374e-39
-0.0026189364 -0.010557275 0.16800001 2.8569813e-39
-0.0062016654 -0.0095432959 0.16800003 3.5956296e-39
-0.0059312708 -0.0095432959 0.16800003 3.5034339e-39
-0.0032273242 -0.0098136906 0.16800001 3.0420957e-39
-0.002686535 -0.0098136906 0.16800001 2.9499e-39
-0.0063098231 -0.0084076393 0.16800001 4.1502439e-39
-0.0059312708 -0.0084617175 0.16800003 4.0576881e-39
-0.0063368627 -0.0074702711 0.168 4.7041393e-39
-0.0059312708 -0.0074702706 0.16800003 4.4275538e-39
-0.0062016654 -0.0064788237 0.16800003 5.4424274e-39
-0.005823113 -0.0064067184 0.16800001 5.3498717e-39
0.00055820053 -0.0065689553 0.16800001 4.0602161e-39
0.0013693845 -0.0065689553 0.16800003 4.0602161e-39
0.086543694 -0.0011610637 0.16800001 9.4870807e-39
0.086678892 -0.00089066912 0.16800001 9.4863632e-39
0.0089404341 0.0015428822 0.16800001 7.9313507e-39
0.0092108287 0.001002093 0.16800001 7.5636472e-39
0.0092108287 0.005058012 0.16800001 8.390531e-39
0.053690743 0.005058012 0.16800001 4.9792661e-39
0.054231532 0.005058012 0.16800001 5.2562103e-39
0.054907519 0.0066803796 0.16800001 5.3484045e-39
0.055177912 0.006409985 0.16800001 5.4406001e-39
0.07762067 0.0068606422 0.16800003 7.6457114e-39
0.078161456 0.0066803796 0.16800001 7.7386259e-39
0.074375935 0.0077619581 0.16800001 6.8177612e-39
0.07491672 0.0080323527 0.16800001 7.0947041e-39
0.075322315 0.0085731419 0.16800001 5.8947259e-39
0.069779225 0.01019551 0.16800001 4.7898231e-39
0.070139751 0.010375773 0.16800003 4.4228427e-39
0.075457513 0.010465904 0.16800003 3.2243009e-39
0.075457513 0.011006693 0.16800001 2.8562386e-39
0.038683843 0.012088272 0.16800001 5.902307e-39
0.072753564 0.015873795 0.16800001 5.6177705e-39
0.073497146 0.015468203 0.16800001 5.5255749e-39
0.074105538 0.015062612 0.16800001 5.6184922e-39
0.071942382 0.016955374 0.16800001 5.4340981e-39
0.072483167 0.016955374 0.16800001 5.2497069e-39
0.071807183 0.017496163 0.16800001 4.8823691e-39
0.072618365 0.017225768 0.16800001 5.157514e-39
0.071401596 0.018172149 0.16800001 4.6065109e-39
0.035040163 -0.03838633 0.17 1.9543295e-38
0.03456204 -0.037208516 0.16900001 1.8252104e-38
0.035040163 -0.037565492 0.17 1.8528705e-38
0.03456204 -0.036528505 0.16900001 1.5947204e-38
0.035040163 -0.036197424 0.17 1.2903686e-38
0.03456204 -0.035621826 0.16900001 1.1797718e-38
0.035040163 -0.035650194 0.17 1.1336751e-38
0.0041882452 -0.014405508 0.16900001 3.1299613e-39
-0.0059665758 -0.013272157 0.16900001 2.6704293e-39
-0.0046065552 -0.013408158 0.16900001 2.8548177e-39
-0.0062754946 -0.012529849 0.17 2.5800329e-39
-0.0046065552 -0.01286415 0.16900001 2.8551793e-39
0.0075425743 -0.012512505 0.16940001 3.6870853e-39
0.008177639 -0.01286415 0.16900001 3.8718353e-39
0.01064717 -0.012163106 0.16933334 4.6086843e-39
0.011235777 -0.012393042 0.17 4.9771081e-39
0.010962163 -0.0080152247 0.17 5.4409729e-39
0.011509391 -0.0085624522 0.17 5.7179157e-39
0.010962163 -0.0074679977 0.17 5.7175598e-39
0.087602839 -0.0016213148 0.16900001 9.2108525e-39
0.088418856 -0.0011679748 0.16900001 8.9342698e-39
0.087738842 -0.00089597068 0.16900001 9.1179436e-39
0.0092656547 0.0007360538 0.16900001 7.3792559e-39
0.0079056341 0.001280062 0.16900001 8.2082907e-39
0.0087216469 0.001280062 0.16900001 7.6547638e-39
0.052786317 0.004544111 0.16900001 5.9948529e-39
0.05354904 0.0043249493 0.16957143 5.3491248e-39
0.054466724 0.0044797943 0.17 5.3487632e-39
0.054962348 0.0050881188 0.16900001 5.3484045e-39
0.078818336 0.0059390669 0.17 8.1996041e-39
0.079442725 0.0056321272 0.16900001 7.6464303e-39
0.080733635 0.0059390669 0.17 7.0010609e-39
0.081828088 0.0064862939 0.17 5.5306097e-39
0.075906664 0.0091681806 0.16900001 5.7096158e-39
0.07536266 0.010664203 0.16900001 3.408332e-39
0.075671777 0.011684952 0.17 2.6714914e-39
0.038370095 0.01288557 0.16900001 6.3632851e-39
0.039144367 0.012779406 0.17 5.902307e-39
0.072642617 0.012976238 0.16900001 2.7633213e-39
0.075090654 0.012613566 0.16900001 3.6849189e-39
0.038484424 0.013150631 0.16950001 6.1788939e-39
0.072642617 0.013384243 0.16900001 3.039188e-39
0.075090654 0.013248242 0.16900001 4.6976275e-39
-0.0056243516 -0.013566836 0.171 2.854459e-39
0.010751423 -0.013429224 0.171 4.4239343e-39
0.011026647 -0.013291612 0.171 4.5161299e-39
-0.0060371864 -0.012603554 0.171 2.5800329e-39
-0.0056243516 -0.012741165 0.171 2.6718698e-39
0.0096505312 -0.012603554 0.171 4.424293e-39
0.010567942 -0.012649424 0.171 4.5164886e-39
0.011026647 -0.012741165 0.171 4.6083255e-39
0.011026647 -0.0072367042 0.171 5.8097554e-39
0.008549639 0.00074476446 0.171 7.3796119e-39
0.0082744155 0.0012952106 0.171 7.8395082e-39
0.053961452 0.003496995 0.171 5.5338748e-39
0.054511897 0.003496995 0.171 5.4416791e-39
0.054603636 0.0041391826 0.171 5.2572879e-39
0.055154085 0.0042309235 0.171 5.4416791e-39
0.079281978 0.0065244487 0.171 7.8301013e-39
0.0759793 0.0090014571 0.171 6.9088779e-39
0.075704075 0.010928018 0.171 4.0515392e-39
0.075704075 0.011478464 0.171 2.8551638e-39
0.075428851 0.012395875 0.171 2.9473567e-39
0.075428851 0.013267414 0.171 3.7771117e-39
0.035452399 -0.037453771 0.17200001 1.6961353e-38
0.035452399 -0.036900107 0.17200001 1.4748305e-38
0.0097069666 -0.013480075 0.17200001 4.3310198e-39
0.010260631 -0.013507757 0.17200001 4.3317387e-39
0.0099837985 -0.012815676 0.17200001 4.5161299e-39
0.0083228033 0.00074911979 0.17200001 7.7473126e-39
0.0077691381 0.0013027849 0.17200001 8.3919631e-39
0.080576114 0.0035174454 0.17200001 7.6460744e-39
0.081406608 0.0035174454 0.17200001 5.1582427e-39
0.080852941 0.0040711104 0.17200001 7.3698434e-39
0.081406608 0.0040711104 0.17200001 5.5273784e-39
0.075593121 0.0082235988 0.17200001 6.1723918e-39
0.073839851 0.010899647 0.17200001 3.4086907e-39
0.076146789 0.010715093 0.17200001 5.4330289e-39
0.073793709 0.011684006 0.17200001 2.947714e-39
0.07420896 0.011684006 0.17200001 2.8555184e-39
0.075593121 0.011684006 0.17200001 2.9473539e-39
0.035936959 -0.039202958 0.17300001 1.9359266e-38
0.036215402 -0.039202958 0.17300001 1.9082679e-38
0.035936959 -0.038367633 0.17300001 1.8621268e-38
0.035936959 -0.037578713 0.17300002 1.6131953e-38
0.035936959 -0.036696982 0.17300001 1.1889181e-38
0.036215402 -0.03655776 0.17300001 1.096723e-38
0.081879906 0.0038163376 0.17300001 5.3426312e-39
0.076311067 0.0085498532 0.17300001 6.6337259e-39
0.074826039 0.0098492494 0.17300002 5.160042e-39
0.075197294 0.0099420631 0.17300001 5.0678449e-39
0.076589502 0.0093851788 0.17300001 6.8163193e-39
0.07477963 0.010498947 0.17300001 3.8696689e-39
0.075382926 0.010591761 0.17300002 4.6979834e-39
0.076032624 0.01077739 0.17300001 6.1709471e-39
0.07484924 0.011403884 0.17300001 2.9477126e-39
0.075336516 0.011519901 0.17299999 3.1317437e-39
0.076032624 0.011055832 0.17300001 4.6972618e-39
0.074826039 0.012262414 0.17300002 2.7633213e-39
0.075336516 0.012308821 0.17300001 2.7633213e-39
0.075336516 0.013283367 0.17299999 3.0395481e-39
0.03670479 -0.039429564 0.17400001 1.8990837e-38
0.076752163 0.0091593768 0.17400001 6.4489787e-39
0.077032216 0.0097194798 0.17400001 6.9999875e-39
0.075912006 0.010279583 0.17400001 5.4348268e-39
0.076472111 0.010419609 0.17400001 6.539731e-39
0.075071856 0.013220124 0.17400001 2.855517e-39
0.036634076 -0.038576473 0.17500001 1.7883692e-38
0.036634076 -0.037402883 0.17500001 1.3088429e-38
0.079728223 0.0066770678 0.17500001 8.3818401e-39
0.076629952 0.0086486954 0.17500001 6.7259215e-39
0.036843412 -0.038608059 0.17600001 1.7791477e-38
0.081741795 0.0043074228 0.17600001 8.7527751e-39
0.082449973 0.0044490579 0.17600001 8.1074056e-39
0.080750346 0.0055821403 0.17600001 9.0297179e-39
0.081600159 0.0055821403 0.17600001 8.9368034e-39
0.080183811 0.0064319517 0.17600001 8.3836394e-39
0.084057964 0.0064684968 0.177 6.8166696e-39
0.076642931 0.0098311976 0.17600001 5.0671261e-39
0.077285975 0.0095746499 0.17650001 5.525942e-39
0.037548576 -0.039333276 0.17800002 1.8068438e-38
0.037548576 -0.038473811 0.178 1.5486586e-38
0.037548576 -0.037900832 0.178 1.2258317e-38
0.081954457 0.0043563708 0.178 8.9371677e-39
0.077084132 0.0095131816 0.178 6.3571418e-39
0.038047623 -0.040706649 0.17900001 1.9083039e-38
0.081646614 0.0047169602 0.17900001 8.5691069e-39
0.082126781 0.0048129931 0.17900001 9.3052286e-39
0.080974385 0.0056772903 0.17900001 8.201046e-39
0.081694633 0.0053891912 0.17900001 8.8456924e-39
0.082510911 0.0053891912 0.17900001 9.1211932e-39
0.084143475 0.0059653893 0.17900001 7.9230172e-39
0.082440734 0.0045501729 0.18000001 8.5680279e-39
0.083454713 0.0048398818 0.18000001 8.9368048e-39
0.08403413 0.0048398818 0.18000001 8.6605794e-39
0.083744422 0.0054192985 0.18000001 8.7527751e-39
0.038472738 -0.040578835 0.18100001 1.8713856e-38
0.038472738 -0.039704882 0.18100001 1.733086e-38
0.038472738 -0.03868527 0.18100001 1.3365376e-38
0.038978219 -0.039533675 0.182 1.6039404e-38
0.038978219 -0.038752533 0.18200001 1.2073928e-38
0.039192386 -0.041469026 0.18300001 1.899119e-38
0.039192386 -0.040585414 0.18300001 1.8345383e-38
0.039486922 -0.039554536 0.18300001 1.4933416e-38
0.085581966 0.0056568887 0.18300001 8.5683852e-39
0.08661285 0.0066877678 0.18300001 6.8166696e-39
0.086368412 0.0052720783 0.185 8.7527751e-39
0.040134251 -0.042298526 0.186 1.89912e-38
0.040134251 -0.041500222 0.186 1.8437601e-38
0.040134251 -0.0408017 0.186 1.7699281e-38
0.087134629 0.005450259 0.186 8.5691027e-39
0.040500514 -0.042601183 0.18700001 1.8991197e-38
0.040651001 -0.041322038 0.18699999 1.7791845e-38
0.040651001 -0.040419117 0.18700001 1.4656831e-38
0.041389965 -0.043284956 0.18900001 1.8991565e-38
0.041389965 -0.042980764 0.18900001 1.8899001e-38
0.041914765 -0.043361075 0.19000001 1.8807164e-38
0.041710895 -0.042698503 0.19000001 1.8529456e-38
0.041608959 -0.041679159 0.19000001 1.6777686e-38
0.041608959 -0.040761746 0.19000001 1.3273543e-38
0.042355973 -0.04258142 0.192 1.7884401e-38
0.042135369 -0.041744813 0.19100001 1.622415e-38
0.042135369 -0.040976282 0.19100001 1.3272468e-38
0.089945428 0.0071711857 0.192 7.4613188e-39
0.042887207 -0.044201043 0.193 1.8807171e-38
0.042887207 -0.043735094 0.193 1.8530199e-38
0.042887207 -0.042647883 0.193 1.7330864e-38
0.090569206 0.0064319558 0.193 7.8308216e-39
0.09072452 0.0070532197 0.193 7.4613188e-39
0.043343604 -0.042478554 0.19400001 1.6223791e-38
0.043265544 -0.041619889 0.19400001 1.2903686e-38
0.043645486 -0.04434523 0.19500001 1.8438364e-38
0.043645486 -0.043403678 0.19500001 1.7976597e-38
0.043959338 -0.042462125 0.19500001 1.5301476e-38
0.04418477 -0.045519024 0.19600001 1.8531316e-38
0.04418477 -0.044572648 0.19600002 1.8253972e-38
0.04418477 -0.043468535 0.19600001 1.7699647e-38
0.04418477 -0.042995341 0.19600001 1.6224151e-38
-0.0034673519 -0.05748285 0.19700001 2.1245697e-38
0.044727273 -0.045434192 0.19700001 1.8439109e-38
-0.0031662735 -0.058093317 0.19800001 2.0695047e-38
-0.0025289147 -0.058093317 0.19800001 2.1248221e-38
-0.0031662735 -0.057774637 0.19800001 2.0692523e-38
-0.0023164616 -0.057562184 0.19800001 2.0597811e-38
-0.0018915558 -0.057137281 0.19800001 2.0503813e-38
-0.0022102352 -0.056659259 0.19800001 2.0134312e-38
-0.0018915558 -0.056818601 0.19800001 1.9858444e-38
0.093712263 0.0069172666 0.19800001 6.9088653e-39
0.093712263 0.0075546252 0.19800001 6.8159494e-39
0.045408398 -0.045321338 0.2 1.8437984e-38
0.045408398 -0.044355646 0.2 1.7699282e-38
0.045408398 -0.043711849 0.2 1.5670979e-38
0.046416253 -0.045511071 0.20300001 1.8345033e-38
0.046416253 -0.044530887 0.20300001 1.6039761e-38
0.046644904 -0.047376946 0.20400001 1.8715704e-38
0.046644904 -0.046556108 0.20400001 1.8438371e-38
0.04697324 -0.044586085 0.20400001 1.5025609e-38
0.0472035 -0.047609184 0.20500001 1.88079e-38
0.0472035 -0.046619345 0.205 1.8714218e-38
0.0472035 -0.045464538 0.20500001 1.7699282e-38
0.048229057 -0.045795098 0.208 1.6500738e-38
0.048460927 -0.048538145 0.20900001 1.8623509e-38
0.048460927 -0.047528993 0.20900001 1.8622022e-38
0.048460927 -0.046519842 0.20900001 1.8068066e-38
0.048585065 -0.01249533 0.21100001 1.2168736e-38
0.04949775 -0.047528803 0.21200001 1.8437578e-38
0.04949775 -0.046675771 0.21200001 1.6500738e-38
0.049156539 -0.013066368 0.21200001 1.2814105e-38
0.048815325 -0.012042731 0.21200001 1.1892149e-38
0.049156539 -0.01255455 0.21200001 1.207654e-38
0.049731229 -0.049467102 0.21300001 1.8714625e-38
0.049731229 -0.048438638 0.21300001 1.8529822e-38
0.049731229 -0.013128001 0.21300001 1.226201e-38
0.049388409 -0.012099536 0.21300001 1.1799953e-38
0.05030914 -0.047632754 0.21400002 1.7515256e-38
0.05030914 -0.046943896 0.21400002 1.5763173e-38
0.049660046 -0.011387858 0.21466668 1.1432606e-38
0.050431669 -0.012617602 0.21600001 1.1800309e-38
0.050431669 -0.011400826 0.21600001 1.134041e-38
0.051014408 -0.050396062 0.21700001 1.8714625e-38
0.051014408 -0.049522914 0.21700001 1.8438001e-38
0.051014408 -0.048999023 0.21700001 1.8528714e-38
0.051014408 -0.013199907 0.21700001 1.1985062e-38
0.051600367 -0.049224827 0.21800001 1.8620186e-38
0.051600367 -0.048523091 0.21800001 1.7330857e-38
0.051600367 -0.04782135 0.21800001 1.539439e-38
0.0512495 -0.012558997 0.21800001 1.1708114e-38
0.0512495 -0.01150639 0.21800001 1.1156019e-38
0.051837068 -0.050508063 0.21900001 1.8530217e-38
0.051837068 -0.049803104 0.21900001 1.8621654e-38
0.051837068 -0.014202761 0.21900001 1.290738e-38
0.051837068 -0.013497803 0.21900001 1.1985779e-38
0.051837068 -0.011382932 0.21900001 1.0971627e-38
0.052427854 -0.049322344 0.22000001 1.7975871e-38
0.052427854 -0.048437122 0.22000001 1.5394389e-38
0.051954769 -0.0072185141 0.22100002 9.6812488e-39
0.052310467 -0.0075742118 0.22100002 9.4968575e-39
0.051954769 -0.0066849673 0.22100002 9.4968575e-39
0.052310467 -0.0066849673 0.22100002 9.3124663e-39
0.053021859 -0.0065071187 0.22100002 9.0369556e-39
0.053142779 -0.051430583 0.223 1.8530217e-38
0.053142779 -0.050533295 0.223 1.8528724e-38
0.052547164 -0.013325398 0.22200002 1.1616997e-38
0.052547164 -0.012789438 0.22200002 1.134041e-38
0.052547164 -0.01189617 0.22200002 1.1063823e-38
0.052783862 -0.0062070899 0.223 9.2202706e-39
0.053322237 -0.0062070899 0.223 8.9436838e-39
0.053142779 -0.0054892567 0.223 8.7592897e-39
0.053741612 -0.049137533 0.22400001 1.4381673e-38
0.053381085 -0.013265185 0.22400001 1.1524801e-38
0.053381085 -0.012363869 0.22400001 1.1063823e-38
0.053381085 -0.011642816 0.22400001 1.0879432e-38
0.052660037 -0.0055138725 0.22400001 9.0358794e-39
0.053981531 -0.05225398 0.22500001 1.8714981e-38
0.053981531 -0.051348642 0.22500001 1.8621299e-38
0.053981531 -0.050624371 0.22500001 1.8252107e-38
0.053981531 -0.049719032 0.22500001 1.5948273e-38
0.00038545433 -0.044649132 0.22500001 1.5536035e-38
0.053981531 -0.011694794 0.22500001 1.0787236e-38
0.0018421481 -0.045211319 0.22600001 1.1139392e-38
0.0018421481 -0.044847574 0.22600001 1.0862803e-38
0.053857703 -0.013929241 0.22600001 1.1893584e-38
0.052878167 -0.023246525 0.22700001 1.5027528e-38
0.053730659 -0.023307417 0.22700001 1.5857288e-38
0.054096013 -0.02312474 0.22700001 1.6041679e-38
0.052707665 -0.022467103 0.22700003 1.5304473e-38
0.053730659 -0.022394031 0.22700001 1.5581419e-38
0.054278687 -0.022394031 0.22700001 1.5673253e-38
0.052999951 -0.021663321 0.22700001 1.5304829e-38
0.053730659 -0.021480644 0.22700001 1.5120438e-38
0.05427869 -0.021480644 0.22700001 1.5120078e-38
0.05427869 -0.020567259 0.22700001 1.4475068e-38
0.055068247 -0.050198473 0.22800002 1.4657897e-38
0.055068247 -0.021575272 0.22800002 1.4843491e-38
0.055068247 -0.020657863 0.22800002 1.401409e-38
0.054701284 -0.014052509 0.22800002 1.1893584e-38
0.054701284 -0.013502063 0.22800002 1.1524801e-38
0.054701284 -0.012584652 0.22800002 1.1156019e-38
0.05530978 -0.052261509 0.22900002 1.8529103e-38
0.05530978 -0.05152436 0.22900002 1.8067716e-38
0.055921488 -0.050823901 0.23 1.5210708e-38
0.05551368 -0.022500822 0.22933334 1.5304829e-38
0.055921488 -0.02176453 0.23 1.4751295e-38
0.05629167 -0.021579439 0.23 1.4566904e-38
0.055615634 -0.020609483 0.22950001 1.3737143e-38
0.055551302 -0.014175776 0.23 1.1893584e-38
0.055551302 -0.013435409 0.23 1.1248214e-38
0.055551302 -0.01232486 0.23 1.0971627e-38
0.05530978 -0.0119027 0.22900002 1.0879432e-38
0.056164626 -0.053647425 0.23100001 1.8438389e-38
0.056164626 -0.052160252 0.23100001 1.8344303e-38
0.056164626 -0.051788457 0.23100001 1.751489e-38
0.056350522 -0.022416847 0.23100001 1.5120078e-38
0.056164626 -0.020557884 0.23100001 1.3276165e-38
0.056164626 -0.01423741 0.23100001 1.1616997e-38
0.056164626 -0.012006654 0.23100001 1.0787236e-38
0.057154566 -0.021767085 0.23200001 1.4290317e-38
0.056894034 -0.053402588 0.23400001 1.8437613e-38
0.058023896 -0.021954732 0.23400001 1.3921535e-38
0.056894034 -0.014045691 0.23400001 1.1708114e-38
0.056894034 -0.013480759 0.23400001 1.1431887e-38
0.056894034 -0.012539206 0.23400001 1.0879432e-38
0.057760149 -0.053289261 0.23600002 1.8067716e-38
0.057760149 -0.052529581 0.23600002 1.6316701e-38
0.057760149 -0.012266538 0.23600002 1.0879432e-38
0.061482579 -0.0052015143 0.23600002 8.1149993e-39
0.058004897 -0.05427796 0.23700002 1.8345792e-38
0.058004897 -0.053896513 0.23700002 1.8437237e-38
0.058004897 -0.021473303 0.23700002 1.3460556e-38
0.058318801 -0.014255775 0.23750001 1.1523722e-38
0.058318801 -0.013491267 0.23750001 1.1339691e-38
0.058341313 -0.012590677 0.23733334 1.0879432e-38
0.059015758 -0.012753551 0.23800001 1.0418454e-38
0.057100464 -0.0050923713 0.23800001 8.3905072e-39
0.059359048 -0.0050781071 0.23733334 7.8380537e-39
0.06048432 -0.0050709751 0.23700002 8.0224463e-39
0.057675052 -0.0043262532 0.23800001 8.2061159e-39
0.058632702 -0.0043262532 0.23800001 8.2071949e-39
0.059359048 -0.0043141348 0.23733334 7.930608e-39
0.06048432 -0.0043080756 0.23700002 7.8384124e-39
0.06162867 -0.0043080756 0.23700002 7.8384124e-39
0.062200844 -0.0043080756 0.23700002 8.3915834e-39
0.057531405 -0.0035122528 0.23800002 8.2061159e-39
0.058666475 -0.0034610331 0.23775002 8.3905072e-39
0.059401959 -0.003596799 0.23725 8.1146391e-39
0.060484316 -0.0035451769 0.237 7.7458566e-39
0.06162867 -0.0037359016 0.23700002 7.8384124e-39
0.062200844 -0.0039266264 0.23700002 8.6670941e-39
0.059648398 -0.02242385 0.23900001 1.3368361e-38
0.057725053 -0.020885177 0.23900001 1.2907383e-38
0.059263729 -0.013576476 0.23900001 1.0694322e-38
0.056763381 -0.0043444308 0.23900001 8.5748984e-39
0.055801712 -0.0039597624 0.23900001 8.2983115e-39
0.056494117 -0.0038058949 0.23900001 8.2061159e-39
0.056571048 -0.0028057569 0.23900001 8.1139203e-39
0.058352858 -0.020972563 0.24000001 1.25386e-38
0.059371773 -0.054030381 0.24100001 1.7238303e-38
0.059371773 -0.053254608 0.24100001 1.4380947e-38
0.058983885 -0.021447835 0.24100001 1.2907383e-38
0.059618123 -0.055228315 0.24200001 1.8437244e-38
0.059618123 -0.054644071 0.24200001 1.8068069e-38
0.059618123 -0.021731578 0.24200001 1.2722991e-38
0.060255591 -0.053696558 0.24300002 1.4657534e-38
0.060255591 -0.022016931 0.24300002 1.25386e-38
0.059473377 -0.021234719 0.24300002 1.25386e-38
0.060255591 -0.021625826 0.24300002 1.2077622e-38
0.061247453 -0.056170627 0.24700001 1.8344676e-38
0.061247453 -0.055574313 0.24700001 1.7514893e-38
0.061495416 -0.056797192 0.24800001 1.8345423e-38
0.06189457 -0.054801423 0.24800001 1.4656462e-38
0.062144145 -0.056224685 0.24900001 1.7883672e-38
0.062892869 -0.056496501 0.252 1.6869873e-38
0.062328044 -0.058756698 0.25300002 1.8530222e-38
0.062983207 -0.058988936 0.25400001 1.8438026e-38
0.064889468 -0.060382377 0.26000002 1.8253988e-38
0.066231988 -0.034702279 0.26200002 1.8531313e-38
0.065638192 -0.061502397 0.26300001 1.8346196e-38
0.066312671 -0.061736245 0.264 1.8161805e-38
0.065638192 -0.060232509 0.26300001 1.8436887e-38
0.065638192 -0.059809212 0.26300001 1.8343947e-38
0.065638192 -0.057692729 0.26300001 1.2906193e-38
0.067587391 -0.036241896 0.264 1.9084487e-38
0.066908076 -0.035258025 0.26300001 1.8715704e-38
0.067587391 -0.035392087 0.264 1.88079e-38
0.066908076 -0.034623083 0.26300001 1.8531313e-38
0.067587391 -0.034754727 0.264 1.8531313e-38
0.067587391 -0.033692464 0.264 1.7793748e-38
0.066563852 -0.061543576 0.26500002 1.8161792e-38
0.066815041 -0.060919572 0.266 1.8344691e-38
0.066815041 -0.058564886 0.266 1.3458644e-38
0.068527542 -0.036516458 0.266 1.9268878e-38
0.068527542 -0.035446145 0.266 1.8900096e-38
0.068527542 -0.034803957 0.266 1.8439118e-38
0.068527542 -0.03394771 0.266 1.7517161e-38
0.067066222 -0.060503989 0.26700002 1.8159907e-38
0.067066222 -0.059859388 0.26700002 1.714646e-38
0.069214895 -0.036653738 0.26700002 1.9176683e-38
0.069214895 -0.035579402 0.26700002 1.8715704e-38
0.069214895 -0.034505069 0.26700002 1.7793748e-38
0.067748755 -0.062240299 0.26800001 1.7701162e-38
