# .PCD v0.7 - Point Cloud Data file format
VERSION 0.7
FIELDS x y z rgb
SIZE 4 4 4 4
TYPE F F F F
COUNT 1 1 1 1
WIDTH 1020
HEIGHT 1
VIEWPOINT 0 0 0 1 0 0 0
POINTS 1020
DATA ascii
0.040305667 -0.03025935 0.155 1.8807903e-38
-0.0043029292 -0.029407874 0.1542 1.5811925e-38
-0.0036193449 -0.029733645 0.15400001 1.5627894e-38
-0.0027281197 -0.029386202 0.155 1.5718642e-38
-0.0004828785 -0.029510938 0.155 1.8760023e-38
0.001320077 -0.02949167 0.15425001 1.7468201e-38
0.0035086612 -0.029510938 0.155 1.8203968e-38
0.0043319166 -0.029461047 0.15499999 1.7836625e-38
0.0055044307 -0.029510938 0.15499999 1.7746226e-38
0.0064310385 -0.029475302 0.15499999 1.7286683e-38
0.010648887 -0.029479474 0.15483333 1.4979267e-38
0.011491741 -0.029510938 0.15499999 1.3699312e-38
0.012489627 -0.029510938 0.15499999 1.4534086e-38
0.013553329 -0.029466793 0.15489998 1.4162776e-38
0.014439071 -0.029291004 0.15450001 1.1776128e-38
0.028520061 -0.029072681 0.15400001 6.7337996e-39
0.039921701 -0.029568404 0.15400001 1.8716067e-38
0.040582273 -0.029494321 0.15475 1.8531676e-38
-0.0044698752 -0.028357388 0.15483333 1.5444218e-38
-0.0035609428 -0.02833423 0.1543 1.5904115e-38
-0.0026277357 -0.02833627 0.15476924 1.5994869e-38
-0.0014807634 -0.02801411 0.155 1.6640231e-38
-0.0004828785 -0.028637789 0.155 1.7924862e-38
0.00076447771 -0.02801411 0.155 1.7833022e-38
0.0013528962 -0.028389689 0.15450001 1.8300482e-38
0.0035086612 -0.028388318 0.155 1.6817075e-38
0.0043818108 -0.028388312 0.15499999 1.7094022e-38
0.0054212739 -0.028596209 0.15499999 1.8019579e-38
0.007102605 -0.028295936 0.15450001 1.7473235e-38
0.0097454423 -0.02801411 0.155 1.379689e-38
0.010830441 -0.028353347 0.1547143 1.2788848e-38
0.011491741 -0.02838832 0.15499999 1.1781882e-38
0.012466947 -0.028422337 0.15499999 1.1512122e-38
0.013653823 -0.02854077 0.15499999 1.1236249e-38
0.014340471 -0.02839095 0.15433334 9.6700034e-39
0.015631249 -0.028576957 0.15400001 7.1893758e-39
0.028489532 -0.028669741 0.15450001 6.6416026e-39
0.029640771 -0.02857542 0.155 6.918544e-39
0.040305667 -0.028762523 0.155 1.8346922e-38
-0.0034644066 -0.02741304 0.15442857 1.5624649e-38
-0.0026819636 -0.02741373 0.15442859 1.6085265e-38
-0.0015538307 -0.027255028 0.15400001 1.6544799e-38
-0.00097548665 -0.027833372 0.15400001 1.6638795e-38
0.00076447771 -0.027265698 0.155 1.6814549e-38
0.0035086612 -0.027390432 0.155 1.6264613e-38
0.004257075 -0.027265696 0.15499999 1.6544442e-38
0.0077991383 -0.027283685 0.15475 1.6827501e-38
0.0085817026 -0.027257897 0.15425001 1.6276843e-38
0.0096335625 -0.02740418 0.1548 1.297037e-38
0.010721296 -0.027538078 0.15466668 1.1141553e-38
0.011491741 -0.027265698 0.15499999 9.7658073e-39
0.012240155 -0.027390432 0.155 9.3977423e-39
0.0138166 -0.027302478 0.15450001 9.1229547e-39
-0.0032062426 -0.026428824 0.15400001 1.4977836e-38
-0.0026837355 -0.026326202 0.15425003 1.4977117e-38
-0.0017190719 -0.026841925 0.15400001 1.6635918e-38
-0.0002319014 -0.026098341 0.15400001 1.6360047e-38
0.00051474693 -0.026255028 0.15471427 1.6081297e-38
0.0012990589 -0.026196534 0.15499999 1.6262448e-38
0.0020118337 -0.026143074 0.155 1.6721987e-38
0.0042258911 -0.026298994 0.15499999 1.6917543e-38
0.0086611249 -0.026338544 0.15444446 1.5814421e-38
0.0095434254 -0.026380559 0.15474999 1.2787782e-38
0.010244385 -0.026392546 0.155 9.6718223e-39
0.011616477 -0.026267812 0.15499999 9.5850118e-39
0.013896218 -0.026470132 0.15400001 9.1243938e-39
-0.0033864363 -0.025629759 0.15466668 1.3966565e-38
-0.0027511455 -0.025402823 0.15489998 1.3781094e-38
-0.00042013422 -0.025477432 0.15475 1.6731354e-38
0.00043070727 -0.025575414 0.15433334 1.6176015e-38
0.0014038762 -0.025401536 0.1547143 1.5895468e-38
0.0020118337 -0.025353083 0.155 1.6171695e-38
0.0041857976 -0.025305565 0.15499999 1.6086703e-38
0.011574898 -0.025602555 0.155 8.9403627e-39
0.013896218 -0.025850479 0.15400001 9.0336387e-39
-0.0004828785 -0.024770983 0.155 1.6269657e-38
1.5960335e-05 -0.024611169 0.15400001 1.6455489e-38
0.0013416796 -0.024553563 0.15433335 1.5810115e-38
0.0020118337 -0.024438353 0.155 1.5995942e-38
0.0043818108 -0.024438353 0.15499999 1.5163304e-38
0.0052549597 -0.02427204 0.155 1.5161504e-38
-0.00023340726 -0.023773098 0.155 1.5624643e-38
0.00033463971 -0.023655131 0.15400003 1.6271813e-38
0.0013820423 -0.023574911 0.15425003 1.6736031e-38
0.0020118337 -0.023648363 0.155 1.6460525e-38
0.0044566523 -0.023398889 0.15499999 1.4239189e-38
0.0053796954 -0.023440471 0.15499999 1.4885278e-38
-0.00023340726 -0.022276271 0.155 1.2952772e-38
0.00034644268 -0.022793517 0.15400001 1.4517578e-38
0.0013700007 -0.02260978 0.15418184 1.5257303e-38
0.0035086612 -0.022525743 0.155 1.4241706e-38
0.0043818108 -0.022525743 0.15499999 1.3873645e-38
0.005338117 -0.022692056 0.155 1.4426463e-38
0.06594719 -0.022628276 0.15400001 8.2943361e-39
-0.00023340726 -0.021777328 0.155 1.2034416e-38
0.00026382209 -0.021141106 0.15400001 1.2034416e-38
0.0011933036 -0.021327002 0.15400001 1.3505947e-38
0.0041323393 -0.021777328 0.155 1.4429336e-38
0.016205514 -0.021367997 0.15475 5.9883285e-39
0.00051168381 -0.020893244 0.15400001 1.2034416e-38
0.0011337871 -0.020523757 0.15433335 1.2861658e-38
0.016231693 -0.020529972 0.155 6.3563921e-39
0.00043184939 -0.019033145 0.155 1.0933467e-38
-0.00023340726 -0.018367888 0.155 1.0197703e-38
1.6063974e-05 -0.018783674 0.155 1.047393e-38
0.0010106781 -0.01847522 0.15450001 1.0749796e-38
-0.00023340726 -0.017785789 0.155 1.0014749e-38
0.027032889 -0.014696701 0.15400001 1.1707332e-38
0.026041443 -0.0085001597 0.15400001 6.2706761e-39
0.080844745 0.017140178 0.155 1.849274e-39
0.079638965 0.028699011 0.15499999 3.2325671e-39
0.080179483 0.028782167 0.155 3.3251229e-39
0.078724235 0.029863209 0.155 3.3254788e-39
0.07963302 0.029649375 0.15499999 3.2329273e-39
0.080179483 0.029447421 0.155 3.3251229e-39
0.077767931 0.030777937 0.155 3.5095142e-39
0.078516342 0.030528465 0.15499999 3.6013497e-39
0.079347923 0.03011268 0.155 3.4173171e-39
0.027956842 0.031110564 0.155 8.1182601e-39
0.028488727 0.031258874 0.15450001 7.9331486e-39
0.077661738 0.031469658 0.154625 3.8783009e-39
0.078197084 0.031278465 0.15459999 4.2467247e-39
-0.02493106 0.033605278 0.155 1.0606827e-38
-0.040148806 0.039842058 0.155 9.8699799e-39
-0.040148806 0.040091529 0.155 1.0053648e-38
-0.039899334 0.040340997 0.155 9.8685379e-39
-0.036257055 0.044582009 0.155 8.8554678e-39
-0.035533588 0.044706747 0.155 8.9473033e-39
-0.033163611 0.044831481 0.155 8.5785208e-39
-0.032789402 0.044831481 0.155 8.2100984e-39
-0.040148806 0.045330424 0.155 8.8551105e-39
-0.039397907 0.045559634 0.15457144 8.4859664e-39
-0.038651977 0.045579895 0.15499999 8.3019339e-39
-0.037778832 0.045829367 0.155 9.3160858e-39
-0.036406737 0.045361608 0.15499999 8.5785194e-39
-0.035408851 0.045413584 0.15499999 8.7629106e-39
-0.033246767 0.045663055 0.155 9.4093619e-39
-0.032633483 0.045361612 0.15499999 8.8569083e-39
-0.031916253 0.045080952 0.155 8.3959316e-39
-0.026427887 0.045829367 0.155 8.9473033e-39
-0.039230391 0.046045888 0.15433334 8.6710794e-39
-0.038713567 0.046066485 0.15475 8.8558279e-39
-0.037903566 0.046078838 0.155 9.2246105e-39
-0.036219634 0.046328306 0.155 8.670715e-39
-0.035408854 0.046411466 0.15499999 8.8551077e-39
-0.034535702 0.04645304 0.15499999 9.2238902e-39
-0.033444267 0.046453044 0.15499999 9.1320547e-39
-0.032851771 0.046328306 0.155 8.9480236e-39
-0.030419428 0.046827249 0.155 9.593393e-39
-0.029512258 0.046441708 0.15499999 9.0380584e-39
-0.028473552 0.046627678 0.155 8.5781635e-39
-0.027176302 0.046827249 0.155 8.3934107e-39
-0.026490254 0.046203569 0.155 8.762912e-39
0.053402908 0.046827249 0.155 2.7705324e-39
-0.038154747 0.04776445 0.15400001 8.6714367e-39
-0.037481278 0.047418337 0.15414287 8.5792425e-39
-0.036157265 0.047201455 0.155 8.762912e-39
-0.03544246 0.047318608 0.154875 8.6707164e-39
-0.034583077 0.047394443 0.15475 8.5785208e-39
-0.033496242 0.047326192 0.15499999 8.8551077e-39
-0.032789405 0.047326192 0.15499999 8.5788809e-39
-0.03041943 0.047326192 0.155 9.2249734e-39
-0.029541146 0.047359902 0.15492307 8.5785208e-39
-0.028423658 0.047326192 0.15499999 7.9331514e-39
-0.027612876 0.047513295 0.155 8.2097383e-39
0.051656608 0.047201455 0.155 3.04532e-39
0.053619079 0.04733457 0.15466668 2.9545579e-39
0.054297686 0.047516588 0.15400001 4.336398e-39
-0.039517991 0.048508033 0.15400001 7.9338716e-39
-0.03821671 0.048198208 0.15400001 8.3948498e-39
-0.0375764 0.048260178 0.15400003 8.3026542e-39
-0.036870874 0.04836436 0.15433334 8.2104585e-39
-0.035504956 0.048365172 0.15433334 8.025347e-39
-0.034505226 0.048377313 0.15453336 8.5781607e-39
-0.033496242 0.048448816 0.15499999 8.9469404e-39
-0.032581512 0.048448816 0.15499999 8.854386e-39
-0.031666782 0.04857355 0.15499999 8.4863224e-39
-0.030643951 0.048523657 0.15499999 7.7498405e-39
-0.029613474 0.048267774 0.15455556 7.9335143e-39
-0.028535699 0.048411082 0.15479998 7.656926e-39
-0.027508929 0.048448816 0.15499999 7.8409557e-39
-0.026614992 0.048573554 0.15499999 8.485965e-39
-0.025679475 0.048723232 0.155 8.2090166e-39
-0.02493106 0.048823021 0.155 7.8409529e-39
0.050908197 0.04857355 0.155 2.8616434e-39
0.051656611 0.048448812 0.15499999 2.5857768e-39
0.052450381 0.048482835 0.15499999 3.7832284e-39
0.053545464 0.048395358 0.15499999 5.3490968e-39
0.054224506 0.048416864 0.15450001 5.809698e-39
-0.038154747 0.049003758 0.15400001 8.1182629e-39
-0.037596442 0.049260814 0.15412502 7.9338716e-39
-0.03646452 0.049389839 0.15477777 7.7494804e-39
-0.035428271 0.049375549 0.15400001 8.6707164e-39
-0.034550767 0.049371976 0.1540667 8.3022926e-39
-0.033445377 0.049375553 0.15400003 7.7491203e-39
-0.032546323 0.049471833 0.15435717 8.3937694e-39
-0.031802006 0.049553044 0.15475 8.6703549e-39
-0.030564122 0.049482081 0.15462501 8.0249869e-39
-0.029704917 0.049409352 0.15400003 8.0249883e-39
-0.028610863 0.049476288 0.15444446 8.1182657e-39
-0.027557278 0.049589023 0.15489998 8.302657e-39
-0.026511043 0.049571432 0.15499999 8.1179042e-39
-0.025596317 0.049571432 0.15499999 7.7487587e-39
-0.024712773 0.049602613 0.15499999 7.7483986e-39
-0.023933176 0.049820904 0.155 7.6558456e-39
0.050908197 0.049321961 0.155 2.6772522e-39
0.051620968 0.049500149 0.15499999 5.4416623e-39
0.052488185 0.049571432 0.15499999 7.9309149e-39
0.053340539 0.049571436 0.155 7.8383479e-39
0.054151323 0.049321961 0.155 6.639446e-39
-0.035408851 0.050569315 0.155 8.6707164e-39
-0.034436822 0.050490927 0.15400003 8.5803215e-39
-0.033445377 0.050490923 0.15400003 8.9498242e-39
-0.032536551 0.050490931 0.15400003 9.4086388e-39
-0.031643026 0.050497342 0.15440002 9.0394961e-39
-0.030729437 0.050553959 0.15480001 8.4859622e-39
-0.02972745 0.050490931 0.15400003 8.4856035e-39
-0.028679822 0.050473817 0.15410003 8.2090194e-39
-0.027569458 0.050523117 0.15441178 8.0253498e-39
-0.026511043 0.050569322 0.15499999 8.2097411e-39
-0.025596317 0.050569322 0.15499999 8.3019353e-39
-0.024681589 0.050569318 0.15499999 8.3941295e-39
-0.023683704 0.050569322 0.15499999 7.8409557e-39
-0.022644239 0.050735634 0.15499999 7.9331514e-39
0.029607324 0.050778791 0.15450001 6.3614985e-39
0.03000723 0.050738789 0.15400001 6.3614985e-39
-0.035408851 0.051068261 0.155 8.4863252e-39
-0.03446161 0.051482372 0.15400003 8.4870468e-39
-0.033409972 0.051411562 0.15400003 8.9483851e-39
-0.032536551 0.051358446 0.15400003 8.302657e-39
-0.031584758 0.051412277 0.15442859 8.4863238e-39
-0.030740175 0.051531561 0.15499999 8.5777991e-39
-0.02964483 0.051564999 0.15400003 8.4856035e-39
-0.028736001 0.051606309 0.15400003 7.8402355e-39
-0.027594492 0.051574659 0.15405884 8.2090194e-39
-0.026424292 0.051592827 0.15433335 8.4859664e-39
-0.025496027 0.051625084 0.15464287 8.4859664e-39
-0.024665665 0.051533449 0.15489998 8.3934121e-39
-0.023683704 0.051484041 0.15499999 8.025347e-39
-0.022561083 0.051484045 0.15499999 7.9331514e-39
-0.021474103 0.05160284 0.15499999 7.6565645e-39
-0.020523736 0.051816676 0.155 7.9324325e-39
0.029511508 0.051234514 0.15400001 6.453334e-39
0.030255092 0.051234514 0.15400001 6.3611383e-39
0.031449441 0.051567204 0.155 6.2689427e-39
-0.031916253 0.052066144 0.155 8.0260673e-39
-0.030419428 0.052190877 0.155 8.393768e-39
-0.029578734 0.052672107 0.15400001 8.1164636e-39
-0.028736003 0.052721679 0.15400003 8.0239079e-39
-0.027620627 0.05272169 0.15400003 8.2093781e-39
-0.026381314 0.052721683 0.15400003 8.301215e-39
-0.025257397 0.052656125 0.15410003 8.4856063e-39
-0.024380565 0.052539174 0.15430771 8.1171839e-39
-0.023593724 0.052567214 0.15464285 8.0249869e-39
-0.022561083 0.052398771 0.15499999 7.8405956e-39
-0.021438463 0.052398778 0.15499999 7.5643689e-39
-0.020523734 0.052398778 0.15499999 7.4721732e-39
-0.019525848 0.052398778 0.15499999 7.6565645e-39
-0.018611124 0.052398778 0.15499999 7.3799776e-39
-0.017727578 0.052440356 0.15499999 7.287782e-39
-0.016760878 0.052689824 0.155 7.4721732e-39
-0.029479587 0.05396099 0.15400001 8.3037332e-39
-0.028777311 0.053754438 0.15400003 8.3948498e-39
-0.027248831 0.053217407 0.15400001 8.1168238e-39
-0.026347518 0.053600468 0.15400003 8.025347e-39
-0.025265938 0.053630512 0.15400003 7.93315e-39
-0.024305472 0.053589199 0.15400003 8.0253456e-39
-0.023365663 0.053465273 0.15400003 8.1179014e-39
-0.022578487 0.053421006 0.15492307 7.9335115e-39
-0.021438463 0.053396657 0.15499999 7.5643689e-39
-0.020523734 0.053396661 0.15499999 7.3799776e-39
-0.01952585 0.053396661 0.15499999 7.287782e-39
-0.018611124 0.053396657 0.15499999 7.1033893e-39
-0.017696394 0.053396668 0.15499999 7.0108335e-39
-0.016698509 0.053396661 0.15499999 7.3796175e-39
-0.015731808 0.053438239 0.15499999 7.3799776e-39
-0.029479587 0.054456715 0.15400001 8.026426e-39
-0.028693551 0.054443523 0.15466668 8.4870454e-39
-0.026009524 0.054208852 0.15400001 7.6565645e-39
-0.0255138 0.054208852 0.15400001 7.4721732e-39
-0.022386452 0.054161709 0.155 7.6565645e-39
-0.021438463 0.054061919 0.155 7.3799776e-39
-0.020440578 0.054161709 0.155 7.3799762e-39
-0.019525848 0.054311391 0.15499999 7.1033879e-39
-0.018611122 0.054311395 0.15499999 6.6424098e-39
-0.017696394 0.054311391 0.15499999 6.7346054e-39
-0.016698509 0.054311395 0.15499999 7.3792559e-39
-0.015575889 0.054311384 0.15499999 7.102669e-39
-0.029371649 0.05520948 0.155 7.93315e-39
-0.019193221 0.055059802 0.155 6.8260822e-39
-0.018507177 0.055122171 0.155 6.3658243e-39
-0.017665211 0.055278085 0.15499999 6.3665431e-39
-0.016698509 0.055434007 0.15499999 7.1948633e-39
-0.015700625 0.055246901 0.15499999 7.0104734e-39
-0.025224626 0.058463816 0.15400003 6.1814246e-39
-0.024305476 0.058701348 0.15400003 6.2729014e-39
-0.023468941 0.05885626 0.15400001 5.9048377e-39
-0.029524049 0.059338525 0.15466668 6.2739832e-39
-0.02415056 0.059413951 0.15400001 5.8112043e-39
-0.023365663 0.059413951 0.15400001 5.9963159e-39
-0.022787321 0.059413951 0.15400001 5.7200877e-39
-0.018325809 0.059661806 0.15400003 5.4427848e-39
-0.01748308 0.059711386 0.15400001 5.0747197e-39
-0.0073017585 0.059633445 0.155 4.9814437e-39
-0.0066572912 0.059675019 0.155 4.8888893e-39
-0.0059712459 0.059799757 0.155 4.7041379e-39
-0.036698561 0.060622279 0.15400003 6.4576556e-39
-0.018201878 0.060157534 0.15400001 5.0736421e-39
-0.017334364 0.060570639 0.15400003 4.7970524e-39
-0.016532525 0.060567755 0.1544167 5.1658363e-39
-0.015573644 0.060428601 0.15440002 5.5346175e-39
-0.014817494 0.060502652 0.15425001 5.3505849e-39
-0.012459747 0.060818497 0.15400001 4.4286258e-39
-0.0074680727 0.0602987 0.15499999 4.7970524e-39
-0.0065533458 0.0602987 0.15499999 4.612301e-39
-0.0059088781 0.060361065 0.155 4.5197467e-39
0.011741213 0.060049228 0.155 4.7019799e-39
0.01236489 0.060049228 0.155 4.3331974e-39
-0.036584955 0.061314225 0.15400001 5.811926e-39
-0.022043735 0.061768636 0.15400001 5.5342573e-39
-0.021512602 0.061680112 0.15400003 5.5342587e-39
-0.01716912 0.061314225 0.15400001 4.3360743e-39
-0.016413732 0.061467659 0.15400003 4.6126612e-39
-0.01551671 0.06156208 0.15400003 4.7974112e-39
-0.0145769 0.061613724 0.15400003 4.5208229e-39
-0.013781678 0.061727326 0.15400001 4.427551e-39
-0.012450327 0.06151548 0.1543 4.5201054e-39
-0.011625927 0.061296582 0.15499999 4.6126598e-39
-0.010746838 0.061367862 0.15499999 4.5208243e-39
-0.0095386831 0.061346482 0.15499999 4.5215445e-39
-0.0084659569 0.061296582 0.15499999 4.3367945e-39
-0.0074680736 0.061296582 0.15499999 4.5204655e-39
-0.0065533454 0.061296582 0.15499999 4.2438786e-39
-0.0056386171 0.061296582 0.15499999 4.3357155e-39
-0.0049733608 0.06142132 0.155 4.2435199e-39
-0.034327809 0.062294465 0.155 5.6268145e-39
-0.022043735 0.062636152 0.15400001 4.7048568e-39
-0.021553075 0.062399399 0.15433334 5.3502262e-39
-0.020639187 0.062470913 0.15400001 5.2580306e-39
-0.016177675 0.062223047 0.15400001 4.3360743e-39
-0.0154754 0.062419273 0.15400003 4.2438772e-39
-0.014525263 0.062470913 0.15400003 3.9669302e-39
-0.013678402 0.062202394 0.15400001 4.0587685e-39
-0.012176522 0.062431145 0.15459999 4.6119423e-39
-0.011573056 0.062485162 0.15473334 4.6119423e-39
-0.010651804 0.062399592 0.15469231 4.7041379e-39
-0.0095885778 0.062419206 0.15499999 4.6126612e-39
-0.0084659578 0.06241921 0.15499999 4.2449576e-39
-0.0074680732 0.062419202 0.15499999 4.0602062e-39
-0.0065533458 0.06241921 0.15499999 3.8750961e-39
-0.0056386176 0.062419206 0.15499999 4.0591286e-39
-0.0046407324 0.062419202 0.15499999 3.9672918e-39
-0.0038091615 0.062627092 0.15499999 3.8750961e-39
0.0015128914 0.062793411 0.155 3.5045157e-39
-0.022436347 0.06366656 0.155 4.4279112e-39
-0.020624112 0.063336447 0.15450001 4.8892481e-39
-0.014731814 0.063131876 0.15400001 3.6907035e-39
-0.011385679 0.063131876 0.15400001 4.5208243e-39
-0.01036325 0.063348755 0.15400003 4.5215431e-39
-0.0095636584 0.06353154 0.15473333 4.336433e-39
-0.0084659578 0.063541837 0.15499999 4.2435199e-39
-0.0074680722 0.06354183 0.15499999 4.2435199e-39
-0.0065717879 0.063477904 0.15477778 3.6903461e-39
-0.0056232358 0.063494675 0.15458333 3.5059549e-39
-0.0046407324 0.06354183 0.15499999 3.5981491e-39
-0.0037260046 0.063541822 0.15499999 3.5985092e-39
-0.0026969358 0.063635379 0.15499999 3.5985106e-39
-0.0014807634 0.063791297 0.155 3.5063136e-39
-0.0004828785 0.063791297 0.155 3.414118e-39
0.00047936771 0.063613109 0.15499999 3.4133991e-39
0.0013465772 0.063541822 0.15499999 3.4126802e-39
0.002261305 0.063691512 0.155 3.3208433e-39
0.0030097186 0.063791297 0.155 3.2290078e-39
-0.022436347 0.064040765 0.155 4.4282671e-39
-0.020440578 0.064040765 0.155 4.6126612e-39
-0.0084659578 0.064040765 0.155 4.1524019e-39
-0.0074680727 0.064040765 0.155 5.2576704e-39
-0.0069691301 0.064040765 0.155 4.427551e-39
-0.0046407324 0.064040765 0.155 3.5055947e-39
-0.0037260046 0.064040765 0.155 3.5981505e-39
-0.0026033842 0.064040765 0.155 3.6907049e-39
-0.0014807634 0.064040765 0.155 3.5985092e-39
-0.0004828785 0.064040765 0.155 3.3222825e-39
0.00043184939 0.064040765 0.155 3.1382499e-39
0.0013465773 0.064040765 0.155 3.2290078e-39
0.0023444621 0.064040765 0.155 3.3212035e-39
0.0030097186 0.064040765 0.155 3.2290078e-39
0.025124241 -0.042255364 0.156 1.8162531e-38
0.024747619 -0.041753203 0.156 1.7701191e-38
0.025563631 -0.04162766 0.156 1.8255088e-38
0.0017737327 -0.038238071 0.156 2.0556024e-38
0.002526975 -0.038740233 0.156 2.0556024e-38
0.010812638 -0.038238071 0.156 2.0638856e-38
0.0113148 -0.038238071 0.156 2.0639575e-38
0.00051832909 -0.037735909 0.156 2.064822e-38
0.0014222197 -0.037836343 0.156 2.0556024e-38
0.0045356206 -0.037233751 0.156 2.0607533e-38
0.010661989 -0.037735913 0.156 2.0159877e-38
0.011601749 -0.037700046 0.156 2.0534413e-38
-0.00073707459 -0.036480509 0.156 1.9911374e-38
0.0036149912 -0.03673159 0.156 2.061041e-38
0.0047867014 -0.03698267 0.156 2.0327706e-38
0.010812638 -0.036857128 0.156 1.8852931e-38
0.011231107 -0.036898974 0.156 1.9130957e-38
0.0013831626 -0.035392493 0.156 2.0977396e-38
0.0024767588 -0.035325538 0.156 2.106419e-38
0.0031965235 -0.035518035 0.156 2.1064188e-38
0.004686269 -0.035425968 0.156 2.1426854e-38
0.013072365 -0.035476185 0.156 1.767342e-38
1.6167613e-05 -0.034220781 0.156 1.9954608e-38
0.0025771912 -0.034622509 0.156 2.1248221e-38
0.0031965238 -0.034555558 0.156 2.0879435e-38
0.004661161 -0.034471858 0.156 2.0785439e-38
0.0050377822 -0.034220781 0.156 2.078652e-38
0.0095572351 -0.034220781 0.156 2.0512814e-38
-0.0024946397 -0.033216458 0.156 1.8124738e-38
1.6167613e-05 -0.033718619 0.156 1.9307799e-38
0.004661161 -0.033467539 0.156 1.9862051e-38
0.0053202477 -0.033436153 0.156 2.0232274e-38
0.006293186 -0.033316888 0.156 1.9402156e-38
0.0072556618 -0.033467535 0.156 1.8663512e-38
0.0083018318 -0.033216458 0.156 1.7929178e-38
0.0094316946 -0.033593081 0.156 2.00486e-38
0.011565881 -0.033718619 0.156 1.6639859e-38
-0.0023942073 -0.032463215 0.156 1.8023181e-38
-0.00048599383 -0.032714296 0.156 1.75586e-38
0.004636053 -0.032613866 0.156 1.8849697e-38
0.0053725559 -0.032546911 0.156 1.9125206e-38
0.0062931855 -0.032546911 0.156 1.903229e-38
0.0070464276 -0.032546908 0.156 1.9588338e-38
-0.0060097701 -0.031835511 0.156 1.8154257e-38
-0.0056331488 -0.031835511 0.156 1.7319456e-38
-0.0023690993 -0.03162628 0.156 1.7008665e-38
-0.00061153423 -0.031458892 0.156 1.7377086e-38
0.0024014346 -0.031207813 0.156 1.8388724e-38
0.004661161 -0.031207813 0.156 1.8114655e-38
0.0053390795 -0.031609543 0.156 1.8480555e-38
0.006393618 -0.03176019 0.156 1.8940453e-38
0.0070464276 -0.031458892 0.156 1.9681973e-38
-0.0052565276 -0.030705651 0.156 1.6740368e-38
-0.0047543664 -0.03020349 0.156 1.5998477e-38
-0.0023690993 -0.030621955 0.156 1.6272176e-38
0.0016481923 -0.03045457 0.156 1.7929182e-38
0.0025269748 -0.03066978 0.156 1.774227e-38
0.0030291367 -0.030621959 0.156 1.8018138e-38
0.004661161 -0.030621959 0.156 1.7929185e-38
0.0051382147 -0.030705651 0.156 1.7559682e-38
0.0065442664 -0.030831192 0.156 1.8483788e-38
0.0070464276 -0.030831192 0.156 1.8854367e-38
0.03190342 -0.03020349 0.156 1.0235088e-38
0.03257297 -0.03020349 0.156 1.4106245e-38
0.033493597 -0.03020349 0.156 1.8161805e-38
0.034414228 -0.03020349 0.156 1.8991212e-38
0.035167471 -0.03020349 0.156 1.8254726e-38
-0.0052565276 -0.029450249 0.156 1.5632569e-38
-0.0047543664 -0.029826868 0.156 1.5813725e-38
-0.0023690993 -0.02970133 0.156 1.5810837e-38
0.0016481923 -0.029826868 0.156 1.7652951e-38
0.0025269748 -0.02970133 0.156 1.7191614e-38
0.0030291367 -0.02970133 0.156 1.7466762e-38
0.004661161 -0.029952409 0.156 1.7837707e-38
0.026128562 -0.02970133 0.156 6.3646612e-39
0.027635047 -0.029450249 0.156 6.1802699e-39
0.028639371 -0.029952409 0.156 6.917835e-39
0.029643694 -0.029629592 0.156 7.1940561e-39
0.030648015 -0.02970133 0.156 7.8397871e-39
0.03162095 -0.029732712 0.156 9.7744688e-39
0.032531124 -0.029732712 0.156 1.5304079e-38
0.033284366 -0.029826868 0.156 1.8438036e-38
0.035167471 -0.029826868 0.156 1.8991572e-38
0.040942326 -0.029450249 0.156 1.8623512e-38
0.041193407 -0.029450249 0.156 1.8531316e-38
-0.0053641335 -0.028517663 0.156 1.5354186e-38
-0.0046288259 -0.028571466 0.156 1.5168711e-38
-0.0022435589 -0.028822547 0.156 1.5811192e-38
-0.001825091 -0.02852962 0.156 1.6179255e-38
-0.00098815525 -0.028445926 0.156 1.6637713e-38
0.0015728682 -0.028295279 0.156 1.8481992e-38
0.0025269748 -0.02857147 0.156 1.746856e-38
0.0030291365 -0.028571468 0.156 1.6635562e-38
0.0055399435 -0.028345492 0.156 1.7928461e-38
0.0062931855 -0.02857147 0.156 1.8393399e-38
0.012821284 -0.028194845 0.156 1.004203e-38
0.013197905 -0.028320385 0.156 1.0041668e-38
0.016838577 -0.028697006 0.156 6.1791839e-39
0.017508125 -0.028697006 0.156 5.718926e-39
0.018093979 -0.028697006 0.156 5.7192876e-39
0.02487316 -0.028194845 0.156 5.6274493e-39
0.025375322 -0.028194845 0.156 5.6274493e-39
0.030480629 -0.028864393 0.156 7.3791648e-39
0.031694185 -0.028655162 0.156 1.3092096e-38
0.032405581 -0.028697006 0.156 1.7148005e-38
0.040942326 -0.028948087 0.156 1.8439118e-38
-0.0053402209 -0.027608991 0.156 1.4707373e-38
-0.004467417 -0.02751334 0.156 1.5165467e-38
-0.0022435589 -0.027316062 0.156 1.6083824e-38
0.0013971116 -0.027441598 0.156 1.7644671e-38
0.0024955899 -0.027472988 0.156 1.7740468e-38
0.0031546769 -0.027378831 0.156 1.682067e-38
0.0047867014 -0.0274416 0.156 1.6635915e-38
0.0053725559 -0.027441604 0.156 1.7003976e-38
0.0062931855 -0.027441604 0.156 1.7558949e-38
0.0072138146 -0.027357908 0.156 1.7287039e-38
0.012507433 -0.027378831 0.156 9.2144328e-39
0.013223013 -0.027491819 0.156 9.1225945e-39
0.02487316 -0.027692683 0.156 6.1795371e-39
0.025542706 -0.027692683 0.156 6.1795371e-39
-0.004063894 -0.02650005 0.156 1.4244593e-38
-0.0022435589 -0.026437281 0.156 1.5344461e-38
-0.0019297081 -0.026437281 0.156 1.598983e-38
-0.00098815525 -0.0261862 0.156 1.802173e-38
0.001522652 -0.02668836 0.156 1.6906019e-38
0.0022758942 -0.026437281 0.156 1.6814906e-38
0.0035312979 -0.026437281 0.156 1.7652587e-38
0.0047239312 -0.02637451 0.156 1.6639874e-38
0.0053725559 -0.026437283 0.156 1.6083458e-38
0.0062618004 -0.026468668 0.156 1.5895827e-38
0.0075485893 -0.02668836 0.156 1.6639864e-38
0.0081135212 -0.02637451 0.156 1.6179964e-38
0.0096827755 -0.0261862 0.156 1.2878535e-38
0.010059397 -0.0261862 0.156 1.1596783e-38
0.012068043 -0.026437281 0.156 9.5857321e-39
0.013323446 -0.026437281 0.156 9.5864538e-39
-0.0040011238 -0.025684038 0.156 1.3783619e-38
-0.0034989626 -0.025181876 0.156 1.3323359e-38
-0.0022435589 -0.025516652 0.156 1.4148075e-38
0.0022758942 -0.025516652 0.156 1.5896906e-38
0.0035312979 -0.025516652 0.156 1.6267133e-38
0.004686269 -0.025583606 0.156 1.5625006e-38
0.0053725559 -0.025516652 0.156 1.5345535e-38
0.0062618004 -0.025464343 0.156 1.4884196e-38
0.0070464276 -0.025181876 0.156 1.4612644e-38
0.0085026957 -0.025483172 0.156 1.4428967e-38
0.0093898475 -0.025767731 0.156 1.378827e-38
0.010812638 -0.025432957 0.156 8.8474496e-39
0.01144034 -0.025432957 0.156 8.4790272e-39
0.012068043 -0.025935119 0.156 9.3095039e-39
0.013574527 -0.025935119 0.156 9.1258343e-39
-0.0032478818 -0.024805255 0.156 1.3230801e-38
-0.0026739831 -0.024643844 0.156 1.3137885e-38
-0.00073707459 -0.024428634 0.156 1.5254424e-38
0.0022758942 -0.024596021 0.156 1.5904464e-38
0.0035312979 -0.024930796 0.156 1.5255858e-38
0.0055399439 -0.024729932 0.156 1.525442e-38
0.0062931855 -0.024596021 0.156 1.5256218e-38
0.0072975084 -0.024596021 0.156 1.4982867e-38
0.0083520468 -0.024629496 0.156 1.4524048e-38
-0.0029968012 -0.023926472 0.156 1.2312444e-38
-0.0005696874 -0.023591699 0.156 1.424171e-38
0.0023386644 -0.023487082 0.156 1.5812992e-38
0.0036568381 -0.023612622 0.156 1.4701246e-38
0.0057910248 -0.023591697 0.156 1.5072187e-38
0.0062931855 -0.023591695 0.156 1.5072187e-38
0.0072975084 -0.023591697 0.156 1.4796319e-38
0.0081762914 -0.023591699 0.156 1.4705202e-38
-0.00048599383 -0.02279661 0.156 1.3136803e-38
0.0016481923 -0.022419989 0.156 1.4796322e-38
0.0024642048 -0.022733839 0.156 1.4703041e-38
0.0030291367 -0.022671068 0.156 1.4885633e-38
0.0055399439 -0.022570636 0.156 1.4612652e-38
0.006257317 -0.022742808 0.156 1.4612292e-38
0.0072975084 -0.02267107 0.156 1.341339e-38
0.0081135212 -0.022733839 0.156 1.3505584e-38
-0.00048599383 -0.021666747 0.156 1.1667075e-38
0.0016302579 -0.021523271 0.156 1.3782531e-38
0.0036568381 -0.021792287 0.156 1.4704844e-38
0.0044728508 -0.021792287 0.156 1.4521894e-38
0.0050377822 -0.021917827 0.156 1.4245669e-38
0.0075485893 -0.021917827 0.156 1.2309563e-38
0.0080507509 -0.021917827 0.156 1.2309563e-38
0.015733819 -0.021365449 0.156 7.0907188e-39
0.00043463553 -0.020411342 0.156 1.1942579e-38
0.0015226519 -0.020348573 0.156 1.258579e-38
0.015750559 -0.020578729 0.156 6.9063317e-39
0.016336415 -0.020285804 0.156 6.3563935e-39
0.00043463553 -0.019490713 0.156 1.1208974e-38
0.0012994691 -0.019462816 0.156 1.1667791e-38
0.016336415 -0.019658102 0.156 6.1727225e-39
0.0012715713 -0.01848639 0.156 1.0657959e-38
0.00039278873 -0.017649455 0.156 1.0014749e-38
0.0011460308 -0.017900536 0.156 1.0014749e-38
0.026128562 -0.015891891 0.156 8.8503433e-39
0.026881805 -0.014887568 0.156 1.1061962e-38
0.025877481 -0.0078573097 0.156 5.7185813e-39
0.081868485 0.017250761 0.156 1.6648827e-39
0.082119569 0.017250761 0.156 1.5726871e-39
0.077851199 0.021770213 0.156 2.1262168e-39
0.071825258 0.022523455 0.156 5.347666e-39
0.077671863 0.022451717 0.156 1.7581531e-39
0.078520745 0.0225653 0.156 1.7577958e-39
0.077851199 0.023151157 0.156 1.7574343e-39
0.078478903 0.023025617 0.156 1.6656002e-39
0.077600114 0.024155479 0.156 2.1265769e-39
0.076344714 0.026791828 0.156 2.7715862e-39
0.073833905 0.027796149 0.156 3.2314853e-39
0.074461602 0.02757645 0.156 3.047457e-39
0.07534039 0.027545065 0.156 2.771589e-39
0.076261014 0.027461374 0.156 3.32476e-39
0.073582828 0.028465698 0.156 2.7712289e-39
0.074419767 0.028465698 0.156 3.508075e-39
0.075256698 0.028340159 0.156 3.5091554e-39
0.073457286 0.02952233 0.156 2.4946462e-39
0.074367449 0.029428175 0.156 2.6793962e-39
-0.034256354 0.030495267 0.156 1.2910995e-38
-0.033879731 0.030809117 0.156 1.3464168e-38
0.072578497 0.030683577 0.156 2.7701569e-39
0.073289894 0.03026511 0.156 2.2180593e-39
0.074084982 0.030055877 0.156 2.0343869e-39
-0.034130812 0.031060198 0.156 1.3556363e-38
-0.033879731 0.031185739 0.156 1.3280131e-38
0.072578497 0.031060198 0.156 2.6779612e-39
-0.025719607 0.033696547 0.156 1.0699023e-38
-0.025217446 0.034324247 0.156 9.9614552e-39
-0.024589743 0.034324247 0.156 1.0238045e-38
-0.033377569 0.036835056 0.156 1.0512109e-38
-0.032875407 0.036835056 0.156 1.0144046e-38
-0.033377569 0.037086137 0.156 1.0420633e-38
-0.032749869 0.037086137 0.156 1.0052929e-38
-0.04065891 0.038215995 0.156 9.7774269e-39
-0.036578849 0.038529847 0.156 1.0053651e-38
-0.040575217 0.039262164 0.156 9.5022792e-39
-0.037143782 0.03909478 0.156 1.0053651e-38
-0.036516082 0.039314475 0.156 9.8692596e-39
-0.035888378 0.039220318 0.156 9.8692596e-39
-0.039905667 0.040852346 0.156 9.5926699e-39
-0.036390539 0.040099103 0.156 9.8692568e-39
-0.039654586 0.041856669 0.156 9.2238874e-39
-0.039554156 0.042609911 0.156 9.2238888e-39
-0.034130812 0.042860992 0.156 8.0253498e-39
-0.033754189 0.042526215 0.156 7.9331542e-39
-0.032624327 0.042860992 0.156 9.6841467e-39
-0.028355956 0.042860992 0.156 8.4870454e-39
-0.039654586 0.043112073 0.156 9.4082787e-39
-0.036139458 0.043865316 0.156 9.2246105e-39
-0.035804685 0.04378162 0.156 9.1324148e-39
-0.034130812 0.043530539 0.156 9.2238902e-39
-0.03362865 0.043530542 0.156 8.3941309e-39
-0.032568533 0.043614239 0.156 8.3019367e-39
-0.030239061 0.043865316 0.156 8.8551077e-39
-0.029443972 0.043865312 0.156 9.4082787e-39
-0.028607035 0.043363154 0.156 8.8554678e-39
-0.037143782 0.044618554 0.156 8.6710766e-39
-0.036390539 0.044241935 0.156 9.0402192e-39
-0.035762839 0.044241935 0.156 8.8558279e-39
-0.034130812 0.044241935 0.156 9.4082815e-39
-0.03362865 0.04445117 0.156 8.8543888e-39
-0.032498788 0.044451166 0.156 7.9335143e-39
-0.031117843 0.044869635 0.156 8.9465844e-39
-0.030333217 0.044493016 0.156 9.2238874e-39
-0.029443972 0.044451173 0.156 9.5926699e-39
-0.028575651 0.044493016 0.156 9.0387773e-39
-0.027853794 0.044869635 0.156 8.6699947e-39
-0.040608697 0.04522115 0.156 8.9480236e-39
-0.03961274 0.045288105 0.156 8.5785208e-39
-0.038348969 0.045472227 0.156 8.5785208e-39
-0.037478555 0.045288105 0.156 8.7632722e-39
-0.035135135 0.045497335 0.156 8.6707164e-39
-0.034381893 0.045539185 0.156 9.2238902e-39
-0.03381696 0.045371801 0.156 9.4082815e-39
-0.032310478 0.045246258 0.156 8.3030157e-39
-0.031368926 0.045403186 0.156 8.7636337e-39
-0.030364603 0.045371801 0.156 9.5004743e-39
-0.029443972 0.045371801 0.156 9.2231671e-39
-0.028523343 0.045371801 0.156 9.0387773e-39
-0.027519019 0.045371797 0.156 9.131333e-39
-0.026849471 0.045497335 0.156 9.1313358e-39
-0.038148105 0.046627201 0.156 9.0412982e-39
-0.037394863 0.04622547 0.156 9.2238888e-39
-0.035135135 0.046125039 0.156 9.2238902e-39
-0.034444664 0.046187811 0.156 9.5008372e-39
-0.032423463 0.046401229 0.156 9.2256923e-39
-0.031368922 0.046376117 0.156 9.4093633e-39
-0.030448295 0.046292424 0.156 9.5930314e-39
-0.029360278 0.046187811 0.156 8.9462243e-39
-0.028463559 0.046304379 0.156 9.1313344e-39
-0.027571328 0.046376117 0.156 9.1316946e-39
-0.025719607 0.046627201 0.156 8.4863252e-39
0.053245284 0.046627201 0.156 3.0460403e-39
-0.038148105 0.047129363 0.156 8.9480264e-39
-0.037478555 0.047631528 0.156 8.6710794e-39
-0.036390539 0.047882605 0.156 8.6707164e-39
-0.032498788 0.047430657 0.156 8.6717968e-39
-0.03128523 0.047715221 0.156 9.041301e-39
-0.028104875 0.047254905 0.156 8.5785222e-39
-0.027463224 0.04746414 0.156 8.3941295e-39
-0.026598392 0.047505986 0.156 7.9331514e-39
-0.025468526 0.04750599 0.15599999 7.6562086e-39
-0.024361489 0.047540221 0.156 7.6565659e-39
-0.023365725 0.047662914 0.156 7.2881435e-39
-0.022518327 0.047819834 0.156 7.4725362e-39
-0.021493083 0.047882605 0.156 7.5643717e-39
-0.020446911 0.047882605 0.156 7.6562072e-39
-0.01956813 0.047882605 0.156 7.8409586e-39
-0.018814888 0.047882605 0.156 7.8409586e-39
0.050692622 0.047798913 0.156 4.0598055e-39
0.051676027 0.047819834 0.156 2.9538419e-39
0.052659426 0.04750599 0.156 2.8612889e-39
0.053245284 0.047505986 0.156 2.9538433e-39
-0.037394863 0.048384767 0.156 8.5792411e-39
-0.036390539 0.048384767 0.156 8.3948498e-39
-0.032122165 0.048384767 0.156 8.2097355e-39
-0.031431694 0.048447538 0.156 8.2108187e-39
-0.026598388 0.048510309 0.156 8.5778005e-39
-0.025434287 0.048613016 0.156 7.7480384e-39
-0.024338663 0.048635844 0.156 7.6565645e-39
-0.023334341 0.048635844 0.156 7.5650905e-39
-0.02241371 0.048635848 0.156 7.4728963e-39
-0.021493083 0.048635844 0.156 7.6572876e-39
-0.02048876 0.048635844 0.156 7.6572876e-39
-0.01956813 0.048635844 0.156 7.8416788e-39
-0.018472506 0.048658669 0.156 7.9331542e-39
-0.017371174 0.048824158 0.156 7.5643717e-39
0.049730152 0.04876139 0.156 5.7221574e-39
0.050574698 0.048613016 0.156 3.6906698e-39
0.051487718 0.048384767 0.156 2.9538419e-39
0.052994203 0.048384767 0.156 2.677255e-39
0.053245284 0.048384767 0.156 3.1382331e-39
-0.032122165 0.049891252 0.156 8.6699976e-39
-0.031620003 0.049891252 0.156 8.7621932e-39
-0.024307277 0.049514633 0.156 7.6565617e-39
-0.023334343 0.049556479 0.156 7.6562058e-39
-0.02241371 0.049556479 0.156 7.5643703e-39
-0.021493081 0.049556479 0.156 7.4721746e-39
-0.020488758 0.049556479 0.156 7.4725348e-39
-0.01956813 0.049556483 0.156 7.4728949e-39
-0.018438267 0.049556479 0.156 7.4721746e-39
-0.017308403 0.049556479 0.156 7.4721746e-39
-0.016304079 0.049556483 0.156 7.8409571e-39
-0.015450405 0.049790822 0.156 7.3799776e-39
-0.014672056 0.049891252 0.156 7.0111951e-39
0.049730152 0.04938909 0.156 4.9838889e-39
0.050608937 0.049420476 0.156 3.2297001e-39
0.051487718 0.04913801 0.156 2.6772522e-39
0.053747445 0.04938909 0.156 7.4688522e-39
-0.031620003 0.050142333 0.156 8.9465844e-39
-0.023284126 0.050343193 0.156 7.7480413e-39
-0.022361403 0.05051896 0.156 7.6562058e-39
-0.021493083 0.050560806 0.156 7.3803377e-39
-0.02048876 0.050560795 0.156 7.7484e-39
-0.01956813 0.050560798 0.156 7.7487601e-39
-0.018438267 0.050560802 0.156 7.287782e-39
-0.017308405 0.050560798 0.156 7.5643689e-39
-0.016304079 0.050560798 0.156 7.8409557e-39
-0.01538345 0.050560798 0.156 7.3803377e-39
-0.01446282 0.050560806 0.156 7.287782e-39
-0.013506323 0.050680362 0.156 7.1952276e-39
-0.01260064 0.050832801 0.156 6.9189994e-39
0.029643694 0.050644495 0.156 6.0859906e-39
-0.022078937 0.051146653 0.156 7.9331514e-39
-0.021367542 0.051355887 0.156 7.8413159e-39
-0.02048876 0.051481429 0.156 8.2090194e-39
-0.01956813 0.051481429 0.156 8.0249869e-39
-0.018438267 0.051481426 0.156 7.2881435e-39
-0.017308403 0.051481433 0.156 7.564729e-39
-0.016304079 0.051481429 0.156 7.6565645e-39
-0.015383452 0.051481429 0.156 7.6562044e-39
-0.014462822 0.051481429 0.156 7.5640087e-39
-0.013458498 0.051481433 0.156 7.3792587e-39
-0.01253787 0.051481433 0.156 6.9189994e-39
-0.011442244 0.051511861 0.156 6.5509372e-39
-0.010328359 0.051699031 0.156 6.5509372e-39
-0.00939936 0.051899895 0.156 6.6427727e-39
0.030648015 0.051397733 0.156 6.2693028e-39
-0.031368922 0.05240206 0.156 8.3937694e-39
-0.02007029 0.052150976 0.156 8.0246281e-39
-0.01956813 0.052150976 0.156 7.9327912e-39
-0.018438267 0.052150976 0.156 7.3799776e-39
-0.017308401 0.052276518 0.156 7.2881421e-39
-0.016304079 0.052402053 0.156 7.7484014e-39
-0.01538345 0.052402057 0.156 7.6562044e-39
-0.014462822 0.052402053 0.156 7.4718131e-39
-0.013458498 0.052402057 0.156 7.1030306e-39
-0.01253787 0.052402057 0.156 6.8268038e-39
-0.011408005 0.052402053 0.156 6.6427727e-39
-0.010278143 0.052402053 0.156 6.5505771e-39
-0.0092738206 0.052402053 0.156 6.27363e-39
-0.0083950376 0.052433439 0.156 6.5498568e-39
-0.0075162547 0.052552707 0.156 6.5502169e-39
-0.0066374717 0.052653138 0.156 6.4587416e-39
-0.016178539 0.053155296 0.156 7.5643689e-39
-0.015263888 0.053370509 0.156 7.1955849e-39
-0.014462822 0.05340638 0.156 7.1030292e-39
-0.013458499 0.05340638 0.156 6.7346068e-39
-0.01253787 0.05340638 0.156 6.6427727e-39
-0.011408006 0.053406376 0.156 6.4587416e-39
-0.010278142 0.053406376 0.156 6.6424126e-39
-0.0092738187 0.053406376 0.156 6.27363e-39
-0.0083531896 0.05340638 0.156 6.27363e-39
-0.0074325609 0.053406376 0.156 6.3658257e-39
-0.0064282375 0.053406376 0.156 6.089959e-39
-0.0055703786 0.053594686 0.156 5.9977634e-39
-0.028355956 0.054159619 0.156 8.4859664e-39
-0.015098892 0.05446092 0.156 7.1955849e-39
-0.014462821 0.054536238 0.156 7.1955849e-39
-0.013458498 0.054410696 0.156 6.9193568e-39
-0.012515044 0.054501999 0.156 6.6431314e-39
-0.011408006 0.054536231 0.15599999 6.6427713e-39
-0.010278143 0.054536238 0.156 6.5502141e-39
-0.0092738206 0.054536238 0.156 6.3658229e-39
-0.0083531905 0.054536238 0.156 6.181433e-39
-0.0074325614 0.054536238 0.156 5.9970417e-39
-0.006428238 0.054536242 0.156 6.089236e-39
-0.0055076075 0.054536242 0.156 6.089236e-39
-0.0044453437 0.054603834 0.156 5.9970403e-39
-0.0034989626 0.054912861 0.156 5.9048447e-39
-0.029109197 0.055415023 0.156 8.1175426e-39
-0.0092738196 0.055415023 0.156 6.1814316e-39
-0.0082694972 0.055515457 0.156 5.9970403e-39
-0.0073727793 0.055594366 0.156 5.8126491e-39
-0.0064282375 0.055666104 0.156 5.9048447e-39
-0.0055076079 0.055666104 0.156 6.0888758e-39
-0.0044119833 0.055643275 0.156 5.9041259e-39
-0.0034989626 0.055540562 0.156 5.9041259e-39
-0.017057322 0.056670427 0.156 6.9186337e-39
-0.016272694 0.056639038 0.156 6.8260793e-39
-0.015801918 0.05679597 0.156 6.6420468e-39
-0.016253863 0.057373453 0.156 6.7335236e-39
-0.015801918 0.057172589 0.156 6.6409678e-39
-0.0076417951 0.057800293 0.156 5.443505e-39
-0.0081021106 0.058762763 0.156 5.5342573e-39
-0.0073656058 0.05857864 0.156 5.3505863e-39
-0.029360278 0.059683394 0.156 6.2739832e-39
-0.012387222 0.059482526 0.156 5.3509493e-39
-0.011408006 0.059432317 0.156 5.4431449e-39
-0.010309528 0.059463695 0.156 5.5346203e-39
-0.0092110494 0.059620623 0.156 5.2580334e-39
-0.0083053652 0.059504058 0.156 5.2573117e-39
-0.0074744076 0.059390467 0.156 5.1658349e-39
-0.0065119318 0.059620623 0.156 4.9814437e-39
-0.0055913017 0.059599701 0.156 5.0736393e-39
-0.00048599383 0.059683394 0.156 4.5204655e-39
0.0003174645 0.05958296 0.156 4.3367931e-39
0.0012088011 0.059620623 0.156 4.3371533e-39
-0.015299757 0.060436636 0.156 5.7200877e-39
-0.012286789 0.060436636 0.156 5.2587508e-39
-0.011408006 0.060436636 0.156 5.3502262e-39
-0.010278142 0.060436632 0.156 5.1658349e-39
-0.0092738196 0.06043664 0.156 4.8892481e-39
-0.0084488401 0.060400765 0.156 4.8892481e-39
-0.005695919 0.060499407 0.156 4.7041379e-39
-0.0022435589 0.060687717 0.156 4.5197467e-39
-0.001590749 0.060587287 0.156 4.427551e-39
-0.00070120586 0.060508374 0.156 4.3353554e-39
0.00026724834 0.060436632 0.156 4.151683e-39
0.0013971116 0.060436636 0.156 4.3353554e-39
0.0022758942 0.060687717 0.156 4.3353554e-39
0.012821284 0.060436636 0.156 4.2410018e-39
-0.012286789 0.061189879 0.156 4.6137402e-39
-0.011408006 0.061189879 0.156 4.9814437e-39
-0.010278143 0.061315417 0.156 4.7059358e-39
-0.0092738196 0.061189879 0.156 4.4293489e-39
-0.0085205771 0.061189879 0.156 4.5211858e-39
-0.0055076084 0.061189879 0.156 4.6119423e-39
-0.0043663322 0.061714865 0.156 3.9672918e-39
-0.003373422 0.061566502 0.156 3.9672918e-39
-0.0025783333 0.061566502 0.156 4.0594874e-39
-0.0016577039 0.061566502 0.156 3.9672918e-39
-0.00073707459 0.061566502 0.156 3.8750961e-39
0.00026724834 0.061566502 0.156 3.7825404e-39
0.0013971117 0.061566506 0.15599999 3.9658526e-39
0.0025041492 0.061600734 0.156 3.689986e-39
0.003387823 0.061763782 0.156 3.5066723e-39
0.0042845402 0.061943121 0.156 3.414118e-39
0.0055399435 0.061943121 0.156 3.4137592e-39
0.0062931855 0.061943125 0.156 3.4133991e-39
-0.0040011238 0.062445283 0.156 3.8750961e-39
-0.003373422 0.06269636 0.156 3.7829005e-39
-0.0025783333 0.062696368 0.156 3.6907049e-39
-0.0016577039 0.062696368 0.156 3.6907049e-39
-0.00073707459 0.06269636 0.156 3.689986e-39
0.00026724831 0.062696368 0.156 3.689986e-39
0.0013971116 0.06269636 0.156 3.5967114e-39
0.002526975 0.062696368 0.156 3.3212035e-39
0.0034476044 0.062696368 0.156 3.4137578e-39
0.0044519268 0.06269636 0.156 3.2293666e-39
0.0053725559 0.062696368 0.156 3.1371724e-39
0.0062931855 0.062696368 0.156 3.2290078e-39
0.0072661233 0.062727749 0.156 3.3212035e-39
0.0083520478 0.062897228 0.156 3.7811012e-39
0.0095572351 0.062947445 0.156 3.4123173e-39
-0.022162631 0.063868076 0.156 4.5204655e-39
-0.021702316 0.063826226 0.156 4.7970524e-39
-0.0032478818 0.063198522 0.156 3.7829005e-39
-0.0024527928 0.063491449 0.156 3.5985106e-39
-0.0016577038 0.063616991 0.156 3.5977904e-39
-0.00073707459 0.063616991 0.156 3.5977904e-39
0.0002170322 0.063399389 0.156 3.5981505e-39
0.0010204905 0.063198522 0.156 3.5967114e-39
0.0025583601 0.063575141 0.156 3.1371724e-39
0.0034476044 0.063616991 0.156 3.2290078e-39
0.0044519273 0.063616984 0.156 3.2290078e-39
0.0053725559 0.063616991 0.156 3.1368122e-39
0.0062931855 0.063616984 0.156 3.2290078e-39
0.0072975084 0.063616991 0.156 3.3212035e-39
0.0084273722 0.063616984 0.156 3.6889056e-39
0.0095572351 0.063616991 0.156 3.3201217e-39
0.010477863 0.063616991 0.156 3.227926e-39
0.011440339 0.063669294 0.156 3.227926e-39
0.012402817 0.063826226 0.156 3.2275673e-39
0.013323446 0.063826226 0.156 3.5034339e-39
0.014277553 0.063851334 0.156 3.5952694e-39
0.015457632 0.063951768 0.156 3.6871021e-39
0.016461955 0.063951768 0.156 3.5945422e-39
-0.022204477 0.064202845 0.156 4.4282699e-39
-0.021493083 0.064202845 0.156 4.7048568e-39
0.0036568381 0.064202845 0.156 3.3212007e-39
0.0044519273 0.064202845 0.156 3.229005e-39
0.0053725564 0.064202845 0.156 3.229005e-39
0.0062931865 0.064202845 0.156 3.4126774e-39
0.0072975084 0.064202845 0.156 3.2290064e-39
0.0084273722 0.064202845 0.156 3.59671e-39
0.0095572351 0.064202845 0.156 3.4123173e-39
0.010477864 0.064202845 0.156 3.227926e-39
0.011482187 0.064202845 0.156 3.227926e-39
0.012402817 0.064202845 0.156 3.3197615e-39
0.013323446 0.064202845 0.156 3.5034339e-39
0.014327769 0.064202845 0.156 3.6878252e-39
0.015457632 0.064202845 0.156 3.7789376e-39
0.016587496 0.064202845 0.156 3.5938261e-39
0.025537983 -0.042526234 0.15700001 1.8806824e-38
0.02225301 -0.041768163 0.15700001 1.16177e-38
0.01138733 -0.040252022 0.15700001 1.825329e-38
0.0031748991 -0.039241262 0.15700001 2.0463828e-38
0.0098711895 -0.039241262 0.15700001 2.0095043e-38
0.0104608 -0.039409723 0.15700001 1.9818816e-38
0.011513676 -0.039493952 0.15700002 1.908197e-38
0.012482323 -0.039325494 0.15700001 1.6407182e-38
0.0025431735 -0.03843265 0.15700001 2.0277995e-38
0.0031748991 -0.03856742 0.15700001 2.036767e-38
0.0097448444 -0.038672712 0.15700001 1.990129e-38
0.010292339 -0.038693767 0.15700001 2.008676e-38
0.011589484 -0.038887493 0.15700001 1.9633341e-38
0.012398091 -0.03856742 0.15700001 1.7695406e-38
0.00043742161 -0.037346084 0.15700001 1.9817737e-38
0.0014241169 -0.037436333 0.15699999 2.0089644e-38
0.0023747133 -0.037556663 0.15700001 2.017536e-38
0.003269658 -0.037598774 0.15700001 2.0257833e-38
0.0043625431 -0.037775658 0.15700001 2.0432504e-38
0.010250225 -0.037598774 0.15700001 1.9412949e-38
0.011892712 -0.03721974 0.15700001 1.9689527e-38
0.012398091 -0.037556663 0.15700001 1.8602239e-38
-0.0004891092 -0.03620898 0.15700001 1.9353881e-38
0.00071116933 -0.036524843 0.15700001 1.9989169e-38
0.0013639524 -0.036630128 0.15700001 2.0073442e-38
0.0023747133 -0.036630135 0.15700001 2.0522899e-38
0.0030485541 -0.036840707 0.15700001 2.0430342e-38
0.011640022 -0.036903881 0.15700001 1.8854366e-38
0.013408853 -0.03671436 0.15700001 1.5018073e-38
0.00077434193 -0.03595629 0.15700001 2.0805251e-38
0.0017851029 -0.03595629 0.15700001 2.0607533e-38
0.002480001 -0.035893116 0.15700001 2.0696848e-38
0.012903472 -0.03595629 0.15700001 1.675542e-38
-0.0030160113 -0.034692839 0.15700001 1.9172367e-38
-0.0026369758 -0.034566492 0.15700001 1.9442115e-38
-0.0004891092 -0.034566492 0.15700001 1.903697e-38
0.0054069962 -0.034524377 0.15700001 2.1247138e-38
0.0067125619 -0.034440149 0.15700001 1.977453e-38
0.0073442874 -0.034440149 0.15700001 1.9312833e-38
0.0088604288 -0.034440149 0.15700001 1.940215e-38
0.0094500398 -0.034608606 0.15700001 2.0142229e-38
0.010250225 -0.034692839 0.15700001 1.7744057e-38
-0.0025106308 -0.033682078 0.15700001 1.89599e-38
-0.00061545428 -0.033555735 0.15700001 1.8387644e-38
0.0057018013 -0.033934768 0.15700001 2.0141876e-38
0.0065230443 -0.033871595 0.15700001 1.9495432e-38
0.0078496682 -0.033934768 0.15700001 1.8756784e-38
0.0088604288 -0.033808425 0.15700001 1.8753904e-38
0.009113119 -0.033934768 0.15700001 1.8937935e-38
-0.0017525601 -0.032165933 0.15700001 1.8483088e-38
-0.0004891092 -0.032292277 0.15700001 1.7005071e-38
0.0045646951 -0.032165933 0.15700001 1.8576708e-38
-0.0060482938 -0.03128152 0.15700001 1.7409135e-38
-0.0057956036 -0.03128152 0.15700001 1.749233e-38
-0.0015841001 -0.031492095 0.15700001 1.7838429e-38
-0.00074179942 -0.031913243 0.15700001 1.7652594e-38
0.0045646955 -0.031913243 0.15700001 1.8301561e-38
-0.0055934517 -0.030397106 0.15700001 1.6282264e-38
-0.00149987 -0.030481335 0.15700001 1.756184e-38
0.029328337 -0.030144414 0.15700001 7.2862546e-39
0.033876762 -0.030144414 0.15700001 1.9083408e-38
0.034571659 -0.030207587 0.15700001 1.9175604e-38
-0.0056692585 -0.029639034 0.15700001 1.5634015e-38
-0.00149987 -0.029554801 0.15700001 1.6637718e-38
0.025622213 -0.02942846 0.15700001 5.9040404e-39
0.026359227 -0.029512689 0.15700001 6.0880729e-39
0.027475275 -0.029470572 0.15700001 6.1802685e-39
0.028401807 -0.029807493 0.15700001 6.3646612e-39
0.031349856 -0.029259998 0.15700001 8.3926077e-39
0.033539843 -0.029807493 0.15700001 1.8622428e-38
0.034508489 -0.029891724 0.15700001 1.9359995e-38
0.035140213 -0.029639034 0.15700001 1.945219e-38
-0.0060482938 -0.028501928 0.15700001 1.5169799e-38
-0.00149987 -0.028880963 0.15700001 1.627037e-38
0.018462658 -0.028880963 0.15700001 6.1788308e-39
0.024590395 -0.028565099 0.15700001 5.8114818e-39
0.025487443 -0.028729349 0.15700001 5.8118433e-39
0.026043363 -0.028375583 0.15700001 5.7196477e-39
0.031097168 -0.028880963 0.15700001 8.2071375e-39
-0.0060482938 -0.027870202 0.15700001 1.4985042e-38
-0.0054165684 -0.027491167 0.15700001 1.4523339e-38
-0.004784843 -0.027364822 0.15700001 1.4797764e-38
0.0027958637 -0.027364822 0.15700001 1.8296158e-38
0.012650782 -0.027364822 0.15700001 9.1233176e-39
0.024274534 -0.027870202 0.15700001 6.4554051e-39
-0.0044479226 -0.026606752 0.15700001 1.4152397e-38
0.0027958637 -0.026859442 0.15700001 1.7648988e-38
0.0030485541 -0.026859442 0.15700001 1.866314e-38
0.0067546773 -0.026396176 0.15700001 1.5529561e-38
0.0073758736 -0.026385644 0.15700001 1.5807586e-38
0.0098711895 -0.026101369 0.15700001 1.1687181e-38
0.01012388 -0.026101369 0.15700001 1.1779377e-38
0.012448629 -0.026556212 0.15700001 9.4024184e-39
-0.0054797409 -0.025153782 0.15700001 1.2404643e-38
-0.0037740821 -0.025090609 0.15700001 1.3231883e-38
0.006838907 -0.025595989 0.15700001 1.4519365e-38
0.0075338054 -0.025532816 0.15700001 1.4428247e-38
0.0093658092 -0.02529276 0.15700001 1.3052148e-38
0.010502915 -0.025469644 0.15700001 9.856568e-39
0.01138733 -0.025343299 0.15700001 8.3875504e-39
-0.006300984 -0.024837919 0.15700001 1.2589031e-38
