# .PCD v0.7 - Point Cloud Data file format
VERSION 0.7
FIELDS x y z rgb
SIZE 4 4 4 4
TYPE F F F F
COUNT 1 1 1 1
WIDTH 1004
HEIGHT 1
VIEWPOINT 0 0 0 1 0 0 0
POINTS 1004
DATA ascii
0.049495153 0.054983322 0.21800001 1.2167992e-38
0.078851216 0.054749411 0.21800001 8.9476648e-39
0.079669908 0.054632451 0.21800001 8.5792439e-39
0.080196217 0.054632451 0.21800001 8.3948526e-39
0.047389939 0.055685058 0.21800001 9.7756164e-39
0.048442546 0.055509623 0.21800001 1.1615909e-38
0.049670592 0.055509623 0.21800001 1.3271796e-38
0.05019689 0.055509623 0.21800001 1.3178507e-38
0.077564694 0.055509623 0.21800001 8.9480208e-39
0.078617305 0.055509627 0.21800001 8.6714381e-39
0.079669908 0.055509623 0.21800001 8.302657e-39
0.080301479 0.055474538 0.21800001 8.2104613e-39
0.04727298 0.056503754 0.21800001 1.10631e-38
0.048442543 0.056035925 0.21800001 1.2995585e-38
0.049729068 0.056269843 0.21800001 1.4468156e-38
0.05019689 0.056386799 0.21800001 1.400609e-38
0.078383394 0.056269839 0.21800001 8.4870454e-39
0.046688199 0.057439405 0.21800001 1.2534256e-38
0.047039069 0.057088535 0.21800001 1.1707389e-38
0.050430804 0.057205494 0.21800001 1.3175259e-38
0.045635592 0.058667447 0.21800001 1.2443151e-38
0.046600483 0.058579732 0.21800001 1.5019547e-38
0.05054776 0.058141142 0.21800001 1.0689605e-38
0.0512495 0.058667447 0.21800001 8.5745369e-39
0.044933852 0.059895489 0.21800001 1.3822461e-38
0.045284722 0.059193749 0.21800001 1.363807e-38
0.046337329 0.059193749 0.21800001 1.5295771e-38
0.051600367 0.059193749 0.21800001 8.0256973e-39
0.043881245 0.060948096 0.21800001 1.4281269e-38
0.044582985 0.060421791 0.21800001 1.4191598e-38
0.045460157 0.060772661 0.21800001 1.575529e-38
0.04370581 0.061649837 0.21800001 1.5202852e-38
0.044232115 0.061649837 0.21800001 1.5663459e-38
0.042477768 0.062351573 0.21800001 1.4096159e-38
0.043530375 0.062176138 0.21800001 1.5662382e-38
0.041776031 0.063579619 0.21800001 1.483371e-38
0.042267244 0.063334003 0.21800001 1.5017741e-38
0.043179508 0.06305331 0.21800001 1.5937881e-38
0.040723421 0.064807661 0.21800001 1.5201775e-38
0.041425161 0.06410592 0.21800001 1.4925901e-38
0.047389939 0.066211134 0.21800001 8.3004892e-39
0.048091676 0.066211134 0.21800001 8.4848804e-39
0.058266886 0.067263745 0.21800001 8.3019339e-39
0.032477997 0.069719829 0.21800001 8.4841587e-39
0.033004299 0.069719829 0.21800001 8.66855e-39
0.032653429 0.07024613 0.21800001 9.0355277e-39
0.033355169 0.07024613 0.21800001 1.0232263e-38
0.032653429 0.071474172 0.21800001 1.2254061e-38
0.033179734 0.071386456 0.21800001 1.2991263e-38
0.039500311 -0.019225582 0.21900001 1.6083458e-38
0.042672619 -0.01948994 0.21900001 1.6456556e-38
0.043260086 -0.019607434 0.21900003 1.5627873e-38
0.038442876 -0.018432505 0.21900001 1.6824258e-38
0.039500315 -0.018432505 0.219 1.6267852e-38
0.04055775 -0.018080026 0.21900001 1.5895832e-38
0.037737917 -0.017375069 0.21900001 1.6545518e-38
0.038266636 -0.017551308 0.21900001 1.6638073e-38
0.039852791 -0.017727548 0.21900001 1.5991265e-38
0.040733986 -0.017727548 0.21900001 1.5435933e-38
0.037737917 -0.016493872 0.21900001 1.6453325e-38
0.038266636 -0.016670112 0.21900001 1.6361129e-38
0.039147835 -0.016493872 0.21900001 1.6176738e-38
0.039147835 -0.015788915 0.21900001 1.5438817e-38
0.037737917 -0.014907718 0.21900001 1.53441e-38
0.039147835 -0.014907718 0.21900001 1.4607614e-38
0.036328003 -0.013145326 0.21900001 1.571252e-38
0.037561677 -0.012616608 0.21900001 1.5067875e-38
0.036445495 -0.011500425 0.21900003 1.4421423e-38
0.037385441 -0.011559172 0.21900001 1.4606173e-38
0.038442876 -0.011382932 0.21900001 1.3779296e-38
0.05712425 0.020692628 0.21900001 1.152698e-38
0.05677177 0.021045106 0.21900001 1.152698e-38
0.05712425 0.021045106 0.21900001 1.1619176e-38
0.066993654 0.031266987 0.21900001 1.0790494e-38
0.063703857 0.036789153 0.21900003 9.7770598e-39
0.064643793 0.036789153 0.21900003 1.0054e-38
0.063468866 0.037752591 0.21900001 1.0052922e-38
0.064702541 0.037787843 0.21900001 1.2261982e-38
0.062235191 0.038492799 0.21900001 1.0144403e-38
0.064878777 0.038492799 0.21900001 1.4011875e-38
0.061706472 0.039726473 0.21900001 9.9610895e-39
0.062058952 0.040431432 0.21900001 1.097415e-38
0.046902366 0.041488867 0.21900001 1.069722e-38
0.047254845 0.041136388 0.21900001 1.0789415e-38
0.05677177 0.041136388 0.21900001 1.0052206e-38
0.058769152 0.041723851 0.21900003 9.8688939e-39
0.059591599 0.041665107 0.21900001 9.869254e-39
0.060472798 0.041488867 0.219 9.9614468e-39
0.061565477 0.041559361 0.21900001 1.1893571e-38
0.062058952 0.041312627 0.21900001 1.2906999e-38
0.054304417 0.042898782 0.21900001 9.592307e-39
0.057476725 0.042898782 0.21900001 9.6845026e-39
0.05853416 0.042722542 0.219 9.7766982e-39
0.059591599 0.042722546 0.21900001 1.0145118e-38
0.060472794 0.042722542 0.21900001 1.171026e-38
0.061471488 0.042663798 0.21900003 1.3090286e-38
0.026458601 0.043603741 0.21900001 1.1432264e-38
0.054304417 0.043251261 0.21900001 9.5008302e-39
0.055361856 0.043603737 0.21900003 9.407194e-39
0.056066811 0.043603741 0.21900001 9.2217238e-39
0.057359233 0.043486249 0.21900003 9.6837823e-39
0.058534164 0.043427501 0.219 9.8678149e-39
0.059591599 0.043427501 0.21900001 1.0973072e-38
0.060472798 0.043427505 0.21900001 1.3920409e-38
0.061353993 0.043251261 0.21900001 1.4288809e-38
0.026341109 0.044543684 0.21900003 1.0972365e-38
0.055361852 0.044426188 0.21900003 9.8681736e-39
0.056536783 0.044543684 0.21900003 9.4068339e-39
0.057300486 0.044484936 0.21900001 9.4990309e-39
0.058534164 0.044484932 0.219 1.0604651e-38
0.059591599 0.044308696 0.21900001 1.2261631e-38
0.026282361 0.045013655 0.21900001 1.0880166e-38
0.05559684 0.04548363 0.21900003 1.0605377e-38
0.056419291 0.045366134 0.21900001 9.7756164e-39
0.057300486 0.045366134 0.21900001 9.4990281e-39
0.05853416 0.045366134 0.219 1.1156725e-38
0.054304417 0.046776049 0.21900001 9.8685379e-39
0.055361856 0.04656456 0.21900001 1.115891e-38
0.056419291 0.04607109 0.21900001 1.0143677e-38
0.057476725 0.04607109 0.21900001 9.9589147e-39
0.058534164 0.046282578 0.21900001 1.2813699e-38
0.053834449 0.047715992 0.21900003 9.315004e-39
0.054304417 0.047657244 0.21900001 9.1309729e-39
0.055361856 0.04765724 0.219 1.0329148e-38
0.058534164 0.047657244 0.21900001 1.4195872e-38
0.052777011 0.048655931 0.21900003 9.5915923e-39
0.053775705 0.048538439 0.21900001 9.4993953e-39
0.054304417 0.048538439 0.21900001 9.0387773e-39
0.055361856 0.048538443 0.219 9.7748864e-39
0.051837068 0.049948357 0.21900001 9.9607336e-39
0.052542027 0.049595878 0.219 9.4997554e-39
0.053775702 0.049595878 0.219 9.5919468e-39
0.054304417 0.049595878 0.21900003 9.7756178e-39
0.055361856 0.049595878 0.219 1.1246753e-38
0.056066811 0.049419638 0.21900001 1.2626058e-38
0.078977928 0.049948357 0.21900001 8.9480236e-39
0.051484589 0.050653312 0.21900001 1.0605023e-38
0.052542027 0.050653312 0.21900003 1.0881965e-38
0.053775702 0.050653312 0.21900001 1.0972344e-38
0.054304417 0.050653312 0.21900001 1.152407e-38
0.055185616 0.050653312 0.21900001 1.3454026e-38
0.078272969 0.050653312 0.21900001 1.0052929e-38
0.079330407 0.050653312 0.21900001 8.9480236e-39
0.050497651 0.05121728 0.21900001 1.0145125e-38
0.051484589 0.051182032 0.21900001 1.060538e-38
0.052542027 0.051182032 0.219 1.1434775e-38
0.053775702 0.051182032 0.21900001 1.2169073e-38
0.054304417 0.051005792 0.21900001 1.2167629e-38
0.055009376 0.051005792 0.21900001 1.3638779e-38
0.079682887 0.051005792 0.21900001 8.9480236e-39
0.04866476 0.052768182 0.21900001 9.8685379e-39
0.04922872 0.052486204 0.21900001 9.9607336e-39
0.05042715 0.052415699 0.219 9.9610895e-39
0.051484585 0.052415699 0.219 1.0605013e-38
0.052542027 0.052415702 0.219 1.1524074e-38
0.053599462 0.052239466 0.21900001 1.3272163e-38
0.047842309 0.053590629 0.21900003 9.8685379e-39
0.04866476 0.053473137 0.21900001 9.9603734e-39
0.049193475 0.053473137 0.21900001 1.0052568e-38
0.05042715 0.053473141 0.219 1.0420982e-38
0.051367093 0.053355645 0.21900003 1.1156728e-38
0.052189548 0.053120662 0.21900001 1.1433309e-38
0.079330407 0.053120662 0.21900001 9.3160858e-39
0.046902366 0.054530576 0.21900001 9.6845026e-39
0.047607321 0.054354329 0.219 9.8685365e-39
0.04866476 0.054354336 0.21900001 1.0328793e-38
0.049193475 0.054354336 0.21900001 1.0144399e-38
0.05042715 0.05435434 0.219 1.1524797e-38
0.044787493 0.05594049 0.21900001 9.8678149e-39
0.045668691 0.05576425 0.21900001 9.5915881e-39
0.046549886 0.055588011 0.219 9.4079157e-39
0.047489826 0.055470515 0.219 9.5001113e-39
0.050568145 0.05544702 0.21900001 1.2534234e-38
0.04450551 0.056715943 0.21900001 9.4990323e-39
0.045668691 0.056645446 0.21900001 9.591228e-39
0.046549886 0.056645446 0.21900001 9.6830607e-39
0.047254845 0.05629297 0.21900001 9.7756192e-39
0.050779629 0.056645446 0.21900001 1.3268525e-38
0.042672619 0.057702884 0.21900001 1.0328074e-38
0.043377578 0.057526644 0.21900001 9.867096e-39
0.044435013 0.057526644 0.219 9.5908692e-39
0.045668691 0.057526644 0.21900001 9.591228e-39
0.046432395 0.057467896 0.21900003 1.0510295e-38
0.041438945 0.058760319 0.21900001 1.0328074e-38
0.042496383 0.058584079 0.21900001 1.0143323e-38
0.043377578 0.058584079 0.21900001 9.6827047e-39
0.044435013 0.058584079 0.219 9.774899e-39
0.045609947 0.058525335 0.21900003 1.0970553e-38
0.046197407 0.058584079 0.21900001 1.3178539e-38
0.05160208 0.058525335 0.21900003 8.3905086e-39
0.040792733 0.059347782 0.21900003 9.7752605e-39
0.041438945 0.059289038 0.21900001 9.6830649e-39
0.042496383 0.059289038 0.21900001 9.6830635e-39
0.043377578 0.059289038 0.21900001 9.4990323e-39
0.044435013 0.059289038 0.219 1.0050761e-38
0.045668691 0.059289038 0.21900001 1.3362212e-38
0.051837068 0.059112798 0.21900001 7.931701e-39
0.052189548 0.059112798 0.21900001 8.1160923e-39
0.038442876 0.060875192 0.21900001 9.8688939e-39
0.039617807 0.060640205 0.219 9.8674547e-39
0.040733989 0.060522716 0.219 9.5908692e-39
0.041438945 0.060522709 0.219 9.314281e-39
0.042496383 0.060522709 0.219 9.3146411e-39
0.043377578 0.060522716 0.219 1.0142597e-38
0.044170655 0.060434591 0.21900001 1.2074002e-38
0.045633443 0.060452212 0.21900001 1.5386881e-38
0.038325384 0.061815131 0.21900003 9.2224427e-39
0.039500311 0.061756387 0.219 9.130247e-39
0.040733986 0.061756387 0.21900001 9.0380514e-39
0.041438945 0.061756387 0.21900001 9.0380514e-39
0.042496383 0.061756387 0.21900001 1.0693599e-38
0.043260086 0.061697643 0.21900003 1.2625733e-38
0.044611253 0.061580148 0.21900001 1.5663102e-38
0.037737917 0.062637582 0.21900001 9.2224427e-39
0.038266636 0.062461343 0.21900001 9.130247e-39
0.039500315 0.062461343 0.219 8.8536601e-39
0.040733986 0.062461346 0.21900001 8.9458558e-39
0.041438945 0.062461346 0.21900001 9.6816159e-39
0.042437639 0.062402595 0.21900003 1.2348787e-38
0.037561677 0.063518777 0.21900001 9.2224427e-39
0.038266636 0.063518777 0.21900001 8.9458558e-39
0.039500311 0.063518785 0.219 8.7611044e-39
0.040733986 0.063518777 0.21900001 1.0233341e-38
0.041380197 0.06346003 0.21900003 1.2256949e-38
0.037561677 0.064223744 0.21900001 9.3139194e-39
0.038266636 0.064223737 0.21900001 8.9451369e-39
0.039500315 0.064223744 0.219 9.4043102e-39
0.040733986 0.064223737 0.21900001 1.262536e-38
0.041262705 0.0640475 0.21900001 1.36377e-38
0.049017239 0.06439998 0.21900001 8.3926848e-39
0.037649799 0.065369293 0.21900001 9.0373311e-39
0.038266636 0.065457411 0.219 9.405029e-39
0.039500311 0.065457419 0.219 1.2624284e-38
0.04055775 0.065281175 0.21900001 1.4925182e-38
0.049017239 0.065104939 0.21900001 8.4848804e-39
0.037737917 0.066691086 0.21900001 1.1151326e-38
0.038207889 0.066632338 0.21900003 1.2348783e-38
0.036680482 0.067572288 0.21900001 1.0232262e-38
0.037502933 0.067337304 0.21900003 1.2072552e-38
0.035740539 0.068394743 0.21900003 1.0417013e-38
0.036445495 0.068394743 0.21900003 1.262428e-38
0.03174578 0.070392117 0.21900003 8.3919617e-39
0.03209826 0.070568353 0.21900001 8.3919617e-39
0.03174578 0.071449548 0.21900001 8.6674682e-39
0.03209826 0.071625784 0.21900001 1.0047147e-38
0.032450736 0.072506987 0.21900001 1.2806503e-38
0.043575648 -0.0206412 0.22000001 1.553783e-38
0.043575648 -0.019933024 0.22000001 1.5444562e-38
0.044283826 -0.01975598 0.22000001 1.4706276e-38
0.040034767 -0.017454406 0.22000001 1.5807953e-38
0.041628163 -0.017808495 0.22000001 1.571288e-38
0.039680678 -0.01674623 0.22000001 1.5992347e-38
0.035785709 -0.013382394 0.22000001 1.5436292e-38
0.036729947 -0.013441409 0.22000001 1.571288e-38
0.037556149 -0.013205349 0.22000001 1.516079e-38
0.035785709 -0.012674218 0.22000001 1.5067148e-38
0.037910238 -0.012851262 0.22000001 1.4700173e-38
0.038382355 -0.012615203 0.22000001 1.4423227e-38
0.037674177 -0.011198851 0.22000001 1.4054799e-38
0.038441371 -0.011611953 0.22000001 1.4055161e-38
0.037910238 -0.0101956 0.22000001 1.3320831e-38
0.066709407 0.030583551 0.22000001 1.0238039e-38
0.0674766 0.030701581 0.22000001 1.0514626e-38
0.06576518 0.031645816 0.22000001 1.0052929e-38
0.066591382 0.0315868 0.22000001 1.0513906e-38
0.067535616 0.031645816 0.22000001 1.0790491e-38
0.068361826 0.031763844 0.22000001 1.079085e-38
0.065529123 0.032294977 0.22000001 9.8685379e-39
0.066591382 0.032294977 0.22000001 1.0145125e-38
0.0674766 0.032294977 0.22000001 1.0329873e-38
0.068479858 0.032353994 0.22000001 1.0605736e-38
0.063758679 0.033711329 0.22000001 1.0052929e-38
0.064325228 0.033605106 0.22 1.0052929e-38
0.065529123 0.033534288 0.22000001 9.7763423e-39
0.066591382 0.033534288 0.22000001 9.8688939e-39
0.0674766 0.033534288 0.22000001 9.868168e-39
0.068479858 0.033298228 0.22000001 1.1616623e-38
0.06340459 0.034773596 0.22000001 9.9607336e-39
0.064289808 0.034773596 0.22000001 9.9607336e-39
0.065529123 0.034773596 0.22000001 9.8685379e-39
0.066591382 0.034773596 0.22000001 1.078904e-38
0.06729956 0.034596551 0.22000001 1.1802827e-38
0.062696412 0.03548177 0.22000001 9.8688967e-39
0.06340459 0.03548177 0.22000001 9.8688967e-39
0.064289808 0.03548177 0.22000001 9.9607336e-39
0.065529123 0.03548177 0.22000001 9.8688953e-39
0.066473357 0.035422754 0.22000001 1.1157092e-38
0.062519372 0.036544036 0.22000001 9.9607336e-39
0.06340459 0.036544036 0.22000001 9.8688967e-39
0.064289808 0.036366992 0.22000001 9.7770612e-39
0.065529123 0.036544036 0.22000001 1.0606086e-38
0.066237301 0.036366992 0.22000001 1.2538562e-38
0.061988238 0.037429258 0.22000001 1.0236241e-38
0.062519372 0.037429258 0.22000001 1.005221e-38
0.063050501 0.037075169 0.22000001 9.9607336e-39
0.065647148 0.03731123 0.22000001 1.2538564e-38
0.059863709 0.03884561 0.22000001 1.1066002e-38
0.060748927 0.038668565 0.22000001 1.0881611e-38
0.061634153 0.038491521 0.22000001 1.0328437e-38
0.062460352 0.038255464 0.22000001 1.0144046e-38
0.065529123 0.038314477 0.22000001 1.4746902e-38
0.058447357 0.039907873 0.22000001 1.0329875e-38
0.059509624 0.039730832 0.22000001 1.088233e-38
0.060748927 0.039730828 0.22000001 1.0697938e-38
0.061516125 0.039671812 0.22000001 1.0053288e-38
0.056676917 0.040970135 0.22000001 1.0052206e-38
0.057621151 0.040734079 0.22000001 9.7766996e-39
0.058447357 0.04061605 0.22000001 9.8688967e-39
0.059509624 0.040616047 0.22000001 1.0236959e-38
0.060748927 0.04061605 0.22000001 1.0329155e-38
0.061634153 0.040616047 0.22000001 1.0329505e-38
0.046408355 0.041678313 0.22000001 1.0789415e-38
0.055791695 0.041501269 0.22000001 1.0235879e-38
0.056322828 0.041324224 0.22000001 1.0144402e-38
0.057562139 0.041501269 0.22000001 9.7759794e-39
0.058447357 0.041501269 0.22000001 9.6848627e-39
0.059509624 0.041324224 0.22000001 9.9610895e-39
0.061280064 0.041324224 0.22000001 1.0145475e-38
0.054729432 0.042386491 0.22000001 9.7759794e-39
0.057562135 0.042386491 0.22000001 9.6841425e-39
0.058093268 0.042032402 0.22000001 9.6845026e-39
0.053490121 0.043448754 0.22000001 9.316083e-39
0.054198299 0.043271709 0.22000001 9.4082744e-39
0.056499872 0.043448754 0.22000001 9.4983107e-39
0.057385094 0.043271709 0.22000001 9.7756192e-39
0.026933504 0.044156931 0.22000001 1.1156756e-38
0.052781947 0.044865105 0.22000001 8.8551049e-39
0.05331308 0.04451102 0.22000001 9.5004743e-39
0.05445122 0.044561602 0.22000001 9.6845054e-39
0.055791695 0.044688061 0.22000001 9.7756178e-39
0.056499872 0.044333976 0.22000001 9.3139194e-39
0.052663919 0.045691311 0.22000001 9.2231685e-39
0.053313076 0.045573283 0.22000001 9.2231699e-39
0.054552387 0.045573283 0.22000001 1.023696e-38
0.05561465 0.045219194 0.22000001 1.0420989e-38
0.051719677 0.046812594 0.22000001 9.7752633e-39
0.052604899 0.04663555 0.22000001 9.3153642e-39
0.05331308 0.04663555 0.22000001 9.1309729e-39
0.054501805 0.046534382 0.22000001 9.8685365e-39
0.055968739 0.046458505 0.22000001 1.0882323e-38
0.056499872 0.046812594 0.22000001 1.051246e-38
0.057526726 0.046706367 0.22 1.0142587e-38
0.058093268 0.046812594 0.22000001 1.1340036e-38
0.051719677 0.047697812 0.22000001 9.8674589e-39
0.052604899 0.047697812 0.22000001 9.7752633e-39
0.053313076 0.047697812 0.22000001 9.4986764e-39
0.056322828 0.047697812 0.22000001 1.0788319e-38
0.058093268 0.047697812 0.22000001 1.2537468e-38
0.051719677 0.048228946 0.22000001 9.8674589e-39
0.052604899 0.048228942 0.22000001 9.7752633e-39
0.053136036 0.048051901 0.22000001 9.6830677e-39
0.056322828 0.048228946 0.22000001 1.0787589e-38
0.049665965 0.049680706 0.22 1.0145125e-38
0.050303325 0.049468253 0.22000001 1.023732e-38
0.051365588 0.049468249 0.22000001 9.9607336e-39
0.052427854 0.049114164 0.22000001 9.591951e-39
0.056322828 0.049114164 0.22000001 1.1338218e-38
0.048414856 0.050648544 0.22000001 1.0053291e-38
0.049595147 0.050530519 0.22000001 1.0145125e-38
0.050303325 0.050530516 0.22000001 1.0145125e-38
0.051129531 0.050412487 0.22000001 1.005257e-38
0.035077531 0.051238693 0.22000001 1.0695778e-38
0.04758865 0.05147475 0.22000001 9.8688981e-39
0.04835584 0.051415734 0.22000001 1.0053289e-38
0.04952433 0.051380329 0.22 1.0053648e-38
0.054552387 0.051592782 0.22000001 1.2811902e-38
0.078630388 0.051415734 0.22000001 1.0053289e-38
0.046479173 0.052513409 0.22 9.8681778e-39
0.047470618 0.052478001 0.22000001 9.7763423e-39
0.04835584 0.052478001 0.22000001 9.8685379e-39
0.049241062 0.05230096 0.22000001 1.0052929e-38
0.054198299 0.05230096 0.22000001 1.3823521e-38
0.077568121 0.052655045 0.22000001 1.1159633e-38
0.078276299 0.05230096 0.22000001 1.088269e-38
0.044992004 0.053363223 0.22000001 1.0236241e-38
0.045346089 0.053186178 0.22000001 1.0052569e-38
0.046408355 0.053186178 0.22000001 9.6841467e-39
0.047470622 0.053186178 0.22000001 9.6841467e-39
0.048178796 0.053009134 0.22000001 9.6841467e-39
0.043575648 0.054779574 0.22000001 9.6845026e-39
0.044688497 0.054526653 0.22000001 9.5923084e-39
0.045346092 0.054425489 0.22000001 9.6845054e-39
0.046364095 0.054381222 0.22000001 9.8685365e-39
0.047116533 0.0540714 0.22000001 9.6841467e-39
0.051542632 0.054248445 0.22000001 1.2076871e-38
0.042867474 0.055841841 0.22000001 1.0052206e-38
0.043398604 0.055664793 0.22000001 9.8678149e-39
0.044637915 0.055664793 0.22000001 9.7756192e-39
0.045346089 0.055487752 0.22000001 9.7756192e-39
0.046054266 0.055487752 0.22000001 9.592307e-39
0.041805208 0.056550015 0.22000001 1.042027e-38
0.042513385 0.05637297 0.22000001 1.0328433e-38
0.043398604 0.05637297 0.22000001 9.8674561e-39
0.044401854 0.056313958 0.22000001 9.591228e-39
0.051365592 0.056550015 0.22000001 1.2716076e-38
0.040270824 0.057848338 0.22000001 1.1618456e-38
0.041495383 0.057656545 0.22000001 1.1157835e-38
0.042442571 0.05754146 0.22 1.0512465e-38
0.043398604 0.057258192 0.22000001 1.0051487e-38
0.051365595 0.057612281 0.22000001 1.1702664e-38
0.039680678 0.058674544 0.22000001 1.0789052e-38
0.040211812 0.058674544 0.22000001 1.0973444e-38
0.041451123 0.058674544 0.22000001 1.1156756e-38
0.052604899 0.058674544 0.22000001 7.7465895e-39
0.037674177 0.059618782 0.22000001 9.3146411e-39
0.038662676 0.059426986 0.22000001 9.4990323e-39
0.039680678 0.059382722 0.22000001 9.9600105e-39
0.040176403 0.059311904 0.22 1.0144043e-38
0.041097034 0.059028633 0.22000001 1.042027e-38
0.052604899 0.059028633 0.22000001 7.7476713e-39
0.036729947 0.060681045 0.22000001 9.1302498e-39
0.037556149 0.060622029 0.22000001 9.4990323e-39
0.038618416 0.060622025 0.22000001 9.6837837e-39
0.039680678 0.060444985 0.22000001 9.8678149e-39
0.035785709 0.06186134 0.22000001 9.1295282e-39
0.036670931 0.061507251 0.22000001 9.0380528e-39
0.037556149 0.061507251 0.22000001 9.1306086e-39
0.038264327 0.061507251 0.22000001 9.4071954e-39
0.035644073 0.062640332 0.22 9.2217238e-39
0.036670931 0.062569514 0.22000001 9.0380514e-39
0.037485331 0.0624987 0.22 9.130247e-39
0.035502438 0.063844234 0.22 9.2217238e-39
0.036670931 0.063808829 0.22000001 9.4986708e-39
0.03543162 0.064339958 0.22000001 9.0373325e-39
0.036670931 0.064339958 0.22000001 9.4983107e-39
0.034723446 0.065756306 0.22000001 8.8529413e-39
0.035431616 0.065402217 0.22000001 8.8529413e-39
0.036670931 0.065402217 0.22000001 8.8529413e-39
0.03720206 0.065756306 0.22000001 8.8529413e-39
0.048532885 0.065756306 0.22000001 8.4848804e-39
0.049241062 0.065756306 0.22000001 8.4848804e-39
0.034487385 0.066582508 0.22000001 8.7607456e-39
0.03543162 0.066464484 0.22000001 8.66855e-39
0.036670931 0.066464484 0.22000001 8.6678297e-39
0.03720206 0.066464484 0.22000001 8.6681857e-39
0.04835584 0.066110395 0.22000001 8.4848804e-39
0.034369357 0.06734971 0.22000001 8.66855e-39
0.03543162 0.06734971 0.22000001 8.6681913e-39
0.036670931 0.06734971 0.22000001 8.9436922e-39
0.03720206 0.067172661 0.22000001 9.4954184e-39
0.034723446 0.068234928 0.22000001 8.66855e-39
0.035343096 0.068323448 0.22000001 8.9444138e-39
0.036493886 0.068234928 0.22000001 1.0783268e-38
0.078276299 0.068234928 0.22000001 9.315367e-39
0.03153665 0.070713542 0.22000001 8.3919631e-39
0.03153665 0.07142172 0.22000001 8.4837958e-39
0.031890739 0.072306946 0.22000001 9.5876182e-39
0.031890739 0.073192157 0.22000001 1.2255508e-38
0.032244828 0.073192157 0.22000001 1.3083807e-38
0.035592675 -0.014332466 0.22100002 1.5437369e-38
0.035592675 -0.013443222 0.22100002 1.5161497e-38
0.037549011 -0.013621071 0.22100002 1.5068593e-38
0.038616106 -0.013443222 0.22100002 1.451506e-38
0.039327499 -0.013443222 0.22100002 1.4423223e-38
0.040216744 -0.013265373 0.22100002 1.4149513e-38
0.035592675 -0.012731828 0.22100002 1.4976031e-38
0.038793951 -0.012909677 0.22100002 1.4422867e-38
0.039327499 -0.012731828 0.22100002 1.4238835e-38
0.039327499 -0.011486885 0.221 1.3227201e-38
0.040216744 -0.011664735 0.22100002 1.322828e-38
0.038556825 -0.010182661 0.22100002 1.3228637e-38
0.06440419 0.028706949 0.22100002 9.591951e-39
0.063692793 0.029240496 0.22100002 9.8685407e-39
0.064522751 0.029299779 0.22100002 9.4075598e-39
0.062981397 0.030663285 0.22100002 1.0145128e-38
0.063514948 0.030485436 0.221 1.0052932e-38
0.064582035 0.030485436 0.221 9.9607336e-39
0.065293431 0.030663285 0.22100002 9.8685379e-39
0.066301234 0.030604003 0.22100002 9.9614524e-39
0.062803552 0.03173038 0.22100002 1.0145125e-38
0.063514948 0.03173038 0.22100002 1.0145125e-38
0.064582035 0.03173038 0.22100002 9.9607336e-39
0.065234147 0.031671096 0.22100002 9.9607336e-39
0.068316862 0.031552531 0.22100002 1.088269e-38
0.061914302 0.032441773 0.22100002 1.0145126e-38
0.062803552 0.032441773 0.22100002 1.0145125e-38
0.063514948 0.032441773 0.22100002 1.0145125e-38
0.064582035 0.032441776 0.22100002 9.9607336e-39
0.069383956 0.032619622 0.22100002 1.2078325e-38
0.061736453 0.033508867 0.22100002 1.0145125e-38
0.062803552 0.033508867 0.22100002 1.0145125e-38
0.063455664 0.033449586 0.22100002 1.0052929e-38
0.06440419 0.033331018 0.22100002 1.0052929e-38
0.069739655 0.033331018 0.22100002 1.4011524e-38
0.070095353 0.033331018 0.22100002 1.5117128e-38
0.061558604 0.034398112 0.221 1.0145125e-38
0.062803552 0.034398112 0.22100002 1.0052929e-38
0.063337095 0.034042414 0.22100002 9.9607336e-39
0.060402591 0.035554126 0.22100002 1.0420633e-38
0.061558604 0.035465203 0.22099999 1.0052929e-38
0.062714621 0.035376281 0.22100002 9.9607336e-39
0.066894069 0.035820901 0.22100002 1.1341846e-38
0.067605466 0.035109505 0.22100002 1.2539304e-38
0.058713023 0.036887996 0.22100002 1.0513184e-38
0.059661552 0.036769431 0.22100002 1.0513186e-38
0.060313664 0.036710147 0.22100002 1.0328436e-38
0.061558604 0.036710147 0.221 1.0144765e-38
0.066538371 0.036887996 0.22100002 1.3275396e-38
0.058428466 0.03767053 0.221 1.023624e-38
0.059602268 0.037599392 0.22100002 1.0420631e-38
0.060313664 0.037599392 0.22100002 1.0605381e-38
0.061380755 0.037599392 0.22100002 1.0513187e-38
0.066182673 0.037955087 0.22100002 1.4287383e-38
0.056934536 0.038666483 0.22100002 1.0145125e-38
0.057290234 0.038488634 0.22100002 1.0144765e-38
0.058357324 0.038488634 0.221 1.0328797e-38
0.059602268 0.038488634 0.22100002 1.069722e-38
0.06025438 0.03842935 0.22100002 1.0973806e-38
0.061202906 0.038310785 0.22100002 1.0789415e-38
0.056815971 0.039496448 0.22100002 9.9607336e-39
0.057290234 0.039377879 0.22100002 1.0053648e-38
0.058357328 0.039377879 0.221 1.0514266e-38
0.059602268 0.039022181 0.22100002 1.088269e-38
0.056578834 0.040267125 0.221 9.960372e-39
0.057290234 0.040267125 0.22100002 9.7770612e-39
0.05800163 0.040089276 0.22100002 9.9614524e-39
0.045907907 0.041867763 0.22100002 1.0789415e-38
0.047686394 0.041867763 0.22100002 1.069722e-38
0.054444652 0.041867763 0.22100002 9.6834236e-39
0.055333897 0.041512065 0.22100002 9.9592916e-39
0.056400988 0.041156366 0.22100002 1.0144042e-38
0.046975002 0.042223461 0.22100002 1.0512828e-38
0.047330696 0.042223461 0.22100002 1.069722e-38
0.050887674 0.042934854 0.22100002 9.8685379e-39
0.051776923 0.042579159 0.22100002 9.3157243e-39
0.052310467 0.042579159 0.22100002 8.9473005e-39
0.053377558 0.042579155 0.221 9.3157215e-39
0.054326087 0.042460591 0.22100002 9.4997526e-39
0.050603114 0.043503974 0.221 1.005185e-38
0.05177692 0.043468401 0.22100002 9.1316918e-39
0.052310467 0.043468401 0.22100002 8.6707136e-39
0.053306419 0.043432832 0.221 9.2238874e-39
0.04958345 0.04459478 0.22100002 1.0144046e-38
0.050531972 0.044535492 0.221 1.0236241e-38
0.05177692 0.044535495 0.22100002 9.591951e-39
0.052310467 0.044535495 0.22100002 8.9473005e-39
0.053021859 0.044535495 0.22100002 8.8551049e-39
0.048753489 0.045424737 0.22100002 1.0236241e-38
0.049464885 0.045246892 0.22100002 1.0144046e-38
0.050531972 0.045246888 0.221 1.0236241e-38
0.051776923 0.045246888 0.22100002 9.9596546e-39
0.052310467 0.045246892 0.22100002 9.5001141e-39
0.047686394 0.04684753 0.22100002 1.0512109e-38
0.048611209 0.04656297 0.221 1.0420273e-38
0.049464885 0.046491832 0.221 1.0789415e-38
0.05053198 0.046491832 0.22099999 1.0605024e-38
0.05174135 0.046420693 0.221 9.7752633e-39
0.047567829 0.047796056 0.22100002 1.0512828e-38
0.04857564 0.047736771 0.22100002 1.0512828e-38
0.049464885 0.047736775 0.22100002 1.152698e-38
0.05053198 0.047736775 0.221 1.1065643e-38
0.05159907 0.047736771 0.22100002 1.0144046e-38
0.056934536 0.04791462 0.22100002 1.0511733e-38
0.045907907 0.048626017 0.22100002 1.0328437e-38
0.046797153 0.048448168 0.22100002 1.0420633e-38
0.047508545 0.048448168 0.22100002 1.0420633e-38
0.04857564 0.048448168 0.22100002 1.0328797e-38
0.049464885 0.048448168 0.22100002 1.0881971e-38
0.050531972 0.048448164 0.221 1.0881251e-38
0.05159907 0.048448168 0.22100002 1.0144046e-38
0.045623351 0.049550831 0.221 1.005221e-38
0.046797149 0.049515262 0.22100002 1.0052929e-38
0.047508545 0.049515262 0.22100002 1.0145125e-38
0.04857564 0.049515262 0.22100002 1.0145125e-38
0.049346317 0.049455982 0.22100002 1.0145125e-38
0.050176278 0.049337413 0.22100002 1.0329516e-38
0.056934536 0.049693111 0.22100002 1.2719338e-38
0.044247985 0.050285939 0.22100002 1.0144046e-38
0.045552209 0.050226659 0.221 1.005185e-38
0.046797153 0.050226659 0.22100002 9.8685379e-39
0.047508545 0.050226655 0.22100002 1.0052929e-38
0.048516359 0.050167378 0.22100002 1.0145125e-38
0.035592675 0.0511159 0.22100002 1.0695775e-38
0.042528778 0.051827297 0.22100002 1.0051131e-38
0.043631442 0.051542737 0.221 1.005149e-38
0.044307273 0.051471595 0.221 1.005185e-38
0.045552209 0.051471595 0.22099999 9.9596546e-39
0.046797153 0.051471595 0.221 9.6841481e-39
0.047449261 0.051234465 0.22100002 9.8692596e-39
0.079580627 0.051708728 0.22100002 9.2238902e-39
0.04092814 0.052894387 0.22100002 1.0143683e-38
0.041639537 0.052716538 0.22100002 1.0143683e-38
0.042528778 0.052716538 0.22100002 9.7752633e-39
0.043595873 0.052716538 0.22100002 9.7752633e-39
0.044307269 0.052716538 0.22100002 9.8674589e-39
0.045481071 0.052680969 0.221 9.9600133e-39
0.078987792 0.052538693 0.22100002 1.0329516e-38
0.07934349 0.052538693 0.22100002 9.8685407e-39
0.04064358 0.053463507 0.221 1.0143683e-38
0.041639537 0.053427935 0.22100002 9.9592916e-39
0.042528778 0.053427935 0.22100002 9.7756192e-39
0.043595873 0.053427935 0.22100002 9.6837865e-39
0.044307265 0.053427935 0.22100002 9.8678191e-39
0.045196511 0.053250086 0.22100002 1.0052929e-38
0.039505348 0.054672878 0.22100002 9.8678149e-39
0.040572442 0.054495025 0.221 1.0143683e-38
0.041639537 0.054495029 0.22100002 9.9592916e-39
0.042528778 0.054495029 0.22100002 9.7756192e-39
0.043595873 0.054495029 0.22100002 9.591951e-39
0.044307269 0.05431718 0.22100002 9.6841467e-39
0.039386783 0.055502836 0.22100002 9.6834236e-39
0.040572438 0.055384275 0.221 9.7756192e-39
0.041639537 0.055384271 0.22100002 9.8674547e-39
0.042528778 0.055384271 0.22100002 9.9600105e-39
0.043418024 0.055028576 0.22100002 9.592307e-39
0.05159907 0.055384271 0.22100002 1.2810813e-38
0.038675386 0.056688499 0.22100002 1.0235879e-38
0.039327499 0.056451362 0.221 9.867096e-39
0.040572446 0.056451365 0.22099999 9.8674561e-39
0.041568398 0.056380223 0.221 1.0051846e-38
0.042350929 0.056095667 0.22100002 1.0144402e-38
0.05159907 0.056451365 0.22100002 1.2808272e-38
0.037460089 0.057785232 0.22100002 9.7748976e-39
0.038616106 0.057696305 0.22100002 1.0143681e-38
0.039327499 0.057696309 0.22100002 1.0696857e-38
0.040483519 0.057607386 0.22100002 1.1157835e-38
0.051954769 0.057696309 0.22100002 1.1241679e-38
0.052310467 0.057874158 0.22100002 9.4939526e-39
0.035663813 0.058656693 0.221 9.4061164e-39
0.036304068 0.058585551 0.22100002 9.4061164e-39
0.037371162 0.058585554 0.221 9.4061164e-39
0.038616106 0.058585551 0.22100002 9.867096e-39
0.039268214 0.058466986 0.22100002 1.0328074e-38
0.051954769 0.058229852 0.22100002 1.0412299e-38
0.052310467 0.058229852 0.22100002 8.9422292e-39
0.053021859 0.058229852 0.22100002 7.8380621e-39
0.034347732 0.059474796 0.22100002 9.0376955e-39
0.035592675 0.059474796 0.221 9.2224455e-39
0.036304068 0.059474796 0.22100002 9.2224455e-39
0.037300024 0.059439223 0.221 9.1302498e-39
0.038438257 0.059296947 0.22100002 9.4990323e-39
0.033814184 0.060719736 0.22100002 9.2217266e-39
0.034407016 0.060482603 0.22100002 9.0384143e-39
0.035592675 0.060364041 0.221 9.0384143e-39
0.036304068 0.060364038 0.22100002 9.1302498e-39
0.037015464 0.060008343 0.22100002 9.1302498e-39
0.033458486 0.061431132 0.22100002 9.2217252e-39
0.034347732 0.061253283 0.22100002 9.2217266e-39
0.035592675 0.061253279 0.221 9.2217266e-39
0.032747094 0.062676072 0.22100002 9.2217238e-39
0.033529628 0.062569365 0.221 9.2217238e-39
0.034347728 0.062498227 0.221 9.2217238e-39
0.035379253 0.062427085 0.221 9.2217238e-39
0.033814184 0.063565321 0.22100002 9.0373325e-39
0.034347732 0.063565321 0.22100002 9.1295282e-39
0.035236977 0.063565321 0.22100002 9.2217252e-39
0.033814184 0.064454563 0.22100002 8.9451369e-39
0.034347732 0.064454563 0.22100002 8.9451369e-39
0.034347732 0.065521657 0.22100002 8.8529413e-39
0.033814184 0.066233054 0.22100002 8.8529413e-39
0.034169883 0.066233054 0.22100002 8.66855e-39
0.033577051 0.067359425 0.22100002 8.7607456e-39
0.030968603 0.072457761 0.22100002 8.4830769e-39
0.031324301 0.072635606 0.22100002 8.5752726e-39
0.043093111 -0.018051337 0.223 1.5990546e-38
0.041298531 -0.017692421 0.223 1.5345177e-38
0.042542562 -0.017970391 0.22200002 1.5806155e-38
0.056552488 0.021250034 0.223 1.1619176e-38
0.057090864 0.022147324 0.223 1.152698e-38
0.061756782 0.024659742 0.223 1.1620255e-38
0.059962198 0.02573649 0.223 1.1711372e-38
0.060321115 0.02573649 0.223 1.1711372e-38
0.061397865 0.025557034 0.223 1.1804286e-38
0.062474612 0.025557032 0.223 1.1804646e-38
0.058526531 0.026813241 0.223 1.0973806e-38
0.059603278 0.026454324 0.223 1.1158198e-38
0.060321115 0.026454324 0.223 1.1342589e-38
0.061397865 0.026454324 0.223 1.1251114e-38
0.06259425 0.026573963 0.223 1.1436225e-38
0.057569418 0.027770353 0.223 1.1158198e-38
0.058347072 0.027531074 0.223 1.0881611e-38
0.059603281 0.027531078 0.22300002 1.0789415e-38
0.060321111 0.027531074 0.223 1.0789415e-38
0.061397869 0.027531078 0.22300002 1.0789419e-38
0.062654071 0.027531074 0.223 1.0882695e-38
0.063458927 0.027564483 0.22285716 1.1344031e-38
0.0642692 0.027531074 0.223 1.2173431e-38
0.056731947 0.028787281 0.223 1.1158558e-38
0.05744978 0.028787281 0.223 1.088233e-38
0.058347072 0.028787281 0.223 1.0697938e-38
0.059603285 0.028787283 0.223 1.069758e-38
0.060321115 0.028787281 0.223 1.069758e-38
0.061397865 0.028787283 0.223 1.0236965e-38
0.062598459 0.02867957 0.22216667 1.0237323e-38
0.063742794 0.028717741 0.22200002 1.0052932e-38
0.056444813 0.029541006 0.223 1.0790494e-38
0.05744978 0.029505115 0.223 1.0698299e-38
0.058347072 0.029505115 0.223 1.0606103e-38
0.059603285 0.029505113 0.223 1.0606103e-38
0.060321115 0.029505115 0.223 1.0513907e-38
0.061378773 0.029438825 0.22250001 1.0237323e-38
0.062551767 0.029372804 0.22200002 1.0145128e-38
0.063623689 0.029372804 0.22200002 9.9607364e-39
0.065410227 0.029372804 0.22200002 9.4075598e-39
0.066124842 0.029551458 0.22200002 9.6841467e-39
0.055296279 0.030761324 0.223 1.0606103e-38
0.05637303 0.030581867 0.223 1.0790496e-38
0.05744978 0.030581865 0.223 1.06983e-38
0.058347069 0.030581865 0.223 1.0513907e-38
0.059603285 0.030581867 0.223 1.0421712e-38
0.060557637 0.030669093 0.22233336 1.0329516e-38
0.061479852 0.030623378 0.22200002 1.0145126e-38
0.062449683 0.030572336 0.22200002 1.0052932e-38
0.065588877 0.030266073 0.22200002 9.6841467e-39
0.066482149 0.030266073 0.22200002 9.8688981e-39
0.068625994 0.030980686 0.22200002 1.0699017e-38
0.054817725 0.031598795 0.223 1.0606104e-38
0.055296279 0.031479158 0.223 1.0606106e-38
0.05637303 0.031479158 0.223 1.0606106e-38
0.05744978 0.031479158 0.223 1.0606106e-38
0.058347072 0.031479158 0.223 1.0513909e-38
0.059558466 0.031455364 0.22283334 1.0329516e-38
0.060586579 0.031695299 0.22200002 1.0329516e-38
0.061479848 0.031695299 0.22200002 1.0145125e-38
0.062194463 0.031695299 0.22200002 1.0145125e-38
0.053770885 0.032645635 0.223 1.0789775e-38
0.054757904 0.032555908 0.223 1.0513907e-38
0.055296283 0.032555908 0.223 1.0421712e-38
0.056373034 0.032555912 0.22300002 1.0606106e-38
0.057449777 0.032555908 0.223 1.0421715e-38
0.05851683 0.032545622 0.22262502 1.0421715e-38
0.059476044 0.032379497 0.22214286 1.0421715e-38
0.060586583 0.03240991 0.22200002 1.0329517e-38
0.061479848 0.03240991 0.22200002 1.0145126e-38
0.062194463 0.032052606 0.22200002 1.0145125e-38
0.070233867 0.032767221 0.22200002 1.3275776e-38
0.052424945 0.033991572 0.223 1.1158198e-38
0.053501695 0.033812117 0.223 1.0881611e-38
0.054757904 0.033812113 0.223 1.0606103e-38
0.055296279 0.033812113 0.223 1.0513907e-38
0.05637303 0.033812117 0.223 1.0606103e-38
0.05753259 0.033685625 0.22216667 1.0606103e-38
0.058800042 0.03366049 0.22200002 1.0606103e-38
0.059514657 0.03366049 0.22200002 1.0606103e-38
0.060586579 0.03366049 0.22200002 1.0513907e-38
0.06112254 0.03366049 0.22200002 1.023732e-38
0.069652945 0.033991572 0.223 1.2998108e-38
0.070370778 0.033991572 0.223 1.4840177e-38
0.051707115 0.034350488 0.223 1.1619176e-38
0.052424945 0.034350488 0.223 1.1250393e-38
0.053501695 0.034350488 0.223 1.0881611e-38
0.054757904 0.034350488 0.223 1.0698299e-38
0.055529606 0.034630775 0.22250001 1.0513907e-38
0.056384861 0.034513105 0.22220001 1.0513907e-38
0.057549465 0.034553759 0.22200002 1.0513907e-38
0.058800042 0.034553759 0.22200002 1.0606103e-38
0.059514657 0.034553759 0.22200002 1.0421712e-38
0.060586579 0.034553759 0.22200002 1.0329516e-38
0.068625994 0.034196451 0.22200002 1.14326e-38
0.050989281 0.035786156 0.223 1.0789771e-38
0.05152766 0.035427239 0.223 1.1158196e-38
0.052424949 0.035427239 0.223 1.1066002e-38
0.053501695 0.035427239 0.22300002 1.069758e-38
0.054713156 0.035483707 0.22271429 1.0606103e-38
0.055543132 0.035546057 0.22214286 1.0421352e-38
0.056477547 0.035625678 0.22200002 1.0421353e-38
0.057549469 0.035625678 0.22200002 1.0329156e-38
0.058800042 0.035625678 0.22200002 1.0605384e-38
0.059514657 0.035625678 0.22200002 1.0605024e-38
0.060407925 0.035447024 0.22200002 1.0512828e-38
0.050750002 0.036623627 0.223 1.060538e-38
0.051527657 0.036503989 0.223 1.0605024e-38
0.052424945 0.036503989 0.223 1.069722e-38
0.053501695 0.036503989 0.223 1.069722e-38
0.054534387 0.036513422 0.22233336 1.0789415e-38
0.055584278 0.0366976 0.22200002 1.0512828e-38
0.056477547 0.0366976 0.22200002 1.0512828e-38
0.057549465 0.0366976 0.22200002 1.0420633e-38
0.058800042 0.0366976 0.22200002 1.0605024e-38
0.059336003 0.0366976 0.22200002 1.069722e-38
0.067499444 0.036862906 0.223 1.299954e-38
0.050630365 0.037401281 0.223 1.0697577e-38
0.051527657 0.037401281 0.223 1.0697577e-38
0.052424945 0.037401281 0.223 1.0789771e-38
0.053559855 0.037317287 0.22250001 1.0697576e-38
0.054512359 0.037233561 0.22200002 1.0789771e-38
0.055584278 0.037233561 0.22200002 1.0697576e-38
0.056477547 0.037233561 0.22200002 1.0513184e-38
0.057549465 0.037233561 0.22200002 1.0236597e-38
0.058621392 0.037054908 0.22200002 1.0328793e-38
0.048297405 0.03865749 0.223 1.0789052e-38
0.050750002 0.038418215 0.223 1.0605383e-38
0.051527657 0.038478032 0.223 1.0697218e-38
0.052520853 0.038550712 0.22280002 1.0789412e-38
0.053634003 0.03848261 0.22225001 1.0513184e-38
0.054512355 0.038484138 0.22200002 1.0512827e-38
0.055584271 0.038484138 0.22200002 1.0420633e-38
0.056477547 0.038484138 0.22200002 1.0420993e-38
0.057311267 0.038245931 0.22200002 1.0236241e-38
0.04775903 0.039195865 0.223 1.1342223e-38
0.048476864 0.039195865 0.223 1.1434419e-38
0.049733073 0.039375324 0.223 1.1157832e-38
0.050750002 0.039255682 0.223 1.0789051e-38
0.051450636 0.039435033 0.22266668 1.0513184e-38
0.052501135 0.039443213 0.22237501 1.060538e-38
0.053797744 0.039556056 0.22200002 1.0236597e-38
0.054512355 0.039556056 0.22200002 1.0236597e-38
0.055584274 0.039556056 0.22200002 1.023624e-38
0.056358445 0.039436955 0.22200002 1.02366e-38
0.047794815 0.040406723 0.22275001 1.2079791e-38
0.048484668 0.040383644 0.22262502 1.1894319e-38
0.049658731 0.040391073 0.22266668 1.143406e-38
0.050576124 0.040360834 0.22250003 1.0697215e-38
0.051296588 0.040449325 0.22200002 1.0328436e-38
0.052547168 0.040449325 0.22200002 1.042099e-38
0.053797744 0.040449325 0.22200002 1.0144402e-38
0.054512355 0.040449325 0.22200002 9.6834236e-39
0.055584274 0.040449325 0.22200002 1.0144402e-38
0.046562642 0.0417681 0.223 1.0881611e-38
0.047496077 0.041404668 0.22233336 1.0973806e-38
0.048616786 0.041521247 0.22200002 1.051247e-38
0.049510054 0.041521247 0.22200002 1.0420633e-38
0.050581977 0.041521247 0.22200002 1.0328437e-38
0.051296588 0.041521247 0.22200002 1.0236241e-38
0.052547168 0.041521247 0.22200002 9.5912322e-39
0.053797744 0.041521247 0.22200002 9.5915881e-39
0.054512355 0.041521247 0.22200002 9.591228e-39
0.055405624 0.041342594 0.22200002 9.867096e-39
0.044887695 0.042605571 0.223 1.069722e-38
0.045485888 0.042485934 0.223 1.069722e-38
0.046398152 0.042510044 0.22250001 1.069722e-38
0.047902171 0.042414516 0.22200002 1.0512828e-38
0.048616786 0.042235866 0.22200002 1.0328437e-38
0.049510054 0.042235862 0.22200002 1.0236241e-38
0.050581977 0.042235866 0.22200002 1.0236241e-38
0.051237036 0.04217631 0.22200002 1.0144046e-38
0.052547168 0.042057205 0.22200002 9.3153642e-39
0.053797744 0.042057209 0.22200002 9.5915881e-39
0.043810945 0.043682322 0.223 1.0236241e-38
0.044708237 0.04350286 0.223 1.0420989e-38
0.045426071 0.043502863 0.223 1.0697576e-38
0.046450485 0.043454293 0.22275001 1.0605024e-38
0.047544859 0.043486431 0.22200002 1.0420633e-38
0.048616786 0.043486435 0.22200002 1.0328437e-38
0.049510051 0.043486435 0.22200002 1.005185e-38
0.050522428 0.043248232 0.22200002 1.005185e-38
0.041657448 0.044759072 0.223 1.0513184e-38
0.042195823 0.044759072 0.223 1.0605024e-38
0.043523811 0.044471938 0.223 1.1066002e-38
0.044708237 0.044400156 0.223 1.0789771e-38
0.045426071 0.044400156 0.223 1.0789771e-38
0.046496846 0.044503253 0.22280002 1.0605024e-38
0.047544863 0.044737011 0.22200002 1.0789415e-38
0.048616786 0.044737011 0.22200002 1.0328437e-38
0.049331401 0.044558357 0.22200002 1.0144046e-38
0.040580697 0.045656364 0.223 1.0789771e-38
0.041477989 0.04547691 0.223 1.0697576e-38
0.042195823 0.045476902 0.223 1.0973804e-38
0.043452024 0.045476906 0.22300002 1.1987597e-38
0.044708237 0.045476902 0.223 1.1526617e-38
0.045451537 0.045442652 0.22283334 1.0973804e-38
0.046341646 0.045425683 0.22240002 1.069722e-38
0.047544863 0.045451626 0.22200002 1.0973806e-38
0.048497681 0.045392077 0.22200002 1.0605024e-38
0.039862864 0.046912573 0.223 1.1526617e-38
0.040401239 0.046733115 0.223 1.1065998e-38
0.041477989 0.046733119 0.223 1.0789052e-38
0.042195819 0.046733119 0.223 1.0973444e-38
0.043452028 0.046733115 0.223 1.1065639e-38
0.044657916 0.046680521 0.22275001 1.1157835e-38
0.045401022 0.046523545 0.22200002 1.0789054e-38
0.046294287 0.046523549 0.22200002 1.051247e-38
0.047544863 0.046523545 0.22200002 1.0604665e-38
0.048259478 0.046344895 0.22200002 1.0420633e-38
0.039623585 0.047750045 0.223 1.0973444e-38
0.040401239 0.047630407 0.223 1.0973444e-38
0.041477989 0.047630407 0.223 1.0789052e-38
0.042195823 0.047630407 0.223 1.0789052e-38
0.043446362 0.047558676 0.22266668 1.0604661e-38
0.044507753 0.047416814 0.22200002 1.0696857e-38
0.045401022 0.047416814 0.22200002 1.0696857e-38
0.046294287 0.047416814 0.22200002 1.0604305e-38
0.047366209 0.047416814 0.22200002 1.0604665e-38
0.038666476 0.048587516 0.223 1.0881248e-38
0.039503947 0.048527695 0.223 1.0789052e-38
0.040401239 0.048527695 0.223 1.0789052e-38
0.041576926 0.04861309 0.22257145 1.0604661e-38
0.042596631 0.048499636 0.22228573 1.042027e-38
0.043614488 0.048488736 0.22200002 1.0328074e-38
0.044507757 0.048488736 0.22200002 1.042027e-38
0.045401022 0.048488736 0.22200002 1.0328434e-38
0.046234738 0.04825053 0.22200002 1.0420633e-38
0.047187556 0.048131429 0.22200002 1.069722e-38
0.057500429 0.048597544 0.22250001 1.0879062e-38
0.058347072 0.048527695 0.223 1.1799554e-38
0.037350446 0.049783904 0.223 1.1434422e-38
0.038427193 0.049424987 0.223 1.0881248e-38
0.039503947 0.049424987 0.223 1.0696857e-38
0.040429626 0.049552102 0.22250001 1.0604661e-38
0.041446056 0.049643137 0.22214286 1.0604661e-38
0.042721216 0.049739312 0.22200002 1.0419914e-38
0.043614484 0.049739316 0.22200002 1.0235883e-38
0.044507753 0.049739312 0.22200002 1.0236241e-38
0.045043714 0.049560659 0.22200002 1.0236241e-38
0.057192162 0.049560659 0.22200002 1.2075783e-38
0.038666476 0.050382096 0.223 1.0881248e-38
0.039474655 0.050507069 0.22250001 1.042027e-38
0.040398721 0.050632577 0.22200002 1.0328074e-38
0.041470643 0.050632577 0.22200002 1.042027e-38
0.042721216 0.050632577 0.22200002 1.0419912e-38
0.043614484 0.050632577 0.22200002 1.0235881e-38
0.044686407 0.05027527 0.22200002 1.0144046e-38
0.034838028 0.051757947 0.223 1.0880168e-38
0.035426676 0.051251475 0.22275001 1.0788689e-38
0.036617596 0.051412821 0.22228573 1.0512105e-38
0.037645221 0.051464587 0.22220001 1.0696857e-38
0.038430814 0.051394589 0.22242859 1.0604661e-38
0.039505452 0.051525846 0.22200002 1.042027e-38
0.040398721 0.051525846 0.22200002 1.0235879e-38
0.041470643 0.051525846 0.22200002 1.0328074e-38
0.042721219 0.051525846 0.22200002 1.0235523e-38
0.043257177 0.051347192 0.22200002 1.0327718e-38
0.034838028 0.052296322 0.223 1.0695422e-38
0.035039112 0.052419119 0.22200002 1.0511029e-38
0.036646996 0.052419119 0.22200002 1.0327714e-38
0.037718914 0.052419119 0.22200002 1.0235879e-38
0.038433529 0.052419119 0.22200002 1.0328074e-38
0.039505452 0.052419119 0.22200002 1.0328074e-38
0.040398721 0.052419119 0.22200002 1.0235879e-38
0.041381314 0.052240461 0.22200002 1.0143683e-38
0.033761278 0.053731985 0.223 1.0695775e-38
0.034479111 0.053373069 0.223 1.0511385e-38
0.035336543 0.053492695 0.22275001 1.02348e-38
0.036468342 0.053491037 0.22200002 1.0051847e-38
0.037718914 0.053491037 0.22200002 1.0051487e-38
0.038433529 0.053491037 0.22200002 9.867096e-39
0.039505452 0.053491037 0.22200002 1.0143683e-38
0.040279616 0.053252835 0.22200002 1.0143683e-38
0.032684531 0.054808736 0.223 1.0603579e-38
0.033581819 0.054629277 0.223 1.0419188e-38
0.034479111 0.054629281 0.223 1.0326994e-38
0.035376403 0.054629281 0.223 1.0050408e-38
0.036468342 0.05474161 0.22200002 9.9592916e-39
0.037718914 0.054741614 0.22200002 9.9592916e-39
0.038433529 0.054741614 0.22200002 9.7752605e-39
0.039445903 0.054682061 0.22200002 9.7756192e-39
0.032564893 0.055406928 0.223 1.0326992e-38
0.033581819 0.055347107 0.223 1.0050407e-38
0.034479111 0.055347107 0.223 1.0050408e-38
0.035380404 0.055476122 0.22280002 1.0050407e-38
0.036468342 0.055634882 0.22200002 9.8670946e-39
0.037718914 0.055634882 0.22200002 9.9592902e-39
0.038433529 0.055634882 0.22200002 9.7752591e-39
0.039326798 0.055277575 0.22200002 9.6834236e-39
0.026821047 0.056706805 0.22200002 1.0695772e-38
0.027480237 0.056962233 0.223 1.0234795e-38
0.028377529 0.056962233 0.223 1.0050405e-38
0.030602813 0.056818664 0.223 1.0050405e-38
0.031787239 0.056603316 0.223 1.0050405e-38
0.032505073 0.056603316 0.223 1.0050405e-38
0.033581819 0.056603316 0.223 9.7745374e-39
0.034453075 0.056560744 0.22283335 9.8667331e-39
0.035213601 0.0564714 0.22220001 9.7748976e-39
0.036468342 0.056528151 0.22200002 9.7748976e-39
0.037718914 0.056528151 0.22200002 1.0051484e-38
0.038373977 0.056468602 0.22200002 1.014368e-38
0.026702801 0.057192631 0.22250001 1.0694693e-38
0.027480237 0.05732115 0.223 1.0326629e-38
0.028556988 0.05732115 0.223 1.0050405e-38
0.029274821 0.05732115 0.223 9.9582098e-39
0.030531028 0.05732115 0.223 9.9582098e-39
0.031787239 0.05732115 0.223 9.9582098e-39
0.032505073 0.05732115 0.223 1.0050405e-38
0.033506524 0.057549935 0.22250001 9.6827019e-39
0.034503151 0.057421416 0.22200002 9.6827019e-39
0.035217766 0.057421416 0.22200002 9.7748976e-39
0.036468342 0.057421416 0.22200002 9.7748976e-39
0.037659362 0.057302315 0.22200002 9.9592888e-39
0.052506965 0.057387996 0.22233336 1.1150203e-38
0.02665473 0.058326118 0.223 1.0234797e-38
0.027480237 0.058218442 0.223 1.0326992e-38
0.028556988 0.0583979 0.223 1.0419188e-38
0.029274821 0.0583979 0.223 1.0511384e-38
0.030531028 0.058397904 0.22300002 1.0142601e-38
0.031787239 0.0583979 0.223 9.7738186e-39
0.032610711 0.058266427 0.22250003 9.9582098e-39
0.033431228 0.058314689 0.22200002 9.5905063e-39
0.034503151 0.058314685 0.22200002 9.4061164e-39
0.035158213 0.058255136 0.22200002 9.5905077e-39
0.036289688 0.058136031 0.22200002 9.6827019e-39
0.052904475 0.058136031 0.22200002 9.2173658e-39
0.053560391 0.058445618 0.22250001 8.0220876e-39
0.028616806 0.05971393 0.223 1.0142601e-38
0.029274821 0.059654109 0.223 1.0142601e-38
0.030531028 0.059654113 0.223 9.9582098e-39
0.031588379 0.059654407 0.22214286 1.0050405e-38
0.032716617 0.059565261 0.22200002 9.8667331e-39
0.033431228 0.059565257 0.22200002 9.4983107e-39
0.034503151 0.059207954 0.22200002 9.129531e-39
0.05361909 0.059207954 0.22200002 7.7473154e-39
0.028616806 0.060312122 0.223 9.8660142e-39
0.029274821 0.060371943 0.223 9.7738186e-39
0.030360082 0.060496449 0.22280002 9.6816229e-39
0.031466041 0.06063718 0.22200002 9.6823418e-39
0.032716617 0.060637183 0.22200002 9.6823418e-39
0.033371676 0.060518082 0.22200002 9.406115e-39
0.034324497 0.060279876 0.22200002 9.1302498e-39
0.028736446 0.061269235 0.223 9.4983107e-39
0.029310713 0.061556369 0.223 9.3139194e-39
0.030288298 0.061644662 0.22280002 9.2217238e-39
0.031466041 0.061530452 0.22200002 9.2217238e-39
0.032716617 0.061530448 0.22200002 9.4053962e-39
0.033431228 0.061351795 0.22200002 9.3139194e-39
0.030351572 0.062704898 0.223 9.406115e-39
