# .PCD v0.7 - Point Cloud Data file format
VERSION 0.7
FIELDS x y z rgb
SIZE 4 4 4 4
TYPE F F F F
COUNT 1 1 1 1
WIDTH 990
HEIGHT 1
VIEWPOINT 0 0 0 1 0 0 0
POINTS 990
DATA ascii
0.027603468 0.063526884 0.22400001 1.0144402e-38
0.028384609 0.063466795 0.22400002 1.0144402e-38
0.021654785 0.064428195 0.22400001 1.0326992e-38
0.0225561 0.064428195 0.22400001 1.0511384e-38
0.023277152 0.064428195 0.22400001 1.0511384e-38
0.024538996 0.064428195 0.22399999 1.0235155e-38
0.025800837 0.064428195 0.22400001 1.014368e-38
0.026521889 0.064428195 0.22400001 9.9592888e-39
0.027603468 0.064428195 0.22400001 9.9596504e-39
0.022736363 0.065329507 0.22400001 1.0511744e-38
0.023277152 0.065329507 0.22400001 1.0142961e-38
0.024538996 0.065329507 0.22399999 9.9592888e-39
0.025800837 0.065329507 0.22400001 9.8670932e-39
0.026521889 0.065329507 0.22400001 9.8670932e-39
0.027603468 0.065329507 0.22400001 9.8670932e-39
0.023337239 0.066351004 0.22400002 9.4057563e-39
0.024538998 0.066591352 0.22400001 9.8670946e-39
0.025800837 0.066591352 0.22399999 1.0143683e-38
0.026521891 0.066591352 0.22399999 9.9592888e-39
0.027603468 0.066591352 0.22399999 9.3139194e-39
0.024719259 0.067312405 0.22400001 9.7748976e-39
0.025800837 0.067312405 0.22400001 1.014368e-38
0.026521889 0.067312405 0.22400001 9.7748976e-39
0.027603468 0.067312405 0.22400001 9.1295296e-39
0.024538996 0.068393983 0.22399999 9.5912252e-39
0.025620574 0.068033457 0.22400001 9.6834208e-39
0.027783731 0.068213716 0.22400001 9.4983135e-39
0.028504783 0.068213716 0.22400001 9.2220867e-39
0.029225836 0.068393983 0.22400001 9.4064808e-39
0.048549499 -0.022558862 0.22500001 1.4901783e-38
0.042755328 -0.02111032 0.22500001 1.7928449e-38
0.043117464 -0.02111032 0.22500001 1.7746576e-38
0.046738818 -0.021834591 0.22500001 1.5715729e-38
0.047463089 -0.021834591 0.22500001 1.5534935e-38
0.048549499 -0.021834591 0.22500001 1.5445969e-38
0.040461805 -0.020144626 0.22500001 1.7839848e-38
0.041487854 -0.020023914 0.22500001 1.848558e-38
0.042513907 -0.020265339 0.22500001 1.7654388e-38
0.043298531 -0.02038605 0.22500001 1.6916098e-38
0.050722312 -0.020023914 0.22500001 1.3698934e-38
0.051627651 -0.020023914 0.22500001 1.2233156e-38
0.039568532 -0.019444495 0.22499999 1.7562905e-38
0.040703226 -0.019420354 0.22500001 1.7378511e-38
0.041306786 -0.019661777 0.22500001 1.8577056e-38
0.051446583 -0.019541064 0.22500001 1.2872054e-38
0.039568532 -0.018430516 0.22499999 1.6824624e-38
0.040703226 -0.018454658 0.22500001 1.6733862e-38
0.041427497 -0.018333947 0.22500001 1.8024965e-38
0.046376683 -0.01857537 0.22500001 1.5715757e-38
0.039858241 -0.017851099 0.22500001 1.7194121e-38
0.040582515 -0.017488964 0.22500001 1.7101921e-38
0.041548211 -0.017609676 0.22500001 1.7284525e-38
0.042393193 -0.017851099 0.22500001 1.7469642e-38
0.04420387 -0.017851099 0.22500001 1.5898353e-38
0.035512615 -0.016764693 0.22500001 1.5256944e-38
0.036236886 -0.016583625 0.22500001 1.5073272e-38
0.040944651 -0.016402557 0.22500001 1.7101561e-38
0.049998041 -0.016402557 0.22500001 1.4704476e-38
0.050722312 -0.016402557 0.22500001 1.3786836e-38
0.051446583 -0.016402557 0.22500001 1.5171924e-38
0.040220376 -0.01531615 0.22500001 1.700973e-38
0.036236886 -0.014954015 0.22500001 1.5714681e-38
0.039858241 -0.014772947 0.22500001 1.6364725e-38
0.040220376 -0.014954015 0.22500001 1.700973e-38
0.038409699 -0.013505472 0.22500001 1.6733146e-38
0.039315037 -0.013867607 0.22500001 1.7010093e-38
0.039858241 -0.012056929 0.22500001 1.6636632e-38
0.03913397 -0.010246251 0.22500001 1.5806155e-38
0.040220376 -0.010608386 0.22500001 1.5902299e-38
0.036236886 -0.0062627592 0.22500001 1.2859858e-38
0.046376683 0.02777799 0.22500001 1.2356022e-38
0.061586384 0.029588668 0.22500001 1.1435864e-38
0.062491722 0.029588668 0.22500001 1.1251472e-38
0.063397057 0.0294076 0.22500001 1.1620255e-38
0.060741395 0.030554362 0.22500001 1.1804646e-38
0.061405316 0.030494006 0.22500001 1.1528059e-38
0.062491719 0.030494006 0.22500001 1.2357819e-38
0.063397057 0.030494006 0.22500001 1.2542208e-38
0.064121328 0.030312939 0.22500001 1.2818798e-38
0.027907765 0.031218279 0.22500001 1.4290328e-38
0.059504099 0.031308815 0.22500001 1.1620256e-38
0.060681041 0.031218279 0.22500001 1.1712451e-38
0.061405312 0.031218279 0.22500001 1.1620255e-38
0.062491722 0.031218277 0.22500001 1.1620255e-38
0.027545629 0.032123618 0.22500001 1.4013741e-38
0.057844311 0.032727178 0.22500001 1.1343668e-38
0.058327157 0.032485753 0.22500001 1.1159277e-38
0.059413567 0.032485753 0.22500001 1.2357816e-38
0.060681034 0.032485753 0.22500001 1.1712088e-38
0.061405316 0.032485753 0.22500001 1.1342946e-38
0.062431365 0.032244328 0.22500001 1.1342589e-38
0.056516483 0.033934295 0.22500001 1.1804646e-38
0.057602894 0.033753231 0.22500001 1.1435504e-38
0.058327161 0.033753227 0.22500001 1.1435864e-38
0.059413571 0.033753231 0.22500001 1.1528419e-38
0.060620684 0.03369287 0.22500001 1.1251833e-38
0.056395769 0.034537856 0.22500001 1.1528059e-38
0.057602894 0.034477498 0.22500001 1.1343669e-38
0.058327161 0.034477498 0.22500001 1.1251475e-38
0.059323035 0.034386963 0.22500001 1.1528421e-38
0.055550788 0.035624262 0.22500001 1.1803567e-38
0.056335416 0.035563905 0.22500001 1.1619536e-38
0.057602894 0.035563905 0.22500001 1.1435864e-38
0.058327161 0.035382837 0.22500001 1.1251475e-38
0.054705806 0.036469243 0.22500001 1.180357e-38
0.055430077 0.036288176 0.22500001 1.180357e-38
0.056335412 0.036288176 0.22500001 1.1620258e-38
0.057530463 0.036251962 0.22499999 1.1343671e-38
0.054524738 0.037555654 0.22500001 1.198796e-38
0.055430073 0.03755565 0.22500001 1.1619537e-38
0.056299202 0.037483223 0.22499999 1.134439e-38
0.057240754 0.037193514 0.22500001 1.1159998e-38
0.053981531 0.038642056 0.22500001 1.2817719e-38
0.054524735 0.038642056 0.22500001 1.2817719e-38
0.055430077 0.038642056 0.22500001 1.1803567e-38
0.049998041 0.039728466 0.22500001 1.1711727e-38
0.053800464 0.039456863 0.22500001 1.2173069e-38
0.054464381 0.039124906 0.22500001 1.2541132e-38
0.049816974 0.040633805 0.22500001 1.1527698e-38
0.050722312 0.040633805 0.22500001 1.1435864e-38
0.051537115 0.040724341 0.22500001 1.1067083e-38
0.0526537 0.040573448 0.22500001 1.1251475e-38
0.048549499 0.041901279 0.22500001 1.014333e-38
0.049635906 0.041539144 0.22500001 1.0143326e-38
0.050722312 0.041177008 0.22500001 1.1159633e-38
0.051084448 0.041177008 0.22500001 1.1159277e-38
0.045290276 0.042987686 0.22500001 1.1620255e-38
0.046376687 0.042806622 0.22500001 1.1435504e-38
0.047644157 0.042625546 0.22500001 1.0696502e-38
0.048368428 0.04262555 0.22500001 1.051247e-38
0.049454838 0.042263415 0.22500001 9.5901532e-39
0.044928141 0.043711957 0.22500001 1.1804646e-38
0.045290276 0.043711957 0.22500001 1.1620255e-38
0.046376687 0.043711957 0.22500001 1.152734e-38
0.047644161 0.043711957 0.22500001 1.0789418e-38
0.044747069 0.04425516 0.22500001 1.1803927e-38
0.045290276 0.04425516 0.22500001 1.1528059e-38
0.046376687 0.044255156 0.22500001 1.1435504e-38
0.047644161 0.044074092 0.22500001 1.051391e-38
0.043358888 0.045764059 0.22500001 1.1619176e-38
0.044566005 0.04552263 0.22500001 1.134259e-38
0.045290276 0.045522634 0.22500001 1.1065646e-38
0.046135258 0.045281213 0.22500001 1.1251116e-38
0.042755328 0.046971176 0.22500001 1.1711372e-38
0.043298531 0.04660904 0.22500001 1.1619176e-38
0.044493578 0.046536613 0.22499999 1.1158917e-38
0.041668922 0.047695447 0.22500001 1.1710653e-38
0.04257426 0.047514379 0.22500001 1.1711372e-38
0.043298531 0.047514379 0.22500001 1.152698e-38
0.04420387 0.047333311 0.22500001 1.1342589e-38
0.039586637 0.048691321 0.22500001 1.1803204e-38
0.040582515 0.048600789 0.22500001 1.1619176e-38
0.041487854 0.048600789 0.22500001 1.1250393e-38
0.04257426 0.048600785 0.22500001 1.1711372e-38
0.043117464 0.048419718 0.22500001 1.152698e-38
0.036961157 0.049506128 0.22500001 1.3554921e-38
0.037685428 0.04932506 0.22500001 1.2447495e-38
0.038228631 0.04932506 0.22500001 1.2079431e-38
0.039496105 0.04932506 0.22500001 1.1342229e-38
0.040582515 0.04932506 0.22500001 1.152698e-38
0.041427497 0.049264703 0.22500001 1.1619176e-38
0.042393193 0.049143992 0.22500001 1.1987958e-38
0.033701934 0.05095467 0.22500001 1.1434066e-38
0.03466763 0.050833959 0.22500001 1.152698e-38
0.035512615 0.050773602 0.22500001 1.1619176e-38
0.036599021 0.050592538 0.22500001 1.1895761e-38
0.037685428 0.050592531 0.22500001 1.1619175e-38
0.038192417 0.050520111 0.22499999 1.1619176e-38
0.039496105 0.050230399 0.22500001 1.1988316e-38
0.033520866 0.051678941 0.22500001 1.0880532e-38
0.034607276 0.051678941 0.22500001 1.0051131e-38
0.035512615 0.051678941 0.22500001 1.0512109e-38
0.036599021 0.051678941 0.22500001 1.1250035e-38
0.031891257 0.052765347 0.22500001 1.1526617e-38
0.032832809 0.052475639 0.22499999 1.0235524e-38
0.033520866 0.052403212 0.22500001 1.0603586e-38
0.034607276 0.052403212 0.22500001 1.0326999e-38
0.035440188 0.052330784 0.22499999 1.0327355e-38
0.036236886 0.052041076 0.22500001 1.0603582e-38
0.054705806 0.052041076 0.22500001 1.051391e-38
0.030442715 0.053851753 0.22500001 1.1526617e-38
0.031529121 0.053670686 0.22500001 1.1434422e-38
0.032796595 0.053670686 0.22500001 1.1618817e-38
0.033520866 0.053670689 0.22500001 1.2171991e-38
0.034607276 0.053670686 0.22500001 1.235674e-38
0.03515048 0.053670686 0.22500001 1.2448574e-38
0.02664029 0.054576024 0.22500001 1.1157116e-38
0.029718444 0.05493816 0.22500001 1.1157835e-38
0.030322002 0.054696739 0.22500001 1.125003e-38
0.031529121 0.054576024 0.22500001 1.125003e-38
0.032796595 0.054576024 0.22500001 1.15259e-38
0.033520866 0.054576024 0.22500001 1.1986159e-38
0.034546923 0.05445531 0.22500001 1.27248e-38
0.026531648 0.055445146 0.22499999 1.1341146e-38
0.027424917 0.05554172 0.22500001 1.1525538e-38
0.028450968 0.055662431 0.22500001 1.1617734e-38
0.029537376 0.055481359 0.22500001 1.124895e-38
0.030261647 0.055481363 0.22500001 1.1157833e-38
0.031529125 0.055481363 0.22500001 1.1342226e-38
0.032796595 0.055481363 0.22500001 1.1618813e-38
0.033460509 0.055421006 0.22500001 1.125003e-38
0.02664029 0.056386702 0.22500001 1.1157116e-38
0.027545629 0.056386702 0.22500001 1.1249312e-38
0.028450968 0.056386702 0.22500001 1.1341507e-38
0.029537376 0.056386702 0.22500001 1.1065279e-38
0.030261647 0.056386702 0.22500001 1.1157835e-38
0.031529117 0.056386705 0.22500001 1.1342226e-38
0.032736238 0.056265991 0.22500001 1.1157835e-38
0.02664029 0.057292037 0.22500001 1.0973442e-38
0.027545629 0.057292037 0.22500001 1.0881248e-38
0.028450968 0.057292037 0.22500001 1.0789052e-38
0.029537376 0.057292037 0.22500001 1.0973444e-38
0.030261647 0.05729204 0.22500001 1.1065639e-38
0.031166986 0.057110973 0.22500001 1.1065639e-38
0.026640289 0.058559522 0.22500001 1.0789051e-38
0.027545629 0.058559518 0.22500001 1.0881247e-38
0.028450966 0.058559522 0.22500001 1.1065998e-38
0.029537374 0.058559518 0.22500001 1.079013e-38
0.030080579 0.058197383 0.22500001 1.0973444e-38
0.026459223 0.059283789 0.22500001 1.0789049e-38
0.027545629 0.059283789 0.22500001 1.1250388e-38
0.028450968 0.059283789 0.22500001 1.1619529e-38
0.029356308 0.059283789 0.22500001 1.1158551e-38
0.025282282 0.060460731 0.22500001 1.0696857e-38
0.02640749 0.060266726 0.22500001 1.0512465e-38
0.027424917 0.060128774 0.22500001 1.0789052e-38
0.028450968 0.06000806 0.22500001 1.0789771e-38
0.023924273 0.061818738 0.22500001 1.1894318e-38
0.024648543 0.06163767 0.22500001 1.1802841e-38
0.025131389 0.061577316 0.22500001 1.1434419e-38
0.023924273 0.062180873 0.22500001 1.207763e-38
0.020665051 0.063629419 0.22500001 1.0419188e-38
0.021479856 0.063538887 0.22500001 1.0511384e-38
0.020483984 0.064715825 0.22500001 1.01426e-38
0.021389322 0.064715825 0.22500001 1.0326992e-38
0.020483984 0.06507796 0.22500001 1.0234797e-38
0.021389322 0.06507796 0.22500001 1.0603579e-38
0.023200002 0.066888638 0.22500001 9.4983107e-39
0.02348971 0.067468062 0.22499999 9.5905063e-39
0.023743205 0.06833718 0.22500001 9.5912252e-39
0.040399134 -0.021204144 0.22600001 1.8023882e-38
0.048219655 -0.021931633 0.22600001 1.553637e-38
0.040762879 -0.020476654 0.22600001 1.7839847e-38
0.041672245 -0.020476654 0.22600001 1.811572e-38
0.051311489 -0.020112908 0.22600001 1.2874929e-38
0.041490372 -0.017202947 0.22600001 1.6731341e-38
0.042581607 -0.017202947 0.22600001 1.6913947e-38
0.043490969 -0.017202947 0.22600001 1.6361126e-38
0.044036586 -0.017202947 0.22600001 1.6178883e-38
0.035549197 -0.016354209 0.22600001 1.5530294e-38
0.041611623 -0.016717954 0.22600001 1.6823898e-38
0.050584 -0.016111713 0.22600001 1.4524401e-38
0.051493362 -0.016111713 0.22600001 1.5354881e-38
0.036397938 -0.015384221 0.22600001 1.5714681e-38
0.040762879 -0.015384221 0.22600001 1.7655099e-38
0.037489172 -0.013201751 0.22600001 1.6083463e-38
0.038944155 -0.013565497 0.22600001 1.6366521e-38
0.0393079 -0.013201751 0.22600001 1.6549834e-38
0.040035389 -0.013929241 0.22600001 1.6364363e-38
0.045855314 0.027901446 0.22600001 1.2540413e-38
0.061496351 0.028810808 0.22600001 1.1804646e-38
0.062587589 0.028992681 0.22600001 1.1251474e-38
0.063315079 0.028992681 0.22600001 1.1343671e-38
0.057858899 0.02972017 0.22600001 1.2264545e-38
0.058586389 0.029538296 0.22600003 1.1895763e-38
0.059677627 0.029538298 0.22600001 1.1434785e-38
0.060223244 0.029538298 0.22600001 1.1619176e-38
0.061860096 0.029356426 0.22600001 1.1435864e-38
0.062587589 0.029356426 0.22600001 1.1067081e-38
0.056767665 0.030811407 0.22600001 1.217235e-38
0.057495154 0.030629534 0.22600001 1.2080874e-38
0.058586389 0.030629536 0.22600003 1.1343668e-38
0.059677627 0.030629534 0.22600001 1.1528059e-38
0.060162619 0.030568911 0.22600001 1.1804646e-38
0.027304308 0.031538896 0.22600001 1.3646038e-38
0.055676427 0.031538896 0.22600001 1.1711372e-38
0.056585796 0.031357024 0.22600001 1.1895763e-38
0.057495154 0.031357024 0.22600001 1.171209e-38
0.058513641 0.03132065 0.22600003 1.1067081e-38
0.059677627 0.031175151 0.22600001 1.1620258e-38
0.055530928 0.032702882 0.22600003 1.1987958e-38
0.056585789 0.032630131 0.22600003 1.2080154e-38
0.057422407 0.032557379 0.22600003 1.1619536e-38
0.058222644 0.032266386 0.22600001 1.1251472e-38
0.054948937 0.033721369 0.22600001 1.1896842e-38
0.055494554 0.033721369 0.22600001 1.1804646e-38
0.056585792 0.033721369 0.22600001 1.1987958e-38
0.054803438 0.034521606 0.22600003 1.2173429e-38
0.055494558 0.034448858 0.22600003 1.1804646e-38
0.05640392 0.034266986 0.22600001 1.1896842e-38
0.053736452 0.035782591 0.22600001 1.1803569e-38
0.054767065 0.035721965 0.22600001 1.1803567e-38
0.055312682 0.035540093 0.22600001 1.1803567e-38
0.051675234 0.036995072 0.22600001 1.2080154e-38
0.052220851 0.036995072 0.22600001 1.1711374e-38
0.053493958 0.036631327 0.22600003 1.1342592e-38
0.054706439 0.03651008 0.22600001 1.1711374e-38
0.051493362 0.037540689 0.22600001 1.1987958e-38
0.052220851 0.037540689 0.22600001 1.1619179e-38
0.053493958 0.037540693 0.22600003 1.1434787e-38
0.050584 0.0388138 0.22600001 1.2172706e-38
0.051493362 0.038450055 0.22600001 1.1895763e-38
0.052220851 0.038450055 0.22600001 1.152698e-38
0.053421207 0.038377307 0.22600003 1.1526982e-38
0.048765272 0.039541289 0.22600001 1.18954e-38
0.049492765 0.039359417 0.22600001 1.2079791e-38
0.050402127 0.039359417 0.22600001 1.1803563e-38
0.051493362 0.039359417 0.22600001 1.152734e-38
0.052220851 0.039359417 0.22600001 1.1342951e-38
0.053312086 0.039359417 0.22600001 1.1435505e-38
0.044764075 0.040996268 0.22600001 1.18954e-38
0.045582503 0.040905334 0.22600001 1.1618816e-38
0.046764679 0.040814396 0.22600001 1.1619172e-38
0.047310293 0.040632524 0.22600001 1.1526976e-38
0.048401523 0.040632524 0.22600004 1.1987956e-38
0.049310893 0.040541589 0.22600001 1.1803923e-38
0.050584 0.040268779 0.22600001 1.1805002e-38
0.051493362 0.040450651 0.22600001 1.1159277e-38
0.052220851 0.040268779 0.22600001 1.1067084e-38
0.053130213 0.040268779 0.22600001 1.1251475e-38
0.043672841 0.041360013 0.22600001 1.18954e-38
0.044400331 0.041360013 0.22600001 1.1803204e-38
0.045491565 0.041360013 0.22600001 1.1434425e-38
0.046764676 0.041360013 0.22600001 1.1527338e-38
0.047310293 0.041360013 0.22600001 1.1803923e-38
0.048401523 0.041360013 0.22600001 1.1619532e-38
0.042581607 0.042633124 0.22600001 1.1803923e-38
0.043490965 0.042451251 0.22600003 1.1711729e-38
0.044400331 0.042451251 0.22600003 1.1619535e-38
0.045446098 0.042405788 0.22600004 1.1434785e-38
0.046764679 0.042269379 0.22600001 1.1619176e-38
0.047310293 0.042087507 0.22600001 1.1803567e-38
0.048219655 0.042087507 0.22600001 1.0419915e-38
0.042399734 0.043542486 0.22600001 1.1803206e-38
0.043490969 0.043542486 0.22600001 1.1711372e-38
0.044400331 0.043542486 0.22600001 1.1619536e-38
0.04512782 0.043178741 0.22600001 1.1528059e-38
0.041732866 0.044512469 0.22600001 1.1896119e-38
0.042399734 0.044451848 0.22600001 1.1988314e-38
0.043490969 0.044451848 0.22600001 1.1895763e-38
0.044036586 0.044451848 0.22600001 1.1803567e-38
0.040641632 0.045603707 0.22600001 1.1895044e-38
0.041672245 0.045543082 0.22600001 1.254149e-38
0.042399734 0.045543082 0.22600001 1.1987956e-38
0.043430343 0.045482457 0.22600001 1.1619176e-38
0.038762283 0.046452448 0.22600001 1.1802487e-38
0.0393079 0.046270572 0.22600001 1.198724e-38
0.040399134 0.046270575 0.22600003 1.198724e-38
0.041672245 0.046270575 0.22600001 1.2080154e-38
0.042399734 0.046270572 0.22600001 1.171137e-38
0.035488576 0.047907427 0.22600001 1.1526264e-38
0.03657981 0.047725551 0.22600001 1.2263824e-38
0.0373073 0.047543678 0.22600003 1.272408e-38
0.03858041 0.047543678 0.22600004 1.189468e-38
0.0393079 0.047543686 0.22600001 1.2172345e-38
0.040399134 0.047543682 0.22600004 1.152662e-38
0.041635871 0.047470935 0.22600003 1.1711013e-38
0.042217862 0.047179937 0.22600001 1.1803567e-38
0.03094176 0.048998661 0.22600001 1.1802848e-38
0.031669252 0.048998661 0.22600001 1.1710653e-38
0.032032996 0.048998661 0.22600001 1.1802848e-38
0.035670448 0.048816789 0.22600001 1.1895044e-38
0.03657981 0.048816785 0.22600001 1.2909553e-38
0.0373073 0.048816789 0.22600001 1.3093583e-38
0.038507663 0.048780411 0.22600003 1.2263103e-38
0.0393079 0.048634917 0.22600001 1.2079791e-38
0.029850526 0.049726151 0.22600001 1.1526617e-38
0.030578015 0.049544279 0.22600003 1.1526617e-38
0.031669252 0.049544279 0.22600001 1.1526617e-38
0.032214869 0.049544279 0.22600001 1.1618813e-38
0.033306103 0.049726151 0.22600001 1.1618457e-38
0.03657981 0.049544279 0.22600001 1.3278334e-38
0.037125427 0.049362406 0.22600001 1.3462726e-38
0.02875929 0.050817389 0.22600001 1.1894321e-38
0.029486779 0.050635513 0.22600001 1.1618813e-38
0.030578015 0.050635513 0.22600003 1.1342226e-38
0.031669252 0.050635517 0.22600001 1.1526619e-38
0.032214869 0.050635517 0.22600001 1.1618814e-38
0.033487976 0.050635513 0.22600003 1.1618457e-38
0.034215469 0.050817389 0.22600001 1.1618457e-38
0.035670448 0.050453641 0.22600001 1.1619176e-38
0.027668055 0.051908623 0.22600001 1.1434422e-38
0.028577417 0.051544879 0.22600001 1.1618453e-38
0.029486779 0.051544879 0.22600001 1.1618454e-38
0.030578015 0.051544875 0.22600003 1.1342229e-38
0.031669252 0.051544879 0.22600001 1.1618816e-38
0.032214869 0.051544879 0.22600001 1.1526261e-38
0.033245478 0.051423628 0.22600001 1.134187e-38
0.026819317 0.052878615 0.22600001 1.125003e-38
0.027522558 0.052708864 0.22600003 1.1065639e-38
0.028577417 0.052636113 0.22600003 1.1250032e-38
0.029486781 0.052636117 0.22600003 1.1434423e-38
0.030578014 0.052636113 0.22600004 1.1250032e-38
0.031669252 0.052636117 0.22600001 1.1434423e-38
0.032154243 0.052393615 0.22600001 1.152626e-38
0.025667455 0.053727351 0.22600001 1.1157473e-38
0.026758691 0.053727351 0.22600001 1.1157835e-38
0.027486183 0.053727351 0.22600001 1.0973444e-38
0.028577417 0.053727351 0.22600001 1.1342226e-38
0.029486779 0.053727351 0.22600001 1.1434422e-38
0.030396143 0.053727351 0.22600001 1.1526617e-38
0.025558332 0.054309346 0.22600003 1.1157115e-38
0.026758691 0.054091096 0.22600001 1.0973444e-38
0.027486183 0.054272968 0.22600001 1.0881248e-38
0.028577417 0.054272968 0.22600001 1.1342226e-38
0.029486779 0.054272968 0.22600001 1.1434422e-38
0.030214271 0.054272968 0.22600001 1.1526617e-38
0.025440114 0.055546075 0.22600004 1.1156754e-38
0.027546808 0.055303577 0.22600001 1.1433343e-38
0.028577417 0.055364206 0.22600001 1.1617733e-38
0.029123034 0.05518233 0.22600001 1.1433343e-38
0.025485583 0.056273568 0.22600001 1.106456e-38
0.024394348 0.057364803 0.22600001 1.0973083e-38
0.025485585 0.057364807 0.22600004 1.0880886e-38
0.024212476 0.05863791 0.22600001 1.1248949e-38
0.025485583 0.058637906 0.22600003 1.0881247e-38
0.023484984 0.059365399 0.22600001 1.0972362e-38
0.024212476 0.059365399 0.22600001 1.1064557e-38
0.025412833 0.059329025 0.22600003 1.0881245e-38
0.022454374 0.060517263 0.22600001 1.0787973e-38
0.023484984 0.060456637 0.22600001 1.0511386e-38
0.024212476 0.060456637 0.22600001 1.0050408e-38
0.025121838 0.060456637 0.22600001 1.0512465e-38
0.023666857 0.061365999 0.22600001 9.4972345e-39
0.024151852 0.061244752 0.22600001 1.0142604e-38
0.023666857 0.062093489 0.22600001 9.7738186e-39
0.020211279 0.063912213 0.22600001 1.0326992e-38
0.020211279 0.064275958 0.22600001 1.0326992e-38
0.020029407 0.065003447 0.22600001 1.0419185e-38
0.040943246 -0.021297967 0.22700001 1.8392665e-38
0.042404667 -0.021297967 0.22700001 1.7464594e-38
0.044596795 -0.021297967 0.22700001 1.7932042e-38
0.051538531 -0.020567259 0.22700001 1.2784529e-38
0.045327503 -0.018740484 0.22700001 1.5990912e-38
0.042404667 -0.017279066 0.22700001 1.7283086e-38
0.035462927 -0.016183002 0.22700001 1.5529215e-38
0.036193635 -0.016183002 0.22700001 1.4978918e-38
0.035828281 -0.015269617 0.22700001 1.5345179e-38
0.040943246 -0.015086939 0.22700001 1.7747295e-38
0.040577892 -0.014721585 0.22700001 1.6917534e-38
0.038385764 -0.013260166 0.22700001 1.6546239e-38
0.03948183 -0.013381951 0.22700001 1.6641669e-38
0.03802041 -0.012894811 0.22700001 1.6267136e-38
0.03948183 -0.012894812 0.22700001 1.6547316e-38
0.040577892 -0.012164102 0.22700001 1.6545515e-38
0.040943246 -0.010520006 0.22700001 1.5624636e-38
0.039116472 -0.0099719735 0.22700001 1.5620685e-38
0.060489722 0.02765955 0.22700001 1.2173429e-38
0.046240889 0.02839026 0.22700001 1.2356382e-38
0.047154278 0.028024904 0.22700001 1.2356741e-38
0.05427869 0.02839026 0.22700001 1.2632247e-38
0.055557434 0.02839026 0.22700001 1.1987958e-38
0.056288142 0.02839026 0.22700001 1.2080154e-38
0.05701885 0.02839026 0.22700001 1.1528059e-38
0.059454549 0.028268477 0.22700001 1.1804286e-38
0.060489722 0.028207583 0.22700001 1.1896842e-38
0.061037753 0.028207581 0.22700001 1.1712451e-38
0.046058211 0.029120969 0.22700001 1.2725523e-38
0.052999951 0.029851679 0.22700001 1.2448937e-38
0.053730655 0.029486323 0.22700001 1.2356382e-38
0.054278687 0.029486323 0.22700001 1.1987958e-38
0.05555743 0.029486321 0.22700003 1.1896842e-38
0.056288142 0.029486323 0.22700001 1.1528059e-38
0.057279818 0.029486323 0.22700001 1.1896842e-38
0.058845624 0.029120969 0.22700001 1.1987958e-38
0.059393656 0.029120969 0.22700001 1.1803927e-38
0.060489722 0.029120969 0.22700001 1.1435864e-38
0.027425125 0.030947741 0.22700001 1.3553842e-38
0.052878167 0.030825958 0.22700001 1.2173069e-38
0.053730659 0.030765064 0.22700001 1.1895763e-38
0.05427869 0.030765064 0.22700001 1.1711372e-38
0.055557434 0.030765064 0.22700001 1.1896482e-38
0.056288142 0.030765064 0.22700001 1.1988319e-38
0.05701885 0.030582387 0.22700001 1.2081233e-38
0.027425125 0.031313095 0.22700001 1.3553842e-38
0.052707665 0.03153231 0.22700003 1.1987958e-38
0.053730659 0.031495772 0.22700001 1.1803567e-38
0.054278687 0.031495772 0.22700001 1.1987958e-38
0.055484362 0.031459238 0.22700003 1.1711372e-38
0.052634597 0.032591838 0.22700001 1.2080154e-38
0.053730659 0.032591838 0.22700001 1.217235e-38
0.054278687 0.032591838 0.22700001 1.1895763e-38
0.055313867 0.032530945 0.22700001 1.1711372e-38
0.051660314 0.033627007 0.22700001 1.2080154e-38
0.052634597 0.033505224 0.22700001 1.1987958e-38
0.053730659 0.033505224 0.22700001 1.1987958e-38
0.054278687 0.033505224 0.22700001 1.1619176e-38
0.055192079 0.03313987 0.22700001 1.1711372e-38
0.04971176 0.034966644 0.22700001 1.1803567e-38
0.050661683 0.034674358 0.22700003 1.2356741e-38
0.051538527 0.03460129 0.22700001 1.2080154e-38
0.052634597 0.034601286 0.22700003 1.1803567e-38
0.053730655 0.034601286 0.22700001 1.217235e-38
0.05418735 0.034509949 0.22700001 1.1988319e-38
0.050625145 0.035697352 0.22700001 1.2080154e-38
0.051538531 0.035697352 0.22700001 1.1987958e-38
0.052634597 0.035697352 0.22700001 1.1803567e-38
0.053730659 0.035697352 0.22700001 1.1987958e-38
0.047884986 0.037889481 0.22700001 1.1066002e-38
0.048798371 0.0377068 0.22700001 1.198796e-38
0.049529079 0.037524123 0.22700001 1.2079794e-38
0.050625145 0.037524123 0.22700001 1.2356019e-38
0.051173177 0.037158769 0.22700001 1.1895044e-38
0.042770021 0.038985543 0.22700001 1.2263826e-38
0.043500729 0.038985543 0.22700001 1.2724803e-38
0.044414118 0.038985543 0.22700001 1.2725158e-38
0.04551018 0.038985543 0.22700001 1.2356015e-38
0.046240889 0.038985543 0.22700001 1.1803203e-38
0.047592703 0.03869326 0.22700003 1.1526617e-38
0.048798367 0.038620189 0.22700001 1.2263825e-38
0.049529079 0.038620189 0.22700001 1.3001746e-38
0.050564256 0.038498405 0.22700001 1.2541128e-38
0.042477734 0.039570112 0.22700003 1.2080154e-38
0.043500729 0.039533574 0.22700001 1.2172348e-38
0.044414118 0.039533574 0.22700001 1.2540768e-38
0.04551018 0.039533574 0.22700001 1.2355658e-38
0.046240889 0.039533574 0.22700001 1.189468e-38
0.047519628 0.039533574 0.22700001 1.1618813e-38
0.048737478 0.039472681 0.22700001 1.1803204e-38
0.0413086 0.04062964 0.22700001 1.1157479e-38
0.042404667 0.040629636 0.22700001 1.1803567e-38
0.043500729 0.04062964 0.22700001 1.1711372e-38
0.044414118 0.04062964 0.22700001 1.1895763e-38
0.04551018 0.04062964 0.22700001 1.1895044e-38
0.046240889 0.040446963 0.22700001 1.1711009e-38
0.047154278 0.040446963 0.22700001 1.1711009e-38
0.040943246 0.041360348 0.22700001 1.2448218e-38
0.0413086 0.041360348 0.22700001 1.2448572e-38
0.042404667 0.041360348 0.22700001 1.2356377e-38
0.043378945 0.041299459 0.22700001 1.1803204e-38
0.044231437 0.041177671 0.22700001 1.18954e-38
0.040760569 0.042456411 0.22700001 1.3001384e-38
0.0413086 0.042456411 0.22700001 1.3092861e-38
0.042331599 0.042419873 0.22700003 1.2632602e-38
0.039573167 0.043552473 0.22700001 1.2172348e-38
0.040760569 0.043369796 0.22700001 1.2079074e-38
0.0413086 0.0433698 0.22700001 1.2079074e-38
0.042161096 0.043248013 0.22700001 1.2171985e-38
0.038458835 0.044538934 0.22700003 1.189576e-38
0.03948183 0.044465866 0.22700003 1.1988314e-38
0.040760569 0.044465866 0.22700001 1.1987956e-38
0.0413086 0.044283185 0.22700001 1.171137e-38
0.042039312 0.044100508 0.22700001 1.1710653e-38
0.036376312 0.045927279 0.22700001 1.1802848e-38
0.037533272 0.045805495 0.22700001 1.2356018e-38
0.038385764 0.045744605 0.22700001 1.1987235e-38
0.03948183 0.045744602 0.22700001 1.1618457e-38
0.040577892 0.045561925 0.22700001 1.2079435e-38
0.032722767 0.046657991 0.22700001 1.1802848e-38
0.033270799 0.046657991 0.22700001 1.1802848e-38
0.034366861 0.046475317 0.22700001 1.1895043e-38
0.035645604 0.046475314 0.22700001 1.0512112e-38
0.036376312 0.046475314 0.22700001 1.1986879e-38
0.037472378 0.046475314 0.22700001 1.253933e-38
0.03826398 0.04641442 0.22700001 1.2354579e-38
0.039116472 0.046292637 0.22700001 1.1710653e-38
0.029617254 0.047754053 0.22700001 1.1895044e-38
0.030530639 0.047754053 0.22700001 1.1710653e-38
0.031261347 0.047754053 0.22700001 1.198724e-38
0.03254009 0.047571376 0.22700001 1.1802848e-38
0.033270799 0.047571376 0.22700001 1.1802848e-38
0.034366865 0.047571376 0.22700001 1.1526263e-38
0.035645604 0.047571376 0.22700001 1.1065286e-38
0.036376312 0.047388699 0.22700001 1.1895044e-38
0.026329061 0.048850115 0.22700001 1.1527336e-38
0.027425125 0.048484761 0.22700001 1.171137e-38
0.028521188 0.048484761 0.22700001 1.1618816e-38
0.029434575 0.048484761 0.22700001 1.1710653e-38
0.030530639 0.048484761 0.22700001 1.1710653e-38
0.031261347 0.048484761 0.22700001 1.1802848e-38
0.03254009 0.048484761 0.22700001 1.1895044e-38
0.033270799 0.048484761 0.22700001 1.1802848e-38
0.034366865 0.048484761 0.22700001 1.1618458e-38
0.035462927 0.048850115 0.22700001 1.1434066e-38
0.025817564 0.049653899 0.22700003 1.1711009e-38
0.026329061 0.049580827 0.22700001 1.1619172e-38
0.027425123 0.049580827 0.22700003 1.1711009e-38
0.028521188 0.049580831 0.22700001 1.1619173e-38
0.029398039 0.049507756 0.22700003 1.1618814e-38
0.030530639 0.049215473 0.22700001 1.1710653e-38
0.032783661 0.049337257 0.22700001 1.1802847e-38
0.033270799 0.04939815 0.22700001 1.1710653e-38
0.034001507 0.049215473 0.22700001 1.1710653e-38
0.035645604 0.049672164 0.22700001 1.1526261e-38
0.024867643 0.05067689 0.22700001 1.1802125e-38
0.025781028 0.05067689 0.22700001 1.170993e-38
0.026329061 0.05067689 0.22700001 1.1617734e-38
0.027425125 0.050676893 0.22700001 1.1802125e-38
0.028521188 0.05067689 0.22700001 1.171029e-38
0.034549542 0.05067689 0.22700001 1.1618817e-38
0.035462927 0.05067689 0.22700001 1.1434785e-38
0.024867643 0.051224921 0.22700001 1.170993e-38
0.02578103 0.051224921 0.22700001 1.1617734e-38
0.026329061 0.051224921 0.22700001 1.1525538e-38
0.027425125 0.051224921 0.22700001 1.170993e-38
0.028155833 0.051042244 0.22700001 1.1617734e-38
0.056288142 0.051407598 0.22700001 9.4090017e-39
0.024776302 0.052595001 0.22700001 1.125003e-38
0.02578103 0.052503664 0.22700001 1.1342226e-38
0.026329061 0.05250366 0.22700001 1.125003e-38
0.027242448 0.052320987 0.22700001 1.1342226e-38
0.024575358 0.053672791 0.22700003 1.1064918e-38
0.025781028 0.053234369 0.22700001 1.1157835e-38
0.023771578 0.054513112 0.22700001 1.1341144e-38
0.024429217 0.054476578 0.22700003 1.1064557e-38
0.02352801 0.055670068 0.22700001 1.1064559e-38
0.024319611 0.055609174 0.22700001 1.1064559e-38
0.052999951 0.055426497 0.22700001 1.0699017e-38
0.053730659 0.055791851 0.22700001 1.088269e-38
0.022553729 0.056400776 0.22700001 1.1525536e-38
0.023406222 0.056339882 0.22700001 1.1156754e-38
0.024319611 0.056339882 0.22700001 1.0880169e-38
0.075651936 0.056157205 0.22700001 9.502998e-39
0.022492835 0.057618622 0.22700001 1.1894318e-38
0.023406222 0.057618622 0.22700001 1.1525536e-38
0.024136933 0.057618629 0.22700001 1.1156753e-38
0.022492837 0.058714688 0.22700001 1.1064557e-38
0.023406222 0.058714688 0.22700001 1.1248949e-38
0.021433309 0.059518468 0.22700003 1.0787252e-38
0.022492835 0.059445396 0.22700001 1.0972362e-38
0.023406222 0.059080042 0.22700001 1.1156753e-38
0.020848742 0.060724139 0.22700001 1.0695056e-38
0.021396773 0.060724139 0.22700001 1.0971643e-38
0.02231016 0.060541462 0.22700001 1.0972365e-38
0.023040868 0.06127217 0.22700001 1.0603579e-38
0.020483386 0.063098945 0.22700001 1.0694699e-38
0.050297718 -0.025428396 0.22800002 8.6623395e-39
0.041123614 -0.023226611 0.22800002 1.6733146e-38
0.04699504 -0.022859648 0.22800002 1.5720051e-38
0.047728967 -0.022859648 0.22800002 1.5812243e-38
0.048279416 -0.022859648 0.22800002 1.5539607e-38
0.040389687 -0.021758756 0.22800002 1.7374199e-38
0.041490577 -0.02139179 0.22800002 1.7190884e-38
0.051582091 -0.02139179 0.22800002 1.1779004e-38
0.051031645 -0.020657863 0.22800002 1.3241553e-38
0.041490577 -0.015520365 0.22800002 1.7656178e-38
0.04002272 -0.013685545 0.22800002 1.7009733e-38
0.038554866 -0.012951616 0.22800002 1.6177814e-38
0.039655756 -0.010015903 0.22800002 1.5620685e-38
0.041490577 -0.01056635 0.22800002 1.5712157e-38
0.045894146 0.028331842 0.22800002 1.2724805e-38
0.04699504 0.028515326 0.22800002 1.2264545e-38
0.047728967 0.028331842 0.22800002 1.2356741e-38
0.04827942 0.028331842 0.22800002 1.2541131e-38
0.049563784 0.028331844 0.22800003 1.254149e-38
0.050297718 0.028515326 0.22800002 1.2357097e-38
0.053600393 0.028515326 0.22800002 1.3831508e-38
0.045894146 0.029249253 0.22800002 1.2633328e-38
0.046628077 0.029432736 0.22800002 1.2541491e-38
0.047728967 0.029249253 0.22800002 1.2448937e-38
0.048095934 0.029249253 0.22800002 1.2357097e-38
0.049563792 0.029616216 0.22800003 1.2172707e-38
0.050297718 0.029616216 0.228 1.2264543e-38
0.051398609 0.029799698 0.22800003 1.1988316e-38
0.052719675 0.029689614 0.22800002 1.2540413e-38
0.053233426 0.029432736 0.22800002 1.300211e-38
0.04974727 0.03071711 0.22800002 1.1989037e-38
0.050297718 0.03071711 0.22800002 1.2173429e-38
0.051398609 0.03071711 0.228 1.2080154e-38
0.052682981 0.03071711 0.22800002 1.2264545e-38
0.049609661 0.031451039 0.22800003 1.1988319e-38
0.050297718 0.031451039 0.228 1.2264904e-38
0.051398605 0.031451039 0.22800003 1.1988319e-38
0.052499503 0.031267557 0.22800002 1.217271e-38
0.026812011 0.032918893 0.22800002 1.3737154e-38
0.047728967 0.032918893 0.22800002 1.2817356e-38
0.048340578 0.032796573 0.228 1.2632966e-38
0.049563784 0.032735411 0.22800003 1.2080151e-38
0.050297718 0.032735411 0.22800002 1.2264903e-38
0.051398609 0.032735411 0.22800003 1.2080154e-38
0.04699504 0.03328586 0.22800002 1.3093943e-38
0.047728967 0.03328586 0.22800002 1.3462726e-38
0.048279416 0.03328586 0.22800002 1.3278334e-38
0.049563784 0.03328586 0.228 1.208051e-38
0.050297718 0.03328586 0.22800002 1.217235e-38
0.051215127 0.03328586 0.22800002 1.217235e-38
0.046673946 0.03443262 0.22800003 1.3001027e-38
0.047728967 0.03438675 0.228 1.3092861e-38
0.04827942 0.03438675 0.22800003 1.3185777e-38
0.049563788 0.03438675 0.22800003 1.1988314e-38
0.050297718 0.034203269 0.22800002 1.2264545e-38
0.051031645 0.034019787 0.22800002 1.2448937e-38
0.045894146 0.035854608 0.22800002 1.2357097e-38
0.046628077 0.035487641 0.22800003 1.2080151e-38
0.047728967 0.035120677 0.22800002 1.2263103e-38
0.048279416 0.035120677 0.22800002 1.2264545e-38
0.049380306 0.035120677 0.22800002 1.1895763e-38
0.043692362 0.036588535 0.22800002 1.2264182e-38
0.044609774 0.036588535 0.22800002 1.2264182e-38
0.045527183 0.036405053 0.22800002 1.2172347e-38
0.046628077 0.036405053 0.22800003 1.1619532e-38
0.039655756 0.037689429 0.22800002 1.2356378e-38
0.040206201 0.037689429 0.22800002 1.2356378e-38
0.041490577 0.037505947 0.22800003 1.2172347e-38
0.042774953 0.037505947 0.22800002 1.1988316e-38
0.04350888 0.037505947 0.22800002 1.1342948e-38
0.04460977 0.037505947 0.22800002 1.1527336e-38
0.045527183 0.037505947 0.22800002 1.1803566e-38
0.046628077 0.037505947 0.22800003 1.1895763e-38
0.047728967 0.037505947 0.22800002 1.1250035e-38
0.048095934 0.037505947 0.22800002 1.0973449e-38
0.038432542 0.038301036 0.228 1.2725162e-38
0.039472274 0.038239874 0.22800002 1.2264182e-38
0.040206201 0.038239874 0.22800002 1.2264901e-38
0.041490581 0.038239874 0.22800003 1.1896119e-38
0.042774953 0.038239874 0.22800002 1.1434425e-38
0.04350888 0.038239874 0.22800002 1.134187e-38
0.044609774 0.038239874 0.22800002 1.1158195e-38
0.045527183 0.038239874 0.22800002 1.171101e-38
0.046628077 0.038239878 0.22800003 1.1895761e-38
0.047728967 0.038056392 0.22800002 1.1158198e-38
0.036597725 0.039768893 0.228 1.2724805e-38
0.037527364 0.039597642 0.22800002 1.2724805e-38
0.038371384 0.03952425 0.22800003 1.1710653e-38
0.039472274 0.03952425 0.22800003 1.1065641e-38
0.040206201 0.039524246 0.22800003 1.0973802e-38
0.041444704 0.039478377 0.22800003 1.1987957e-38
0.042591471 0.039157283 0.22800002 1.1803567e-38
0.034885224 0.040992104 0.22800002 1.2356378e-38
0.035619151 0.040808622 0.22800002 1.2356378e-38
0.036536563 0.040808622 0.22800002 1.2540769e-38
0.037453972 0.040808622 0.22800002 1.2540412e-38
0.038371384 0.040808622 0.22800002 1.2356022e-38
0.039472274 0.040808622 0.22800002 1.217235e-38
0.040206201 0.040808622 0.22800002 1.2080154e-38
0.041123614 0.040808622 0.22800002 1.1434785e-38
0.03378433 0.041726034 0.22800002 1.2448574e-38
0.034701742 0.041542552 0.22800002 1.2448574e-38
0.035619151 0.041542552 0.22800002 1.2540769e-38
0.036536563 0.041542552 0.22800002 1.2448574e-38
0.037453972 0.041542552 0.22800002 1.2448218e-38
0.038371384 0.041542552 0.22800002 1.2263826e-38
0.039472274 0.041542552 0.22800002 1.2171632e-38
0.040206201 0.041542552 0.22800002 1.2540413e-38
0.033490758 0.042680137 0.22800002 1.2448574e-38
0.034701742 0.042643443 0.22800002 1.2171987e-38
0.035619151 0.042643443 0.22800002 1.2264182e-38
0.036536563 0.042643443 0.22800002 1.2172707e-38
0.037453972 0.042643443 0.22800002 1.2080154e-38
0.038371384 0.042643443 0.22800002 1.2080154e-38
0.039472274 0.042643443 0.22800002 1.1803567e-38
0.04002272 0.042643443 0.22800002 1.2632965e-38
0.031766027 0.043927819 0.22800002 1.2355303e-38
0.03268344 0.043560855 0.22800002 1.2264184e-38
0.033417366 0.043560851 0.22800003 1.2356019e-38
0.034701742 0.043560855 0.22800002 1.2171987e-38
0.035619151 0.043560855 0.22800002 1.2264182e-38
0.036536563 0.043560855 0.22800002 1.2172348e-38
0.037453972 0.043560855 0.22800002 1.2080154e-38
0.038371384 0.043560855 0.22800002 1.1895763e-38
0.039472274 0.043193888 0.22800002 1.1803567e-38
0.030481653 0.044661745 0.22800002 1.2263103e-38
0.031582545 0.044478264 0.22800003 1.23553e-38
0.03268344 0.044478264 0.22800002 1.2171987e-38
0.03341737 0.044478267 0.22800003 1.2079791e-38
0.034701742 0.044478264 0.22800002 1.208051e-38
0.035619151 0.044478264 0.22800002 1.2172706e-38
0.036536563 0.044478264 0.22800002 1.189576e-38
0.037453972 0.04447826 0.22800002 1.18954e-38
0.038187902 0.044294782 0.22800002 1.18954e-38
0.028646832 0.045762636 0.22800002 1.253969e-38
0.029625403 0.045517992 0.228 1.2447495e-38
0.030298172 0.045395672 0.22800002 1.2355299e-38
0.031582545 0.045395672 0.22800003 1.2171627e-38
0.03268344 0.045395672 0.22800002 1.2079791e-38
0.033417366 0.045395672 0.22800003 1.18954e-38
0.034701742 0.045395672 0.22800002 1.2171987e-38
0.035619151 0.045395672 0.22800002 1.1619175e-38
0.036536563 0.045395672 0.22800002 1.1434785e-38
0.037331652 0.045273352 0.228 1.1895401e-38
0.027912905 0.046313085 0.22800002 1.1987595e-38
0.028463351 0.046313085 0.22800002 1.2171268e-38
0.029564243 0.046313085 0.22800002 1.2356018e-38
0.030298172 0.046313085 0.22800002 1.2263464e-38
0.031582545 0.046313081 0.22800003 1.2079791e-38
0.03268344 0.046313085 0.22800002 1.2079791e-38
0.033343975 0.046276387 0.22800002 1.1803204e-38
0.034701742 0.046129603 0.22800002 1.2079791e-38
0.035619151 0.046129603 0.22800002 1.1342229e-38
0.02662853 0.04796442 0.22800002 1.18954e-38
0.027766118 0.047670849 0.22800002 1.1803206e-38
0.028463351 0.047597457 0.22800003 1.1895043e-38
0.029527545 0.047524065 0.22800002 1.2079432e-38
0.030298172 0.047413975 0.22800002 1.1987595e-38
0.031509154 0.047377281 0.22800002 1.2079432e-38
0.025344156 0.048331387 0.22800002 1.1803204e-38
0.026261566 0.048331387 0.22800002 1.1711372e-38
0.024885451 0.049524017 0.22800002 1.1618813e-38
0.025344156 0.049248796 0.22800002 1.1711009e-38
0.026078084 0.049065314 0.22800002 1.1619532e-38
0.03378433 0.049799241 0.22800002 1.1710653e-38
0.034518261 0.049432278 0.22800002 1.1802848e-38
0.024610229 0.050533172 0.22800002 1.1617734e-38
0.024426745 0.05145058 0.22800002 1.1525538e-38
0.024426745 0.052551471 0.22800002 1.1157835e-38
0.024243264 0.053285401 0.22800002 1.124895e-38
0.022775406 0.054936741 0.22800002 1.106456e-38
0.023264691 0.054569777 0.228 1.1248949e-38
0.022775406 0.055670667 0.22800002 1.1248951e-38
0.023142371 0.055670667 0.22800002 1.1156756e-38
0.053600393 0.055670667 0.22800002 1.0791213e-38
0.021674514 0.056588076 0.22800002 1.2078708e-38
0.022286123 0.056159955 0.228 1.143334e-38
0.021674514 0.05768897 0.22800002 1.1986514e-38
0.021491032 0.058606379 0.22800002 1.1064557e-38
0.02130755 0.059340309 0.22800002 1.078797e-38
0.020573623 0.060441203 0.22800002 1.0695415e-38
0.018555319 0.061542094 0.22800002 1.1156754e-38
0.019656211 0.061358616 0.22800002 1.0695056e-38
0.020451302 0.061419774 0.228 1.0786891e-38
0.022775406 0.061542094 0.22800002 1.078797e-38
0.018555319 0.062459506 0.22800002 1.2263099e-38
0.019656211 0.062459506 0.22800002 1.1341141e-38
0.020206658 0.062276021 0.22800002 1.115675e-38
0.023142371 0.062276021 0.22800002 1.0420267e-38
0.018738801 0.063009948 0.22800002 1.2722997e-38
0.019656211 0.063009948 0.22800002 1.1155674e-38
0.042041127 -0.024065629 0.22900002 1.6090656e-38
0.040743981 -0.023060171 0.23 1.6365445e-38
0.04160982 -0.023361905 0.22933334 1.6548755e-38
0.042336069 -0.023483695 0.22980002 1.6548752e-38
0.047446877 -0.023451341 0.22900002 1.5816198e-38
0.048491165 -0.023328483 0.22900002 1.5452443e-38
0.040839694 -0.022639856 0.22950001 1.6731348e-38
0.041299254 -0.022319805 0.23 1.7654383e-38
0.042224713 -0.022319805 0.23 1.6545871e-38
0.040935408 -0.021854188 0.22900002 1.793097e-38
0.041672554 -0.021854188 0.22900002 1.7098689e-38
0.042041127 -0.021485614 0.22900002 1.6268928e-38
0.044445813 -0.021579439 0.23 1.7838772e-38
0.050886896 -0.021485614 0.22900002 1.3977316e-38
0.046464011 -0.018905599 0.22900002 1.5897274e-38
0.042965081 -0.017137241 0.23 1.7284162e-38
0.042409807 -0.016581967 0.23 1.7285955e-38
0.041672554 -0.015219864 0.22900002 1.7563983e-38
0.040655404 -0.013591295 0.22950001 1.6364005e-38
0.041672554 -0.011718414 0.22900002 1.5989104e-38
0.042224716 -0.010473945 0.23 1.5250462e-38
0.039461114 -0.0096912589 0.22900002 1.4883838e-38
0.038893066 -0.0089932131 0.23 1.3965122e-38
0.054810937 0.02284253 0.23 1.1803567e-38
0.055736393 0.02284253 0.23 1.1803929e-38
0.054514788 0.023434823 0.22999999 1.217271e-38
0.055736393 0.023397805 0.23 1.1987958e-38
0.044815995 0.024693446 0.23 1.3093587e-38
0.045679759 0.02457005 0.23 1.2817e-38
0.053767934 0.024639765 0.22950001 1.2448939e-38
0.054405276 0.024252759 0.22933334 1.2356741e-38
0.05530978 0.024217509 0.22900002 1.217235e-38
0.0446309 0.025248721 0.23 1.3001391e-38
0.045741454 0.025248721 0.23 1.2724805e-38
0.046296727 0.025063628 0.23 1.2540413e-38
0.045726866 0.027903248 0.22900002 1.2724805e-38
0.044815995 0.028580368 0.23 1.281664e-38
0.045490339 0.028353587 0.22966667 1.2817e-38
0.044589337 0.0296763 0.2296 1.2724082e-38
0.045481145 0.029623257 0.22900002 1.2632966e-38
0.047385447 0.029746115 0.22900002 1.2448937e-38
0.048552591 0.029623257 0.22900002 1.2357097e-38
0.041299254 0.030986559 0.23 1.2908117e-38
0.042687446 0.030801468 0.23 1.318506e-38
0.043705445 0.030616377 0.23 1.2631886e-38
0.044329222 0.030462792 0.22940001 1.2170189e-38
0.045481145 0.030360403 0.22900002 1.189576e-38
0.046648297 0.030114688 0.22900002 1.2725523e-38
0.047446877 0.030360403 0.22900002 1.2541132e-38
0.048491165 0.030483263 0.22900002 1.2264545e-38
0.049044028 0.030851835 0.22900002 1.217235e-38
0.028157756 0.031726923 0.23 1.3922625e-38
0.040743981 0.031726923 0.23 1.2631886e-38
0.041299254 0.031541832 0.23 1.2723724e-38
0.042594895 0.031541832 0.23 1.2816277e-38
0.043763053 0.031634692 0.22933334 1.1248237e-38
0.044621143 0.031588983 0.22900002 1.1525904e-38
0.045542579 0.031588983 0.22900002 1.0973806e-38
0.046648297 0.031957556 0.22900002 1.0418835e-38
0.026929609 0.032694705 0.22900002 1.3737154e-38
0.028157756 0.032837473 0.23 1.3921546e-38
0.040743981 0.032467291 0.23 1.2356378e-38
0.041299254 0.032467291 0.23 1.2540769e-38
0.042594895 0.032467291 0.23 1.2355659e-38
0.043699708 0.032694705 0.22900002 1.263189e-38
0.044621143 0.032694705 0.22900002 1.2724805e-38
0.045542575 0.032694705 0.22900002 1.2724805e-38
0.046648297 0.032694705 0.22900002 1.2171987e-38
0.047385447 0.032694705 0.22900002 1.18954e-38
0.037659124 0.033454444 0.23 1.2356378e-38
0.038522884 0.033577841 0.23 1.2540769e-38
0.039448339 0.033577841 0.23 1.2264182e-38
0.040620584 0.033454444 0.23 1.2632608e-38
0.041299257 0.03339275 0.23 1.3001029e-38
0.042363506 0.033356249 0.22975001 1.253969e-38
0.043515425 0.033247564 0.22900002 1.2447495e-38
0.044621143 0.033247564 0.22900002 1.281628e-38
0.045542575 0.033247564 0.22900002 1.3186139e-38
0.046648297 0.033247564 0.22900002 1.2909552e-38
0.04720116 0.033063278 0.22900002 1.2448574e-38
0.035746507 0.034503296 0.23 1.2448216e-38
0.036301784 0.034688391 0.23 1.2171631e-38
0.037486371 0.034540314 0.22999999 1.2540411e-38
0.038522884 0.034503296 0.23 1.2263825e-38
0.039452597 0.034637582 0.22966667 1.198724e-38
0.040608935 0.034658652 0.2295 1.2817356e-38
0.041485906 0.034520034 0.22950001 1.2632605e-38
0.042225417 0.034537572 0.22900002 1.2447853e-38
0.043515421 0.034537572 0.22900002 1.2263464e-38
0.044621143 0.034537572 0.22900002 1.2356018e-38
0.045542579 0.034537572 0.22900002 1.2171987e-38
0.046464011 0.034169 0.22900002 1.318506e-38
0.035931602 0.035058573 0.23 1.2263826e-38
0.036301784 0.035058573 0.23 1.1895044e-38
0.037412331 0.035243664 0.23 1.3001387e-38
0.038480606 0.035205156 0.22975001 1.2264184e-38
0.039461114 0.035274718 0.22900002 1.3001747e-38
0.040566832 0.035274718 0.22900002 1.2909549e-38
0.041672554 0.035274718 0.22900002 1.2631883e-38
0.042225413 0.035274718 0.22900002 1.2448211e-38
0.043515425 0.035274718 0.22900002 1.2079791e-38
0.044621143 0.035274718 0.22900002 1.2171987e-38
0.045542575 0.035274718 0.22900002 1.2079791e-38
0.03445087 0.036909487 0.23 1.2723723e-38
0.036301784 0.036909487 0.23 1.337053e-38
0.037357759 0.036485992 0.22966668 1.27248e-38
0.038539678 0.03638044 0.22900002 1.2540769e-38
0.039461114 0.03638044 0.22900002 1.2817356e-38
0.040566832 0.03638044 0.22900002 1.2540769e-38
0.041672554 0.03638044 0.22900002 1.2448574e-38
0.042225417 0.03638044 0.22900002 1.2448574e-38
0.043469351 0.036334366 0.229 1.2171987e-38
0.044621143 0.036196154 0.22900002 1.2264182e-38
0.045358289 0.036011867 0.22900002 1.2356378e-38
0.032970134 0.037649855 0.23 1.3092864e-38
0.033710502 0.037649855 0.23 1.263153e-38
0.034450866 0.037649855 0.23 1.2540411e-38
0.035668798 0.037752293 0.22950001 1.2448575e-38
0.03669681 0.037670448 0.22900002 1.2632609e-38
0.03743396 0.037670445 0.22900002 1.1710653e-38
0.038539678 0.037670448 0.22900002 1.2448574e-38
0.039338253 0.037609018 0.22900002 1.2448575e-38
0.040382545 0.037486158 0.22900002 1.2356022e-38
0.031489402 0.03857531 0.23 1.3000668e-38
0.032646224 0.038436491 0.23 1.3000668e-38
0.03372936 0.038398504 0.22950001 1.2723724e-38
0.034339238 0.038210921 0.22966667 1.2724444e-38
0.035406802 0.03840759 0.22900002 1.2356022e-38
0.03669681 0.038407594 0.22900002 1.2171631e-38
0.03743396 0.038407594 0.22900002 1.2171632e-38
0.038355391 0.038223308 0.22900002 1.3001747e-38
0.031304311 0.03968586 0.23 1.2908117e-38
0.032379426 0.039642524 0.22975001 1.3184704e-38
0.033563934 0.039513316 0.22900002 1.2539334e-38
0.03430108 0.039513316 0.22900002 1.263153e-38
0.035406802 0.039513316 0.22900002 1.2539694e-38
0.03663538 0.039451886 0.22900002 1.2448218e-38
0.037249669 0.03932903 0.22900002 1.2817e-38
0.029453397 0.040981501 0.23 1.3461644e-38
0.030625641 0.040734712 0.23 1.2907754e-38
0.031362228 0.040566772 0.22975001 1.281592e-38
0.032273926 0.040434748 0.22900002 1.2908115e-38
0.033563934 0.040434748 0.22900002 1.2539692e-38
0.03430108 0.040434748 0.22900002 1.2631529e-38
0.035314661 0.040250462 0.22900002 1.2447858e-38
0.028651332 0.041598473 0.23 1.3277254e-38
0.029453397 0.041536774 0.23 1.3460565e-38
0.03072786 0.041584693 0.22950001 1.2907394e-38
0.031721067 0.04154047 0.22900002 1.2631886e-38
0.032273926 0.04154047 0.22900002 1.2632245e-38
0.033517864 0.041494399 0.229 1.2447855e-38
0.03430108 0.041171897 0.22900002 1.2631886e-38
0.027602479 0.042462233 0.23 1.2908473e-38
0.028651332 0.042585626 0.23 1.2540409e-38
0.029453397 0.042462233 0.23 1.2724442e-38
0.030556222 0.042507656 0.22925001 1.254005e-38
0.031721067 0.042646192 0.22900002 1.253969e-38
0.032273926 0.042646192 0.22900002 1.2356378e-38
0.033195361 0.042646192 0.22900002 1.2540769e-38
0.0227901 0.043572783 0.23 1.2630804e-38
0.023715558 0.043572783 0.23 1.2723e-38
0.024085741 0.043572783 0.23 1.2446413e-38
0.02630684 0.043572783 0.23 1.2724079e-38
0.027417386 0.043387692 0.23 1.2356018e-38
0.028527938 0.043387692 0.23 1.1803206e-38
0.029481508 0.043292969 0.22950001 1.2355662e-38
0.030615345 0.043199051 0.22900002 1.2356378e-38
0.031721067 0.043199051 0.22900002 1.2264182e-38
0.032212496 0.043137621 0.22900002 1.2264182e-38
0.022605009 0.044498239 0.23 1.2538608e-38
0.023715558 0.044498242 0.23 1.2815195e-38
0.024455925 0.044498239 0.23 1.253897e-38
0.025751565 0.044498242 0.23 1.2356378e-38
