# .PCD v0.7 - Point Cloud Data file format
VERSION 0.7
FIELDS x y z rgb
SIZE 4 4 4 4
TYPE F F F F
COUNT 1 1 1 1
WIDTH 1001
HEIGHT 1
VIEWPOINT 0 0 0 1 0 0 0
POINTS 1001
DATA ascii
0.037389647 0.059378788 0.21300001 8.7621904e-39
0.038418114 0.059378788 0.21300001 8.6699961e-39
0.039275166 0.059378788 0.21300001 8.5781607e-39
0.040303633 0.05920738 0.21300001 8.6707164e-39
0.034852766 0.060647231 0.21300001 9.2228112e-39
0.035675537 0.06057867 0.21300001 9.0387787e-39
0.036189768 0.06057867 0.21300001 9.0387801e-39
0.037389643 0.06057867 0.21300003 8.6703563e-39
0.03841811 0.06057867 0.21300001 8.4856063e-39
0.039218027 0.06035012 0.21300001 8.3934121e-39
0.034647074 0.061607134 0.21300001 9.1316946e-39
0.035675537 0.06160713 0.21300001 8.8543888e-39
0.036189772 0.061607134 0.21300001 9.0391388e-39
0.037389647 0.061607134 0.21300001 8.6703577e-39
0.038075291 0.06126431 0.21300001 8.6707164e-39
0.03396143 0.062635601 0.21300001 9.2238874e-39
0.034647074 0.062464189 0.21300001 9.3168033e-39
0.035675537 0.062464189 0.21300001 8.9473019e-39
0.036189772 0.062464193 0.21300001 9.1316946e-39
0.037161097 0.06240705 0.21300001 8.4866853e-39
0.03373288 0.063549787 0.21300001 8.6703577e-39
0.034647074 0.063492648 0.21300001 8.6707164e-39
0.035675537 0.063492656 0.21300001 8.578518e-39
0.03601836 0.06332124 0.21300001 8.578518e-39
0.032932963 0.064349703 0.21300001 8.8551077e-39
0.033618607 0.064178295 0.21300001 8.4863252e-39
0.03457851 0.064144015 0.21300001 8.6707164e-39
0.031390265 0.06572099 0.21300001 8.6707136e-39
0.032639116 0.06547612 0.21300003 8.7625505e-39
0.033618607 0.065035351 0.21300001 8.5785208e-39
0.03430425 0.065035351 0.21300001 9.2238902e-39
0.029733295 0.066635184 0.21300001 8.6699947e-39
0.030533213 0.066578045 0.21300001 9.0387773e-39
0.031390265 0.066578045 0.21300001 9.1309729e-39
0.032361593 0.066520907 0.21300001 8.6699947e-39
0.029504746 0.067263685 0.21300001 9.500117e-39
0.030533211 0.067263685 0.21300001 9.684504e-39
0.03133313 0.067206554 0.21300001 9.0391332e-39
0.029590452 0.068206452 0.21300001 9.7770612e-39
0.030601775 0.068395004 0.21300001 9.2231685e-39
0.031355985 0.068532124 0.21300001 8.6707136e-39
0.03224732 0.068806387 0.21300001 8.3019311e-39
0.030876033 0.069492035 0.21300001 8.4863252e-39
0.031390265 0.069663443 0.21300001 8.5785208e-39
0.03224732 0.069663443 0.21300001 8.2097383e-39
0.031561676 0.070349082 0.21300001 8.3019339e-39
0.032361593 0.070291944 0.21300001 8.1175426e-39
0.031561676 0.071548961 0.21300001 7.9331514e-39
0.03224732 0.071548961 0.21300001 8.1175426e-39
0.03224732 0.074977182 0.21300001 7.3799748e-39
0.03224732 0.075662822 0.21300001 7.3799748e-39
0.067279689 0.010839223 0.21466668 7.5632702e-39
0.055388801 0.01131762 0.215 9.0391304e-39
0.067327201 0.01131762 0.215 7.4710746e-39
0.067327201 0.012009702 0.215 7.471076e-39
0.034809735 0.024697797 0.21400002 1.1988314e-38
0.064385861 0.029657777 0.215 7.5668898e-39
0.065423973 0.029657776 0.21499999 7.3824985e-39
0.054350678 0.03034986 0.215 8.3044492e-39
0.056080882 0.03000382 0.215 8.4888433e-39
0.063520759 0.03034986 0.215 7.3824985e-39
0.064212844 0.030176839 0.215 7.4746942e-39
0.06542398 0.030176839 0.21500002 7.3824985e-39
0.066577457 0.030234514 0.21499999 7.3824985e-39
0.067154184 0.03034986 0.215 7.3824985e-39
0.054523699 0.031561002 0.215 8.395926e-39
0.063520759 0.031387981 0.21500002 7.3824985e-39
0.064212844 0.031387981 0.21500002 7.4746942e-39
0.06542398 0.031387981 0.21500002 7.2910218e-39
0.066635124 0.031387981 0.21500002 7.1991863e-39
0.067269526 0.031157287 0.21499999 7.0144349e-39
0.055734843 0.032426104 0.215 8.2122564e-39
0.056253903 0.032599125 0.215 8.1207796e-39
0.057119004 0.032426104 0.215 8.0278679e-39
0.063347735 0.032426104 0.215 7.4746942e-39
0.065596998 0.032426104 0.215 7.1991863e-39
0.067702919 0.033997439 0.21400002 7.1059116e-39
0.058849208 0.034848388 0.215 8.0278679e-39
0.059368268 0.034848388 0.215 7.8434767e-39
0.060579415 0.034675371 0.21500002 7.5676087e-39
0.061271492 0.034848388 0.215 7.5679688e-39
0.065770023 0.034675367 0.215 7.1981073e-39
0.066664658 0.034528632 0.21485718 7.1059116e-39
0.067514926 0.034479246 0.21450002 7.1059116e-39
0.068557993 0.034554206 0.21425 7.013716e-39
0.069576472 0.034848388 0.215 6.9215204e-39
0.072008312 0.034341872 0.21400002 7.1059116e-39
0.057695735 0.035771165 0.21499999 7.8431166e-39
0.058503166 0.03571349 0.215 7.7512811e-39
0.059368268 0.03571349 0.215 7.6590854e-39
0.060579415 0.03571349 0.21500002 7.4754144e-39
0.061301216 0.035630032 0.21450001 7.5676115e-39
0.065654673 0.035771165 0.21499999 7.1981073e-39
0.066652238 0.035630297 0.21450002 6.9215204e-39
0.067702919 0.035547379 0.21400002 7.1051914e-39
0.068563998 0.035547379 0.21400002 7.0129957e-39
0.069252864 0.035547379 0.21400002 6.8293234e-39
0.057638064 0.036405571 0.215 7.7509209e-39
0.05850317 0.036405571 0.215 7.6590854e-39
0.059368268 0.036405571 0.215 7.5668898e-39
0.060599763 0.036349129 0.21466668 7.4750557e-39
0.065596998 0.036405571 0.215 7.1981073e-39
0.066652238 0.03632104 0.21450001 6.9215204e-39
0.067702919 0.036236241 0.21400002 6.9207987e-39
0.068563998 0.036236241 0.21400002 6.9207987e-39
0.069252864 0.036236241 0.21400002 6.7364075e-39
0.05746505 0.037616715 0.21500002 7.3824985e-39
0.05850317 0.037616715 0.21500002 7.3824985e-39
0.05945183 0.037640922 0.21485715 7.3824985e-39
0.06057512 0.037463907 0.214375 7.3832188e-39
0.063225314 0.037613966 0.21400002 7.1066347e-39
0.065770023 0.037270673 0.215 6.9225994e-39
0.066690274 0.037304439 0.21440001 6.9215204e-39
0.067702919 0.037269536 0.21400002 6.7364075e-39
0.068563998 0.037441753 0.214 6.7364075e-39
0.069498889 0.037490956 0.214 6.4598206e-39
0.057465047 0.038654838 0.21499999 7.1981073e-39
0.058503166 0.038654838 0.215 7.1981073e-39
0.059650354 0.038684733 0.21440001 7.290663e-39
0.060642079 0.038647261 0.21400002 7.1991877e-39
0.061330944 0.038647261 0.21400002 7.2913833e-39
0.063225314 0.038647261 0.21400002 7.289947e-39
0.068670802 0.038649786 0.21433334 6.5520134e-39
0.069597296 0.038647261 0.214 6.3676193e-39
0.070630588 0.038475044 0.21400002 6.5512903e-39
0.050890271 0.039519936 0.215 8.2122592e-39
0.051236313 0.039519936 0.215 8.1200636e-39
0.057465043 0.039346915 0.21500002 7.1977485e-39
0.058562703 0.039320771 0.21485715 6.8304038e-39
0.05958575 0.039339721 0.21433334 7.014795e-39
0.060642079 0.039336123 0.21400002 7.014795e-39
0.061503161 0.039336123 0.21400002 7.1991863e-39
0.062479049 0.039393529 0.21400003 7.014795e-39
0.063225314 0.039336123 0.21400002 7.2903029e-39
0.069425076 0.039163906 0.21400002 6.2754265e-39
0.046737783 0.04073108 0.215 8.4888461e-39
0.04754521 0.040615734 0.21499999 8.3966505e-39
0.048121944 0.040558062 0.215 8.3040961e-39
0.050544232 0.040558059 0.215 8.3044548e-39
0.057811085 0.040385041 0.215 7.3824985e-39
0.058642089 0.040552583 0.21466668 7.1059116e-39
0.059697323 0.040568698 0.21414284 6.9215204e-39
0.060642079 0.04054163 0.214 6.9225994e-39
0.061503157 0.040541634 0.214 6.8304066e-39
0.062364236 0.040541634 0.214 6.8304066e-39
0.063225314 0.04054163 0.214 6.8307653e-39
0.045353618 0.041769203 0.215 8.4888461e-39
0.046460949 0.041492369 0.215 8.5810417e-39
0.047429863 0.041423164 0.215 8.3044548e-39
0.048294965 0.041423164 0.215 8.2122592e-39
0.049506109 0.041492373 0.215 8.2122592e-39
0.050544232 0.041423164 0.215 8.2122592e-39
0.051351655 0.04153851 0.21499999 8.1200636e-39
0.052720159 0.041919358 0.21400002 7.8434767e-39
0.053491682 0.041869309 0.21433334 7.7512811e-39
0.054097887 0.041919358 0.21400002 7.5668898e-39
0.058884569 0.041326024 0.21450001 7.1055529e-39
0.05983841 0.041689735 0.21400003 6.9215204e-39
0.060642082 0.041747138 0.21400002 6.8296835e-39
0.061503157 0.041747138 0.21400002 6.7378494e-39
0.062364236 0.041747142 0.21400002 6.7382081e-39
0.063328646 0.041781586 0.21400002 6.6460167e-39
0.043969456 0.042807326 0.215 8.9491054e-39
0.044661537 0.042634305 0.215 8.5803271e-39
0.0451806 0.04246128 0.21500002 8.1197076e-39
0.04639174 0.042461284 0.21500002 8.765433e-39
0.047429863 0.04246128 0.21500002 8.4888461e-39
0.048294961 0.042461287 0.21500002 8.2122592e-39
0.049506109 0.042461291 0.21500002 8.1200636e-39
0.050612368 0.042380501 0.21437502 8.1200636e-39
0.051548097 0.042275622 0.21450001 7.9356723e-39
0.05239366 0.042355817 0.21425 7.9356723e-39
0.053581245 0.042436004 0.21400002 7.7512811e-39
0.054327507 0.042378601 0.21400003 7.6590854e-39
0.060712524 0.042485781 0.21425 6.8293248e-39
0.061503157 0.042436004 0.21400002 6.7374893e-39
0.062364239 0.042436004 0.21400002 6.5538169e-39
0.063397534 0.042436004 0.214 6.737848e-39
0.064385861 0.042807326 0.215 7.013716e-39
0.042931333 0.043845449 0.215 9.4090045e-39
0.043692626 0.043707032 0.215 9.1334966e-39
0.044661537 0.043672428 0.215 8.7643582e-39
0.045180596 0.043672428 0.215 8.0267931e-39
0.046391744 0.043672428 0.21500002 8.7650771e-39
0.047429863 0.043672428 0.215 8.67288e-39
0.048449706 0.043776929 0.21466668 8.3044576e-39
0.049404845 0.043674532 0.214375 8.0278679e-39
0.050653573 0.043641515 0.214 8.0278679e-39
0.051686864 0.043641511 0.21400003 7.6594442e-39
0.05237573 0.043641511 0.214 7.7516412e-39
0.053546797 0.043572627 0.21400002 7.566894e-39
0.054097887 0.043297082 0.21400002 7.6587295e-39
0.060986511 0.043297082 0.21400002 6.9215204e-39
0.061503161 0.043469295 0.21400002 6.9215204e-39
0.062364236 0.043641511 0.214 6.6449335e-39
0.063397534 0.043641511 0.214 6.8289646e-39
0.064430825 0.043469295 0.21400002 6.9208015e-39
0.04189321 0.044883568 0.215 8.9491026e-39
0.042585291 0.044537529 0.215 9.1331365e-39
0.043623418 0.044537526 0.21500002 9.1331379e-39
0.044661537 0.044537529 0.215 8.948748e-39
0.045180596 0.044537526 0.215 8.67288e-39
0.04639174 0.044537526 0.21500002 8.5814047e-39
0.047523517 0.044564981 0.21480003 8.3048192e-39
0.04854678 0.044513702 0.21433334 8.3962917e-39
0.049448062 0.044674806 0.21400002 8.0278679e-39
0.050653573 0.044674803 0.21400003 7.9367513e-39
0.051686864 0.044674806 0.21400002 7.5679688e-39
0.052203514 0.044674806 0.21400002 7.4757732e-39
0.063225314 0.044674806 0.21400002 6.8286059e-39
0.064212844 0.044537529 0.215 7.0119181e-39
0.040739745 0.045806345 0.21499999 9.3160858e-39
0.041720193 0.045575649 0.21500002 8.8569069e-39
0.042585295 0.045575649 0.21500002 9.0412982e-39
0.043623418 0.045575649 0.21500002 8.8569083e-39
0.044661537 0.045575649 0.21499999 8.8569097e-39
0.045273591 0.045594573 0.21485715 8.5810417e-39
0.046326704 0.045426004 0.21450001 8.6732374e-39
0.047553688 0.045363665 0.214 8.3044562e-39
0.048759196 0.045363668 0.214 8.8572685e-39
0.049448062 0.045363668 0.214 8.1200622e-39
0.050604369 0.045265261 0.214 8.0282281e-39
0.051686864 0.045019239 0.21400002 7.6601644e-39
0.063693777 0.04522961 0.215 6.8286059e-39
0.064039819 0.04522961 0.215 6.6442146e-39
0.038778845 0.046959814 0.215 9.4997582e-39
0.039586272 0.046844468 0.21499999 9.6848669e-39
0.040509049 0.046786789 0.21500002 9.0398605e-39
0.041720189 0.046786793 0.215 8.9483851e-39
0.042585291 0.046786793 0.215 8.9487452e-39
0.043554209 0.046752192 0.215 8.6725185e-39
0.044522695 0.04660362 0.21400002 8.5803229e-39
0.045659319 0.046569176 0.21400002 8.3959316e-39
0.046348177 0.046569176 0.21400002 8.1197048e-39
0.047553688 0.04656918 0.214 8.3962931e-39
0.0487592 0.04656918 0.21400002 8.7654344e-39
0.049448062 0.04656918 0.21400002 8.120065e-39
0.038663495 0.047767241 0.21499999 9.4072039e-39
0.039470926 0.047651894 0.215 9.7770626e-39
0.040509049 0.047651898 0.21500002 8.9480236e-39
0.041720193 0.047651894 0.215 9.0402206e-39
0.042585291 0.047651894 0.215 9.1324176e-39
0.043521162 0.047454968 0.21450001 8.764354e-39
0.044453811 0.047258038 0.214 8.7647141e-39
0.045659319 0.047258042 0.21400002 8.1193461e-39
0.046348181 0.047258042 0.21400002 7.9345961e-39
0.047553688 0.047258038 0.214 8.3040989e-39
0.0487592 0.047258042 0.21400002 8.3962945e-39
0.049275845 0.047258042 0.21400002 8.3040989e-39
0.037625376 0.048574671 0.21499999 9.5915937e-39
0.038605824 0.048516996 0.215 9.315367e-39
0.03947093 0.048516996 0.215 9.2242503e-39
0.040509049 0.048516992 0.21500002 8.8558279e-39
0.041720189 0.048516996 0.215 9.0402206e-39
0.042574629 0.048529901 0.21460001 9.040222e-39
0.043420512 0.048463549 0.214 8.764354e-39
0.044453811 0.048463549 0.214 8.5803229e-39
0.045659319 0.048463553 0.214 8.0271491e-39
0.046348181 0.048463549 0.214 8.303736e-39
0.047553692 0.048463553 0.214 8.395933e-39
0.048724756 0.048394669 0.21400002 8.3955757e-39
0.037463892 0.049451306 0.215 9.4997582e-39
0.038605824 0.049382098 0.215 9.2231713e-39
0.039470926 0.049382098 0.215 9.2238902e-39
0.040509049 0.049382102 0.21500002 9.0394989e-39
0.041715823 0.049473934 0.2148 8.7643526e-39
0.0424954 0.049542457 0.21419999 8.9491026e-39
0.043420516 0.049669057 0.21400002 8.5803215e-39
0.044453811 0.049669057 0.214 8.2122592e-39
0.045659319 0.049669061 0.21400002 8.1197048e-39
0.046348177 0.049669061 0.21400002 9.2249734e-39
0.047324073 0.049611654 0.21400003 8.7636351e-39
0.036425769 0.050489433 0.215 9.2231713e-39
0.037394684 0.050420221 0.21500002 9.7763451e-39
0.038605824 0.050420221 0.21500002 9.2231713e-39
0.039470926 0.050420221 0.21500002 9.2238902e-39
0.040465795 0.050376967 0.21500002 8.8551077e-39
0.041443542 0.050339337 0.21416669 8.5792411e-39
0.042559437 0.050357923 0.21400002 8.4877643e-39
0.043420516 0.050357923 0.21400002 8.4877657e-39
0.044453811 0.050357919 0.214 8.303736e-39
0.045601916 0.05030052 0.21400003 8.303736e-39
0.046175964 0.050185706 0.21400002 8.7647141e-39
0.035549134 0.051689032 0.21499999 9.3153642e-39
0.036356561 0.051631361 0.215 9.6841467e-39
0.037394684 0.051631361 0.21500002 9.5001184e-39
0.038605824 0.051631365 0.215 9.315367e-39
0.039639354 0.051666126 0.21466668 9.6841481e-39
0.040539548 0.05153716 0.21425 9.2231713e-39
0.041353926 0.051563431 0.214 8.9473047e-39
0.042559434 0.051563431 0.214 8.4870454e-39
0.043305706 0.051333811 0.21400003 8.487407e-39
0.044281594 0.051218998 0.21400002 8.303736e-39
0.033934273 0.052842502 0.215 9.6830677e-39
0.034626357 0.052496463 0.215 9.7759822e-39
0.035491459 0.052496463 0.215 1.0145125e-38
0.036356561 0.052496463 0.215 9.4997568e-39
0.037394684 0.052496463 0.21500002 9.2231713e-39
0.038605824 0.052496463 0.215 9.9596546e-39
0.039571252 0.052645035 0.214375 9.4993967e-39
0.040665064 0.052768942 0.21400002 8.854386e-39
0.041353926 0.052768942 0.214 8.9469418e-39
0.042387221 0.052596726 0.21400002 9.8699799e-39
0.031627338 0.053765278 0.21499999 1.0144047e-38
0.032599546 0.053633451 0.21500002 9.6841467e-39
0.033761252 0.053534582 0.21500002 9.4079213e-39
0.034626357 0.053534582 0.21500002 9.4075598e-39
0.035491459 0.053534579 0.21500002 9.591951e-39
0.036356561 0.053534582 0.21500002 9.2231699e-39
0.037413444 0.053506739 0.21488892 9.1309757e-39
0.038515911 0.05340955 0.21450001 9.2231699e-39
0.039631769 0.053457808 0.214 9.131333e-39
0.040665064 0.053457804 0.21400002 8.7625519e-39
0.041285045 0.053423364 0.21400002 8.8547475e-39
0.030646887 0.054745726 0.215 1.0420993e-38
0.031511988 0.054745726 0.215 1.0236962e-38
0.032550115 0.054745723 0.21500002 9.6834292e-39
0.033761255 0.054745726 0.215 9.1316946e-39
0.034626357 0.054745726 0.215 9.5923126e-39
0.035491459 0.054745726 0.215 9.4079199e-39
0.036426373 0.054678153 0.2146 9.0394989e-39
0.037599646 0.054507423 0.21419999 9.5923112e-39
0.038426265 0.054491099 0.21400002 8.8547489e-39
0.039631769 0.054491099 0.214 8.762912e-39
0.040665064 0.054491099 0.21400002 8.762912e-39
0.041009497 0.054491099 0.21400002 8.762912e-39
0.069749489 0.054572705 0.215 1.5989815e-38
0.029781785 0.055610828 0.215 9.9596546e-39
0.030646887 0.055610828 0.215 1.0051852e-38
0.031511988 0.055610828 0.215 9.9600147e-39
0.032550111 0.055610824 0.21500002 9.775622e-39
0.033761255 0.055610824 0.215 9.0394975e-39
0.034585692 0.055545762 0.21474999 9.2235315e-39
0.035367452 0.055416435 0.21425 9.4075626e-39
0.036531892 0.055352177 0.214 9.2235301e-39
0.037737399 0.055352174 0.21400002 9.4079199e-39
0.038426265 0.055352174 0.21400002 8.8543874e-39
0.039545663 0.055179957 0.21400002 8.6703577e-39
0.040665064 0.055007745 0.21400002 8.762912e-39
0.029643368 0.056718159 0.215 9.5912322e-39
0.030646889 0.056648951 0.21500002 9.7756234e-39
0.031511988 0.056648951 0.21500002 1.005221e-38
0.032506853 0.056605693 0.21500002 9.8678163e-39
0.0335976 0.056547135 0.21442857 9.3153642e-39
0.034637518 0.056385469 0.214 9.1316946e-39
0.03532638 0.056385472 0.214 9.2238902e-39
0.036531888 0.056385472 0.214 9.3157257e-39
0.037702955 0.056316584 0.21400002 9.0387801e-39
0.038368862 0.056155849 0.21400003 9.0387801e-39
0.029435745 0.05768707 0.21499999 9.4075598e-39
0.030646887 0.05768707 0.215 9.0387773e-39
0.031511988 0.05768707 0.215 9.4997554e-39
0.032333832 0.05762301 0.21433334 9.3153642e-39
0.033432011 0.057590976 0.214 9.8688967e-39
0.034637518 0.057590976 0.21400002 9.2238874e-39
0.03532638 0.05759098 0.21400002 9.0394975e-39
0.036463004 0.057556532 0.21400002 8.9473033e-39
0.037565183 0.057418764 0.21400002 8.9473033e-39
0.028743664 0.058379155 0.215 1.0052929e-38
0.029435746 0.05820613 0.21500002 9.4075598e-39
0.030646887 0.058206134 0.215 8.8547461e-39
0.031511988 0.058206134 0.215 9.2235287e-39
0.03222201 0.058368273 0.21419999 9.316083e-39
0.033432007 0.058452059 0.214 9.3157243e-39
0.034637518 0.058452059 0.21400002 8.9469418e-39
0.03532638 0.058452059 0.21400002 9.131333e-39
0.036302269 0.058337245 0.21400003 9.1313358e-39
0.027590195 0.059647966 0.21499999 9.2238874e-39
0.028397622 0.059417278 0.21500002 9.4075612e-39
0.029435745 0.059417274 0.21500002 9.3153656e-39
0.030651126 0.0594762 0.21485715 9.4075612e-39
0.031506289 0.059416365 0.214375 1.0145126e-38
0.032226499 0.059485346 0.214 9.4068423e-39
0.033432011 0.05948535 0.214 9.0384213e-39
0.034637518 0.05948535 0.214 9.591951e-39
0.035291933 0.059416465 0.21400002 9.1309743e-39
0.026552072 0.060570747 0.21499999 9.1316946e-39
0.027532522 0.0604554 0.215 9.0394989e-39
0.028397622 0.060455397 0.215 9.3160858e-39
0.029514594 0.060513634 0.21485715 9.3160858e-39
0.030498248 0.060574561 0.21419999 9.4079199e-39
0.031537637 0.060690861 0.21400002 9.5001141e-39
0.032226499 0.060690865 0.21400002 9.3157243e-39
0.033432011 0.060690861 0.214 8.8543888e-39
0.034580112 0.060633454 0.21400003 9.5912322e-39
0.024591178 0.06149352 0.21499999 9.6848655e-39
0.025802318 0.061320499 0.215 9.5004743e-39
0.026494399 0.061320499 0.215 9.1316932e-39
0.027532522 0.061320499 0.215 8.8551077e-39
0.02850898 0.061435677 0.2148 9.3160858e-39
0.029455457 0.061428037 0.21442857 9.2238902e-39
0.030504342 0.06155194 0.21400002 9.2238902e-39
0.031537637 0.061551936 0.21400002 9.2238888e-39
0.032226499 0.061551936 0.21400002 9.1316932e-39
0.033432007 0.06155194 0.214 8.8551077e-39
0.034465302 0.061207507 0.21400002 8.7621932e-39
0.021684432 0.062600851 0.215 9.0394989e-39
0.022687951 0.062531643 0.21500002 9.3160858e-39
0.023380034 0.062531643 0.21500002 8.6707164e-39
0.024591178 0.062531643 0.21500002 1.0237322e-38
0.025802316 0.062531643 0.21500002 9.1309757e-39
0.026494399 0.062531643 0.21500002 9.0395003e-39
0.02753252 0.062531643 0.21500002 8.9473047e-39
0.028564066 0.062565453 0.21436363 8.9476634e-39
0.029643262 0.062585235 0.214 8.8551077e-39
0.030504344 0.062585227 0.214 9.0394989e-39
0.031537637 0.062585235 0.214 9.2238902e-39
0.032226499 0.062585235 0.214 8.9473033e-39
0.033388954 0.062542178 0.214 9.5004757e-39
0.020438688 0.063915804 0.215 9.3160858e-39
0.021476811 0.063569754 0.21500002 8.9476648e-39
0.022687953 0.063569762 0.215 9.2242517e-39
0.023380034 0.063569762 0.215 9.0398591e-39
0.024591176 0.063569762 0.21500002 9.5004771e-39
0.025802318 0.063569762 0.215 9.1309757e-39
0.026494401 0.063569762 0.215 8.9469446e-39
0.027468359 0.063651286 0.21450001 9.2235301e-39
0.028609971 0.063790746 0.214 9.0394989e-39
0.029643264 0.063790739 0.21400002 8.9473033e-39
0.030504342 0.063790739 0.21400002 8.6707164e-39
0.031537637 0.063790739 0.21400002 8.762912e-39
0.032226499 0.063790739 0.21400002 8.8547475e-39
0.033202391 0.063733332 0.21400003 8.762912e-39
0.019746605 0.064607888 0.215 8.9480236e-39
0.020265667 0.064434871 0.215 9.0398577e-39
0.021476811 0.064434864 0.21500002 8.7636323e-39
0.022687953 0.064434871 0.215 8.8558307e-39
0.023380032 0.064434871 0.215 8.9480236e-39
0.024591176 0.064434871 0.21500002 9.3164446e-39
0.025802318 0.064434871 0.215 9.1316918e-39
0.026547462 0.064457104 0.21450001 8.8547461e-39
0.027404461 0.064479604 0.21400002 9.3157243e-39
0.028609971 0.064479604 0.214 9.0394975e-39
0.029643264 0.064479604 0.21400002 8.8551077e-39
0.030504342 0.064479604 0.21400002 8.6707164e-39
0.031537637 0.064479604 0.21400002 8.6707164e-39
0.032226499 0.064479604 0.21400002 8.5781621e-39
0.033087578 0.064307392 0.21400002 8.8543888e-39
0.018708482 0.065819025 0.215 9.0398591e-39
0.019573584 0.065646 0.21500002 8.7636337e-39
0.020265667 0.065646008 0.21500002 8.948025e-39
0.021476811 0.065646008 0.21500002 8.7636323e-39
0.022635056 0.065492809 0.21450001 8.5799599e-39
0.023537159 0.065441921 0.21433336 8.8561867e-39
0.024427408 0.065421648 0.21442857 9.1320533e-39
0.025583148 0.065459661 0.21425001 9.0394975e-39
0.026543384 0.065512896 0.21400002 9.0394989e-39
0.027404463 0.065512896 0.21400002 9.3160858e-39
0.028609971 0.065512903 0.214 8.9473005e-39
0.029643266 0.065512903 0.21400002 8.8551049e-39
0.030504342 0.065512903 0.21400002 8.6707136e-39
0.031537637 0.065512903 0.21400002 8.670715e-39
0.032226499 0.065340683 0.21400002 8.5785208e-39
0.018708482 0.066338092 0.215 9.2238902e-39
0.019573584 0.066338092 0.215 9.0394989e-39
0.020406462 0.066464864 0.21466668 9.0398605e-39
0.021254245 0.066528246 0.21450001 8.7632722e-39
0.022410212 0.066373974 0.214 8.5792411e-39
0.023558317 0.066259168 0.21400003 8.7636323e-39
0.024304584 0.066029541 0.21400002 9.2246091e-39
0.025578979 0.066305086 0.21400002 8.6710766e-39
0.026543386 0.066373974 0.21400002 8.7632722e-39
0.027404461 0.066373974 0.21400002 9.0398591e-39
0.028609971 0.066373974 0.214 8.9473005e-39
0.029528454 0.066259168 0.21400003 8.854386e-39
0.030504342 0.066029541 0.21400002 8.7621904e-39
0.018708482 0.067203194 0.215 9.2238874e-39
0.019585181 0.067429848 0.21485715 9.1316918e-39
0.020419529 0.067398168 0.21428573 8.8551063e-39
0.021204701 0.067407273 0.214 8.762912e-39
0.022376195 0.06735386 0.21414284 8.762912e-39
0.023380032 0.067549229 0.215 8.5788809e-39
0.024591178 0.067376211 0.21500002 8.7636323e-39
0.025664637 0.067282639 0.21433334 8.3948498e-39
0.027576678 0.06706284 0.21400002 8.7636323e-39
0.028511563 0.067358069 0.214 8.8547475e-39
0.021376917 0.068440564 0.21400002 8.4870454e-39
0.022563519 0.068419576 0.21480003 8.5788809e-39
0.023380034 0.068068296 0.215 8.762912e-39
0.024418157 0.068068296 0.215 8.6707164e-39
0.027576678 0.068612784 0.21400002 8.6714395e-39
0.028541084 0.068647221 0.21400002 8.7625533e-39
0.029298835 0.068784997 0.21400002 9.315367e-39
0.028696081 0.069301635 0.21400002 8.5785208e-39
0.029643266 0.069473855 0.21400002 8.9469432e-39
0.030332128 0.069473855 0.21400002 8.6703577e-39
0.029643266 0.070162721 0.21400002 8.5785208e-39
0.030575614 0.070499666 0.21450001 8.5785208e-39
0.031365421 0.070679367 0.21400002 8.3941295e-39
0.030724341 0.071535997 0.21433334 8.4863252e-39
0.031365421 0.071712658 0.21400002 8.2097383e-39
0.031365421 0.072229303 0.21400002 8.2097383e-39
0.031858031 0.07498911 0.215 7.8409529e-39
0.032219023 0.074871399 0.21433334 7.9331486e-39
0.031474944 0.075420164 0.21475002 7.9331486e-39
0.03148777 0.076279074 0.21425 8.0253442e-39
0.05469672 0.079833679 0.215 7.2884994e-39
0.055561822 0.079833679 0.215 7.8409529e-39
0.053312555 0.080179714 0.215 7.9338688e-39
0.054350678 0.080352738 0.21500002 7.2884994e-39
0.055561822 0.080352738 0.215 8.0253442e-39
0.056080882 0.080179714 0.215 7.4721704e-39
0.05469672 0.08121784 0.215 7.4728907e-39
0.055388801 0.08121784 0.215 8.0260645e-39
0.055472601 0.011022611 0.21600001 9.131326e-39
0.056341726 0.01137026 0.21600001 8.9476536e-39
0.067118883 0.01137026 0.21600001 7.4710746e-39
0.067466527 0.022408156 0.21600001 7.3814139e-39
0.068509489 0.022495067 0.21600001 7.1051886e-39
0.067466535 0.023538016 0.21599999 7.2895784e-39
0.068509489 0.023538018 0.21600001 7.1973828e-39
0.069291696 0.023538018 0.21600001 7.10519e-39
0.034787409 0.024580969 0.21600001 1.2542567e-38
0.067466535 0.024580969 0.21600001 7.3817769e-39
0.068161838 0.024580969 0.21600001 7.2895812e-39
0.034439757 0.02527627 0.21600001 1.1618457e-38
0.036351837 0.025450096 0.21600001 1.0789773e-38
0.034787409 0.026319219 0.21600001 1.1065283e-38
0.035482712 0.026319219 0.21600001 1.1066002e-38
0.061904132 0.029621895 0.21600001 7.9356695e-39
0.053908177 0.03083867 0.21600001 8.5792383e-39
0.054951128 0.030143371 0.21600001 8.3044492e-39
0.055472601 0.030143371 0.21600001 8.120058e-39
0.061904132 0.030491021 0.21600001 7.7512783e-39
0.062773257 0.03083867 0.21600001 7.659084e-39
0.053734351 0.031533971 0.21600001 8.4870426e-39
0.054603476 0.031881619 0.21600001 8.4881216e-39
0.061904132 0.031533971 0.21600001 7.6590854e-39
0.062773257 0.031533968 0.21600001 7.5668898e-39
0.053734347 0.032750748 0.21600001 8.118979e-39
0.054777302 0.032750748 0.21600001 8.1193391e-39
0.055414658 0.032808688 0.21600001 8.0278651e-39
0.057384677 0.03292457 0.21600001 7.8445543e-39
0.061904132 0.032750748 0.21600001 7.5672499e-39
0.062715314 0.032692805 0.21600001 7.5672485e-39
0.053734351 0.033446047 0.21600001 7.8431123e-39
0.054777302 0.033446047 0.21600001 8.0275022e-39
0.055472601 0.033446047 0.21600001 8.0278651e-39
0.056515552 0.033446047 0.21600001 7.9367499e-39
0.057384677 0.033446047 0.21600001 7.7523601e-39
0.058358096 0.033480816 0.21600001 7.8445557e-39
0.059644405 0.033619873 0.21600001 7.6601644e-39
0.044521615 0.034662824 0.21600001 8.7647113e-39
0.045216918 0.034662824 0.21600001 8.9491026e-39
0.053734351 0.034488998 0.21600001 8.0271463e-39
0.054777302 0.034488998 0.21600001 7.8427536e-39
0.055472601 0.034488998 0.21600001 7.7512783e-39
0.056515552 0.034488998 0.21600001 7.7512783e-39
0.057384677 0.034488998 0.21600001 7.8434739e-39
0.058427628 0.034488998 0.21600001 7.7519999e-39
0.059644405 0.034488998 0.21600001 7.7519999e-39
0.060861181 0.034315173 0.21600001 7.5679688e-39
0.044405732 0.035242241 0.21600001 8.5803201e-39
0.045564566 0.03535812 0.21600001 8.6725157e-39
0.046607517 0.035705771 0.21600001 8.7647141e-39
0.053734347 0.035358123 0.21600001 8.3959288e-39
0.054777302 0.035358123 0.21600001 7.842755e-39
0.055472601 0.035358123 0.21600001 7.7505594e-39
0.056515552 0.035358123 0.21600001 7.6587239e-39
0.057384677 0.035358123 0.21600001 7.7512783e-39
0.058253802 0.035010472 0.21600001 7.8434767e-39
0.045608021 0.036357619 0.21599999 8.3959316e-39
0.046694428 0.036487985 0.21600001 8.6728786e-39
0.053821266 0.03631416 0.21600001 8.3037332e-39
0.054777306 0.036401074 0.21600001 8.0271463e-39
0.055472597 0.036401074 0.21600001 7.7505594e-39
0.056515556 0.036401074 0.21600001 7.4739739e-39
0.057037026 0.036401074 0.21600001 7.8427564e-39
0.045796335 0.037675787 0.21600001 8.3037332e-39
0.046781342 0.037617847 0.21600001 8.4881272e-39
0.047476642 0.037617847 0.21600001 8.7647141e-39
0.048519593 0.037617847 0.21600001 8.5803229e-39
0.049388722 0.037791673 0.21600001 8.6714367e-39
0.052169923 0.037791673 0.21600001 8.1193419e-39
0.055530544 0.037559908 0.21600001 7.9349534e-39
0.056515552 0.037617847 0.21600001 7.3821398e-39
0.044405732 0.038602859 0.21600001 8.4881272e-39
0.045564566 0.038486976 0.21600001 8.3037346e-39
0.046781342 0.038486976 0.21600001 8.4881272e-39
0.047476642 0.038486976 0.21600001 8.5803229e-39
0.048519593 0.038486972 0.21600001 8.5803229e-39
0.049388722 0.038486976 0.21600001 8.6721584e-39
0.050084021 0.038486972 0.21600001 8.4881272e-39
0.056573495 0.03837109 0.21600001 7.5668898e-39
0.042783365 0.039877575 0.21600001 8.765433e-39
0.043687254 0.039599456 0.21600001 8.765433e-39
0.044347793 0.039529923 0.21600001 8.5810417e-39
0.045564566 0.039529927 0.21599999 8.3044548e-39
0.046781346 0.039529923 0.21600001 8.3962903e-39
0.047476638 0.039529923 0.21600001 8.5803229e-39
0.048519593 0.039529923 0.21600001 8.4881272e-39
0.049388722 0.039529923 0.21600001 8.4881272e-39
0.050332341 0.039480262 0.21599999 8.3040961e-39
0.042609539 0.0407467 0.21600001 9.0416625e-39
0.04365249 0.0407467 0.21600001 8.7654344e-39
0.044347793 0.0407467 0.21600001 8.5810431e-39
0.045564566 0.040746704 0.21600001 8.3966519e-39
0.046723399 0.040688757 0.21600001 8.4888461e-39
0.047302816 0.040572874 0.21600001 8.3044548e-39
0.048693419 0.0407467 0.21600001 8.3040961e-39
0.049388718 0.0407467 0.21600001 8.3040947e-39
0.050084021 0.0407467 0.21600001 8.3962917e-39
0.05147462 0.0407467 0.21600001 8.1200636e-39
0.042505242 0.041685354 0.21600001 9.0416611e-39
0.04365249 0.041615829 0.21600001 8.9494669e-39
0.044347793 0.041615825 0.21600001 8.7650757e-39
0.045477655 0.041442003 0.21600001 8.4888475e-39
0.049736369 0.041268177 0.21600001 8.3044548e-39
0.051822271 0.041268177 0.21600001 8.2122592e-39
0.052343749 0.041963477 0.21600001 8.1200636e-39
0.053212874 0.041963477 0.21600001 7.8434767e-39
0.064511508 0.041615825 0.21600001 6.7385711e-39
0.042522628 0.042571865 0.21600001 9.1334966e-39
0.04365249 0.042484954 0.21600001 9.0416611e-39
0.044289846 0.042427015 0.21600001 8.8576286e-39
0.06468533 0.042484954 0.21600001 6.8300464e-39
0.037638139 0.043423604 0.21600001 9.6848711e-39
0.038727444 0.043469962 0.21600001 9.6852313e-39
0.039480686 0.043701727 0.21600001 9.5933958e-39
0.040523637 0.043701727 0.21600001 9.2242531e-39
0.041218936 0.043354075 0.21600001 8.7639953e-39
0.042435717 0.043354075 0.21600001 9.1331365e-39
0.04359455 0.043238193 0.21600001 9.041301e-39
0.036409777 0.044281144 0.21600001 1.0145488e-38
0.03756861 0.044223201 0.21600001 9.869261e-39
0.038611561 0.044223204 0.21600001 9.869261e-39
0.039480686 0.044223204 0.21600001 9.7774269e-39
0.040523637 0.044223204 0.21600001 9.3160886e-39
0.041218936 0.044223204 0.21600001 8.8554706e-39
0.042203948 0.044165265 0.21600001 9.040222e-39
0.065032981 0.044397026 0.21600001 7.1041138e-39
0.035656534 0.045526892 0.21600001 1.0052931e-38
0.036351833 0.045439977 0.21600001 9.9607364e-39
0.03756861 0.045439981 0.21599999 9.5004771e-39
0.038611561 0.045439977 0.21600001 9.777064e-39
0.039480686 0.045439977 0.21600001 9.6848683e-39
0.040523633 0.045439977 0.21600001 9.5926727e-39
0.041160997 0.045208212 0.21600001 8.9480236e-39
0.064569451 0.045439977 0.21600001 6.8282472e-39
0.034671526 0.046598811 0.21600001 1.0236243e-38
0.035482712 0.046482928 0.21600001 9.8681806e-39
0.036351837 0.046482932 0.21600001 9.8685407e-39
0.037568614 0.046482932 0.21600001 9.8688995e-39
0.038611561 0.046482928 0.21600001 9.7767038e-39
0.039422747 0.046367045 0.21600001 9.5926727e-39
0.040349811 0.04613528 0.21600001 9.5926727e-39
0.033396807 0.047525879 0.21600001 1.0881614e-38
0.034439757 0.047352057 0.21600001 1.0051854e-38
0.035482712 0.047352053 0.21600001 1.0605027e-38
0.036351837 0.047352053 0.21600001 1.032844e-38
0.037568614 0.047352057 0.21600001 9.8681806e-39
0.038263913 0.047352053 0.21600001 9.8678219e-39
0.031484731 0.048916481 0.21600001 9.8681792e-39
0.032353856 0.048742659 0.21600001 9.9596574e-39
0.033222985 0.048568834 0.21600001 1.0512828e-38
0.034439761 0.04856883 0.21599999 9.959656e-39
0.035482712 0.04856883 0.21600001 1.0605387e-38
0.036351833 0.04856883 0.21600001 9.7756262e-39
0.037452724 0.048452944 0.21600001 9.9596574e-39
0.02974648 0.049959432 0.21600001 1.0420636e-38
0.030615605 0.049611781 0.21600001 1.0145126e-38
0.031484731 0.049611781 0.21600001 9.6841467e-39
0.032353856 0.049611781 0.21600001 1.0052212e-38
0.033222981 0.049611781 0.21600001 9.8674617e-39
0.034439757 0.049611781 0.21600001 9.6845096e-39
0.035482712 0.049611781 0.21600001 9.8685407e-39
0.036351837 0.049611781 0.21600001 9.5919538e-39
0.037220962 0.049264129 0.21600001 9.5919538e-39
0.028529705 0.050654732 0.21600001 1.0512828e-38
0.029572656 0.050480902 0.21600001 1.0327718e-38
0.030615605 0.050480906 0.21600001 9.9600147e-39
0.031484731 0.05048091 0.21600001 9.5919524e-39
0.032353856 0.050480906 0.21600001 1.0420275e-38
0.033222981 0.05048091 0.21600001 9.8674617e-39
0.034439757 0.050480906 0.21600001 9.7763451e-39
0.035482712 0.050480906 0.21600001 9.6841481e-39
0.036178011 0.05030708 0.21600001 9.4997582e-39
0.027602637 0.0515818 0.21600001 1.0328438e-38
0.02835588 0.051523857 0.21600001 1.0236243e-38
0.029572656 0.051523861 0.21600001 1.005185e-38
0.030615605 0.051523857 0.21600001 1.005185e-38
0.031484731 0.051523857 0.21600001 9.8678191e-39
0.032353856 0.051523857 0.21600001 9.7763423e-39
0.033222981 0.051523857 0.21600001 1.0051852e-38
0.034439757 0.051523853 0.21600001 9.6830691e-39
0.035366829 0.051465914 0.21600001 9.4997568e-39
0.026617628 0.052219156 0.21600001 1.0235883e-38
0.027486753 0.052219156 0.21600001 1.005185e-38
0.02835588 0.05221916 0.21600001 1.0236243e-38
0.029572656 0.052219156 0.21600001 9.7752661e-39
0.030615605 0.05221916 0.21600001 9.9596546e-39
0.031484731 0.05221916 0.21600001 1.005185e-38
0.032353856 0.052219156 0.21600001 9.6830677e-39
0.033222981 0.05221916 0.21600001 1.0144046e-38
0.034352846 0.052132241 0.21600001 9.7752633e-39
0.02528497 0.053667698 0.21600001 1.0144409e-38
0.026443802 0.053435933 0.21599999 1.069722e-38
0.027486751 0.053435933 0.21600001 1.0789775e-38
0.02835588 0.053435933 0.21600001 1.0513188e-38
0.029572656 0.053435937 0.21599999 1.0144047e-38
0.030615605 0.053435937 0.21600001 1.0236244e-38
0.031449966 0.053366404 0.21600001 1.0051853e-38
0.032353856 0.053262107 0.21600001 1.0052213e-38
0.033222981 0.053088281 0.21600001 1.0328437e-38
0.023662601 0.054826535 0.21600001 1.0144049e-38
0.024473786 0.054594766 0.21600001 1.0420636e-38
0.025227029 0.054478884 0.21600001 1.0236244e-38
0.026443804 0.054478887 0.21600001 1.0052931e-38
0.027486755 0.054478884 0.21600001 1.0329156e-38
0.02835588 0.054478884 0.21600001 1.0696859e-38
0.029572656 0.054478884 0.21600001 1.0144047e-38
0.030615605 0.054131232 0.21600001 9.6830705e-39
0.022735534 0.055405948 0.21600001 9.9596546e-39
0.023488775 0.055348009 0.21600001 1.0051853e-38
0.024357904 0.055348009 0.21600001 1.032844e-38
0.025227029 0.055348009 0.21600001 1.0236244e-38
0.026443804 0.055348009 0.21600001 1.0052212e-38
0.027486755 0.055348009 0.21600001 1.005185e-38
0.02835588 0.055348009 0.21600001 1.0604664e-38
0.029503126 0.055313241 0.21600001 1.0143687e-38
0.021837436 0.056651697 0.21600001 1.005185e-38
0.02261965 0.056564782 0.21600001 9.5915923e-39
0.023488775 0.056564782 0.21600001 9.5001156e-39
0.0243579 0.056564782 0.21600001 9.6837879e-39
0.025227027 0.056564782 0.21600001 1.069794e-38
0.026443804 0.056564789 0.21599999 9.7759822e-39
0.027486755 0.056564778 0.21600001 9.8674589e-39
0.028355882 0.056564782 0.21600001 1.005185e-38
0.029364064 0.056495257 0.21600001 9.9596546e-39
0.0208814 0.057955384 0.21600001 9.9607364e-39
0.021750525 0.057607733 0.21600001 1.0052212e-38
0.02261965 0.057607733 0.21600001 9.5919524e-39
0.023488775 0.057607733 0.21600001 9.5004757e-39
0.024357904 0.057607733 0.21600001 9.591951e-39
0.025227029 0.057607733 0.21600001 9.7763423e-39
0.026443804 0.057607736 0.21600001 9.4997582e-39
0.027486755 0.057607733 0.21600001 9.315367e-39
0.02835588 0.057607733 0.21600001 9.5919524e-39
0.029225005 0.057260085 0.21600001 9.6841467e-39
0.019838449 0.058650687 0.21600001 9.4075626e-39
0.02053375 0.058476865 0.21600001 9.6841495e-39
0.021750525 0.058476862 0.21600001 9.5923126e-39
0.02261965 0.058476858 0.21600001 9.5004771e-39
0.023488777 0.058476858 0.21600001 1.0237682e-38
0.024357904 0.058476862 0.21600001 9.9603762e-39
0.025227029 0.058476858 0.21600001 9.407564e-39
0.026443804 0.058476862 0.21600001 9.4075612e-39
0.027486755 0.058476862 0.21600001 9.3153656e-39
0.028297938 0.058418918 0.21600001 9.4997582e-39
0.019606682 0.059577752 0.21600001 9.7767024e-39
0.020533748 0.059519812 0.21600001 9.5001141e-39
0.021750525 0.059519812 0.21600001 9.3153642e-39
0.02261965 0.059519812 0.21600001 9.6841481e-39
0.023488775 0.059519812 0.21600001 9.6841495e-39
0.024357904 0.059519812 0.21600001 9.591951e-39
0.025227029 0.059519812 0.21600001 9.4075598e-39
0.026443802 0.059519812 0.21600001 9.2231685e-39
0.02737087 0.059461873 0.21600001 9.2231685e-39
0.018795498 0.060215112 0.21600001 9.7752633e-39
0.019490797 0.060215112 0.21600001 9.6841467e-39
0.020533748 0.060215116 0.21600001 9.4075612e-39
0.021750527 0.060215112 0.21600001 9.6841481e-39
0.02261965 0.060215112 0.21600001 9.7763423e-39
0.023488775 0.060215112 0.21600001 9.4075598e-39
0.024357904 0.060215112 0.21600001 9.1320519e-39
0.025227029 0.060215108 0.21600001 9.3164446e-39
0.026374275 0.060180347 0.21600001 9.2238888e-39
0.018795498 0.061431888 0.21600001 9.5915923e-39
0.019490799 0.061431885 0.21600001 9.4997582e-39
0.02053375 0.061431885 0.21599999 9.2231713e-39
0.021750525 0.061431888 0.21600001 9.5923126e-39
0.02261965 0.061431885 0.21600001 9.500117e-39
0.023488775 0.061431885 0.21600001 8.7629106e-39
0.024357902 0.061258063 0.21600001 8.8558279e-39
0.025169088 0.061200123 0.21600001 9.1324148e-39
0.026096152 0.061084237 0.21600001 9.3160858e-39
0.018795498 0.062648669 0.21600001 9.4079227e-39
0.019490797 0.062648669 0.21600001 9.2235315e-39
0.02053375 0.062648669 0.21600001 9.3157271e-39
0.021576701 0.062474839 0.21600001 9.2238902e-39
0.018795498 0.063343957 0.21600001 9.2238874e-39
0.019490797 0.063343957 0.21600001 9.0394989e-39
0.020464217 0.063309193 0.21600001 9.2238902e-39
0.017752547 0.064908393 0.21600001 9.2238874e-39
0.018621672 0.064560741 0.21600001 9.1316918e-39
0.019421268 0.064491212 0.21600001 9.0394975e-39
0.020186098 0.06421309 0.21600001 9.2238902e-39
0.017636662 0.065835454 0.21600001 8.947662e-39
0.018563731 0.065719567 0.21600001 8.7636323e-39
0.017752547 0.066298991 0.21600001 8.9473033e-39
0.018447848 0.066298991 0.21600001 8.9473033e-39
0.06725499 0.01229605 0.21700001 7.4714375e-39
0.068302765 0.012819939 0.21700001 7.378879e-39
0.068360977 0.01340204 0.21700001 7.2870449e-39
0.071620733 0.014566239 0.21700001 7.1944877e-39
0.071678944 0.015730439 0.21700001 6.9179008e-39
0.072668515 0.015963277 0.21700001 6.9175379e-39
0.070572957 0.016312538 0.21700001 7.0108237e-39
0.071620733 0.016312538 0.21700001 6.918261e-39
0.072668515 0.016312538 0.21700001 6.8257052e-39
0.073017776 0.016312538 0.21700001 6.9182568e-39
0.068710238 0.017593155 0.21700001 6.9200728e-39
0.069699809 0.017534945 0.21700001 7.103741e-39
0.070398331 0.017360315 0.21700001 7.1033809e-39
0.071620733 0.017360317 0.21700001 6.8267912e-39
0.072668515 0.017360315 0.21700001 6.6423957e-39
0.073017776 0.017360317 0.21700001 6.4580017e-39
0.067080356 0.018757354 0.21700001 7.2895784e-39
0.068710238 0.018524515 0.21700001 7.1048256e-39
0.069699809 0.018582724 0.21700001 7.1044627e-39
0.070398331 0.018582724 0.21700001 6.92007e-39
0.071620733 0.018582726 0.21700001 6.6434818e-39
0.072668515 0.018582724 0.21700001 6.5505645e-39
0.06568332 0.019455874 0.21700001 7.7494776e-39
0.066556469 0.019455874 0.21700001 7.7494776e-39
0.06725499 0.019281246 0.21700001 7.4732508e-39
0.068593808 0.019339455 0.21700001 7.2884994e-39
0.069699809 0.019281244 0.21700001 7.1966597e-39
0.070398323 0.019281246 0.21700001 7.0122671e-39
0.071620733 0.019281246 0.21700001 6.5516491e-39
0.072668515 0.019281246 0.21700001 6.550926e-39
0.073017776 0.019106615 0.21700001 6.550919e-39
0.075462595 0.019281244 0.21700001 6.1817735e-39
0.076161109 0.019455874 0.21700001 6.1814148e-39
0.065596007 0.020590968 0.21700001 7.7494776e-39
0.066556469 0.020503653 0.21700001 7.657282e-39
0.067254983 0.020503653 0.21700001 7.657282e-39
0.068390079 0.020241709 0.21700001 7.3806951e-39
0.069699809 0.020154394 0.21700001 7.1963038e-39
0.070398331 0.020154394 0.21700001 7.1963038e-39
0.074764073 0.020678282 0.21700001 6.3661704e-39
0.075462595 0.020503653 0.21700001 6.3661662e-39
0.076300815 0.020433802 0.21700001 6.2736104e-39
0.065508693 0.021726061 0.21700001 7.657282e-39
0.066556469 0.021726061 0.21700001 7.7494776e-39
0.067080356 0.021726061 0.21700001 7.657282e-39
0.074764073 0.021551432 0.21700001 6.3668963e-39
0.075462595 0.021551432 0.21700001 6.1824994e-39
0.064984798 0.022424582 0.21700001 7.6576421e-39
0.065508693 0.022424582 0.21700001 7.5658052e-39
0.066556469 0.022424582 0.21700001 7.4736096e-39
0.067080356 0.022249952 0.21700001 7.4728907e-39
0.064810172 0.023734305 0.21700001 7.5661667e-39
0.065508693 0.02364699 0.21700001 7.658361e-39
0.066556469 0.02364699 0.21700001 7.2895784e-39
0.066731095 0.024694769 0.21700001 7.2895812e-39
0.034599204 0.025742548 0.21700001 1.1526261e-38
0.052760709 0.027838107 0.21700001 9.2238874e-39
0.053109966 0.027838107 0.21700001 9.1316918e-39
0.051363669 0.028885886 0.21700001 8.9473005e-39
0.052411448 0.028536627 0.21700001 9.0402164e-39
0.053459227 0.028536627 0.21700001 8.6714339e-39
0.054157749 0.028187366 0.21700001 8.5803173e-39
0.056951825 0.028885886 0.21700001 8.3959288e-39
0.062190723 0.028885886 0.21700001 7.842755e-39
0.05124725 0.029817244 0.21700001 8.7632694e-39
0.052411448 0.029759035 0.21700001 8.6714339e-39
0.053459227 0.029759035 0.21700001 8.5792383e-39
0.054157749 0.029933665 0.21700001 8.5803173e-39
0.056253307 0.029759035 0.21700001 8.3959288e-39
0.061841462 0.029759035 0.21700001 8.0278651e-39
0.04996663 0.030981444 0.21700001 9.2238874e-39
0.050665151 0.030632183 0.21700001 8.6714339e-39
0.051189043 0.030632183 0.21700001 8.4870426e-39
0.052411448 0.030632185 0.21700001 8.4870426e-39
0.053459227 0.030632185 0.21700001 8.5792383e-39
0.054332376 0.030282924 0.21700001 8.4881216e-39
0.061725039 0.030515766 0.21700001 7.7512783e-39
0.04996663 0.031505331 0.21700001 9.316083e-39
0.050665151 0.031505331 0.21700001 8.6714339e-39
0.051189043 0.031505331 0.21700001 8.5792383e-39
0.052411448 0.031505331 0.21700001 8.394847e-39
0.053109966 0.031505331 0.21700001 8.6710737e-39
0.061725039 0.031563543 0.21700001 7.7512811e-39
0.04996663 0.03237848 0.21700001 9.2238902e-39
0.050665151 0.03237848 0.21700001 9.7770626e-39
0.051189039 0.03237848 0.21700001 8.947662e-39
0.052411448 0.03237848 0.21700001 8.3944869e-39
0.053109966 0.03237848 0.21700001 8.3022912e-39
0.059047382 0.032727741 0.21700001 8.0278679e-39
0.061725039 0.032262061 0.21700001 7.7512811e-39
0.050665151 0.033077002 0.21700001 9.3160858e-39
0.05124725 0.033193421 0.21700001 8.8554664e-39
0.052411448 0.033251628 0.21700001 8.3952071e-39
0.053109966 0.033251632 0.21700001 8.1193391e-39
0.058698125 0.033077002 0.21700001 7.9367513e-39
0.059222013 0.033251632 0.21700001 7.8445557e-39
0.060095161 0.033426262 0.21700001 7.6601644e-39
0.044553105 0.034648672 0.21700001 8.9483837e-39
0.045542672 0.03459046 0.21700001 9.0405807e-39
0.046474036 0.034648672 0.21700001 8.8565468e-39
0.047638234 0.034706879 0.21700001 9.0405779e-39
0.052527864 0.034357619 0.21700001 8.5799599e-39
0.053109962 0.034474041 0.21700001 8.3037318e-39
0.043679956 0.03552182 0.21700001 8.7636323e-39
0.044378474 0.035871081 0.21700001 8.3959288e-39
0.046648663 0.035172559 0.21700001 8.7647113e-39
0.047696441 0.03552182 0.21700001 8.7647113e-39
0.048220333 0.035172559 0.21700001 8.7647113e-39
0.053109966 0.03552182 0.21700001 8.3959288e-39
0.040885877 0.03691886 0.21700001 9.2246133e-39
0.041584399 0.03691886 0.21700001 9.0402206e-39
0.042841729 0.036639452 0.21700001 8.7636323e-39
0.043505326 0.036569599 0.21700001 8.5792411e-39
0.044553105 0.036569599 0.21700001 8.3037332e-39
0.045076992 0.03691886 0.21700001 8.3037332e-39
0.049617372 0.036220338 0.21700001 8.7636323e-39
0.039721679 0.03785022 0.21700001 9.5933958e-39
0.04053662 0.037792008 0.21700001 9.317169e-39
0.041584399 0.037792008 0.21700001 9.0409409e-39
0.042806804 0.037792008 0.21700001 8.8561909e-39
0.043505326 0.037792008 0.21700001 8.4877671e-39
0.044553105 0.037792008 0.21700001 8.2115389e-39
0.04530983 0.037733797 0.21700001 8.2115375e-39
0.038790319 0.038315896 0.21700001 1.0054374e-38
0.039663468 0.038315896 0.21700001 9.6855914e-39
0.04053662 0.038315896 0.21700001 9.5015603e-39
0.041584399 0.038315896 0.21700001 8.9491054e-39
0.042806804 0.038315896 0.21700001 8.7647141e-39
0.043505326 0.038315896 0.21700001 8.4881272e-39
0.044378474 0.038315896 0.21700001 8.4881272e-39
0.037509698 0.039596517 0.21700001 9.777787e-39
0.038484719 0.039407335 0.21700001 9.9621783e-39
0.039663468 0.039363679 0.21700001 9.8699827e-39
0.04053662 0.039363679 0.21700001 9.3178879e-39
0.041584402 0.039363679 0.21700001 8.8572699e-39
0.042806804 0.039363679 0.21700001 8.7650728e-39
0.043447118 0.039130837 0.21700001 8.5806816e-39
0.053109966 0.039712936 0.21700001 8.1193447e-39
0.034599204 0.040760715 0.21700001 1.0238045e-38
0.035472352 0.040760715 0.21700001 1.0053654e-38
0.036520131 0.040411454 0.21700001 1.0145849e-38
0.037393279 0.040411457 0.21700001 9.8692624e-39
0.038441062 0.040411454 0.21700001 9.8696225e-39
0.039721679 0.040295035 0.21700001 1.0146209e-38
0.04053662 0.040411454 0.21700001 9.3175278e-39
0.041584399 0.040411457 0.21700001 8.8576286e-39
0.042632177 0.040062197 0.21700001 8.765433e-39
0.033726051 0.041284606 0.21700001 1.0053654e-38
0.034773834 0.041284606 0.21700001 1.0145849e-38
0.035472352 0.041284606 0.21700001 1.0145849e-38
0.036520131 0.041284606 0.21700001 1.0053654e-38
0.037393279 0.041284606 0.21700001 9.8692624e-39
0.038371205 0.041249681 0.21700001 9.8692624e-39
0.041654252 0.041249678 0.21700001 8.9494641e-39
0.031630494 0.042856272 0.21700001 1.0698301e-38
0.032329015 0.042681642 0.21700001 1.0421715e-38
0.033551425 0.042507015 0.21700001 9.9614552e-39
0.03477383 0.042507011 0.21700001 9.9614566e-39
0.035472352 0.042507011 0.21700001 1.0053654e-38
0.036520131 0.042507011 0.21700001 1.0238045e-38
0.037393279 0.042507011 0.21700001 9.6855914e-39
0.038266432 0.042507011 0.21700001 9.6852313e-39
0.041759029 0.042332381 0.21700001 8.9491054e-39
0.042632177 0.042507011 0.21700001 9.2256923e-39
0.030640924 0.043671209 0.21700001 1.0421715e-38
0.031630494 0.043554794 0.21700001 1.051391e-38
0.032329015 0.04355479 0.21700001 1.0237323e-38
0.033551425 0.043554794 0.21700001 9.9610951e-39
0.03477383 0.04355479 0.21700001 9.9614552e-39
0.035472352 0.04355479 0.21700001 1.0053654e-38
0.036520131 0.04355479 0.21700001 1.0145849e-38
0.037044019 0.043205533 0.21700001 9.6855914e-39
0.038441058 0.043205533 0.21700001 9.5933958e-39
0.039488837 0.043205533 0.21700001 9.4090045e-39
0.04053662 0.043205533 0.21700001 9.3168089e-39
0.029243886 0.044486154 0.21700001 1.0789418e-38
0.030408084 0.044427942 0.21700001 1.0237682e-38
0.031630494 0.044427942 0.21700001 1.0237683e-38
0.032329015 0.044427942 0.21700001 1.0052932e-38
0.033551421 0.044427942 0.21700001 1.0052932e-38
0.034773834 0.044427942 0.21700001 9.9607364e-39
0.035472352 0.044427946 0.21700001 1.0052932e-38
0.0363455 0.044253312 0.21700001 1.0052932e-38
0.023422889 0.045999609 0.21700001 1.1250396e-38
0.024296042 0.045824982 0.21700001 1.0973809e-38
0.025518449 0.045824979 0.21700001 1.032844e-38
0.02656623 0.045824982 0.21700001 1.1066365e-38
0.027439378 0.045650352 0.21700001 1.051355e-38
0.028487155 0.045650348 0.21700001 1.0236963e-38
0.029185675 0.045650348 0.21700001 1.0421356e-38
0.030408084 0.045650352 0.21700001 1.03288e-38
0.031630497 0.045650352 0.21700001 1.0236963e-38
0.032329012 0.045650352 0.21700001 9.8685407e-39
0.033551425 0.045650352 0.21700001 9.8685407e-39
0.03477383 0.045650348 0.21700001 1.005257e-38
0.035297722 0.045475721 0.21700001 1.0052932e-38
0.064984798 0.045999609 0.21700001 6.6442146e-39
0.065334059 0.045301091 0.21700001 7.1041138e-39
0.022724371 0.04634887 0.21700001 1.1066005e-38
0.023422889 0.04634887 0.21700001 1.1066005e-38
0.024296042 0.04634887 0.21700001 1.1066005e-38
0.025518447 0.04634887 0.21700001 1.0512831e-38
0.02656623 0.04634887 0.21700001 1.0974528e-38
0.027439378 0.04634887 0.21700001 1.0421354e-38
0.028487157 0.04634887 0.21700001 1.032844e-38
0.029185675 0.04634887 0.21700001 1.032844e-38
0.030408084 0.04634887 0.21700001 1.0236244e-38
0.031630494 0.04634887 0.21700001 1.032844e-38
0.032329015 0.04634887 0.21700001 9.591235e-39
0.033551425 0.04634887 0.21700001 9.5919538e-39
