# .PCD v0.7 - Point Cloud Data file format
VERSION 0.7
FIELDS x y z rgb
SIZE 4 4 4 4
TYPE F F F F
COUNT 1 1 1 1
WIDTH 992
HEIGHT 1
VIEWPOINT 0 0 0 1 0 0 0
POINTS 992
DATA ascii
0.029673591 0.078330711 0.19600001 9.2246105e-39
0.030304512 0.078299165 0.19600001 9.1324148e-39
0.017370636 0.079508431 0.19600002 1.051391e-38
0.027544234 0.079639874 0.19600001 9.7777842e-39
0.02856948 0.079403281 0.19599999 9.3168061e-39
0.029568441 0.079403266 0.19599999 9.4090017e-39
0.014452628 0.080822855 0.19600001 1.0790497e-38
0.016108794 0.080349654 0.19600001 1.0606106e-38
0.022575732 0.080980584 0.19600001 1.0237323e-38
0.02355366 0.080854401 0.19600001 9.7777842e-39
0.024626225 0.080665126 0.19599999 9.5941133e-39
0.025730336 0.080665119 0.19599999 9.5941118e-39
0.026518986 0.080507383 0.19600001 9.5937531e-39
0.027402276 0.080475837 0.19600001 9.5937517e-39
0.028569479 0.080349654 0.19600001 9.5011974e-39
0.02935813 0.080349654 0.19600001 9.7777842e-39
0.032678615 0.052857459 0.19700001 1.0329522e-38
0.052971087 0.063954905 0.19700001 8.6739632e-39
0.052601174 0.064694732 0.19700001 8.6739632e-39
0.049800392 0.065857321 0.19700001 9.0416639e-39
0.050497942 0.065603666 0.19700001 8.857993e-39
0.051227201 0.065540254 0.19700001 8.7661575e-39
0.052372187 0.065469787 0.19700001 8.857993e-39
0.049694702 0.066702843 0.19700001 8.6739604e-39
0.05043453 0.066649996 0.19700001 8.7661561e-39
0.051227208 0.066649996 0.19700001 8.8583517e-39
0.052125569 0.066597156 0.19700001 8.9505473e-39
0.048373576 0.067759745 0.19700001 8.5810487e-39
0.049483325 0.067442678 0.19700001 8.5817662e-39
0.05043453 0.06744267 0.19700001 8.7661575e-39
0.051227205 0.067125604 0.19700001 8.8583517e-39
0.027922569 0.068393879 0.19700001 1.0054374e-38
0.028239638 0.068393879 0.19700001 9.9621783e-39
0.042507783 0.068710953 0.19700001 8.9487494e-39
0.043458994 0.068710953 0.19700001 8.7650771e-39
0.04670896 0.068631686 0.19700001 8.8572727e-39
0.047580898 0.068393886 0.19700001 8.6728828e-39
0.048373576 0.068393886 0.19700001 8.5810473e-39
0.049377631 0.0682882 0.19700001 8.673243e-39
0.040922433 0.069979228 0.19700001 9.1334966e-39
0.04161999 0.069725573 0.19700001 9.041301e-39
0.042507783 0.069662161 0.19700001 8.9491068e-39
0.043617528 0.069662161 0.19700001 8.7650771e-39
0.044304509 0.069767855 0.19700001 8.7650771e-39
0.045424826 0.06953533 0.19700001 8.7650771e-39
0.046629693 0.069345094 0.19700001 8.7650771e-39
0.047263831 0.069345094 0.19700001 8.7650771e-39
0.029190848 0.070613369 0.19700001 1.0054374e-38
0.039733425 0.070851177 0.19700001 9.2253321e-39
0.0407639 0.07077191 0.19700001 9.5944748e-39
0.041556574 0.070613369 0.19700001 9.041301e-39
0.042190712 0.070613369 0.19700001 8.9498242e-39
0.035532244 0.071564578 0.19700001 9.4100835e-39
0.036483455 0.071564578 0.19700001 9.5022792e-39
0.037540358 0.071458884 0.19700001 9.3175278e-39
0.038227342 0.071406044 0.19700001 9.2253321e-39
0.039427675 0.071383402 0.19700001 9.1331365e-39
0.034898106 0.072674327 0.19700001 9.3168089e-39
0.035373706 0.072515786 0.19700001 9.2249734e-39
0.036483455 0.072515801 0.19700001 9.4100835e-39
0.037434667 0.072515786 0.19700001 9.3178879e-39
0.038227342 0.072357252 0.19700001 9.2256923e-39
0.039020013 0.072198719 0.19700001 9.041301e-39
0.018093402 0.073784068 0.19700001 1.0606825e-38
0.033946894 0.073784068 0.19700001 9.2246133e-39
0.034739569 0.073625535 0.19700001 9.3168089e-39
0.035320867 0.073572688 0.19700001 9.3168089e-39
0.036483455 0.073467001 0.19700001 9.1334966e-39
0.016190981 0.074418209 0.19700001 1.0882693e-38
0.02221531 0.074418209 0.19700001 1.0054371e-38
0.031727407 0.074259669 0.19700001 9.593393e-39
0.032203011 0.074259669 0.19700001 9.4090017e-39
0.033788361 0.074259676 0.19700001 9.2246133e-39
0.034739569 0.074259669 0.19700001 9.2246133e-39
0.035215177 0.074101135 0.19700001 9.3168089e-39
0.015873913 0.075210884 0.19700001 1.0974888e-38
0.016190981 0.075210884 0.19700001 1.0882693e-38
0.02189824 0.075686485 0.19700001 1.0238762e-38
0.02221531 0.075210884 0.19700001 1.0054371e-38
0.030776197 0.075686485 0.19700001 9.8699799e-39
0.031410336 0.075369418 0.19700001 9.593393e-39
0.032361541 0.075369418 0.19700001 9.3168061e-39
0.033584531 0.075278826 0.19700001 9.2246105e-39
0.034581035 0.075052351 0.19700001 9.3168061e-39
0.028556708 0.076954767 0.19700001 9.5004771e-39
0.02957133 0.076827943 0.19700001 9.2246105e-39
0.030585956 0.076447457 0.19700001 9.3178865e-39
0.031093268 0.076003559 0.19700001 9.594472e-39
0.032520078 0.076003559 0.19700001 9.3168061e-39
0.033312757 0.076003559 0.19700001 9.2246105e-39
0.026971359 0.077905975 0.19700001 9.9614552e-39
0.027764034 0.077588908 0.19700001 9.8692596e-39
0.028556708 0.077588901 0.19700001 9.5008372e-39
0.029507918 0.077588908 0.19700001 9.1324148e-39
0.030459126 0.077271834 0.19700001 9.1324176e-39
0.015239772 0.078857183 0.19700001 1.0882693e-38
0.023642125 0.078857183 0.19700001 9.8696197e-39
0.024593333 0.07869865 0.19700001 9.7777842e-39
0.025174627 0.078751497 0.19700001 9.6855886e-39
0.026971359 0.07869865 0.19700001 9.7777842e-39
0.027764035 0.078540117 0.19700001 9.6855886e-39
0.028556708 0.078381583 0.19700001 9.4090017e-39
0.02942865 0.078302316 0.19700001 9.2246105e-39
0.014922703 0.079808399 0.19700001 1.0606106e-38
0.015451152 0.079702713 0.19700001 1.0698301e-38
0.016508052 0.079808399 0.19700001 1.0606106e-38
0.018093402 0.079808399 0.19700001 1.0237323e-38
0.022532379 0.079808399 0.19700001 1.0145846e-38
0.023547003 0.079681568 0.19700001 9.9614552e-39
0.024593333 0.079649866 0.19700001 9.7777842e-39
0.025227474 0.079649858 0.19700001 9.7777842e-39
0.026590874 0.07974498 0.19700001 9.593393e-39
0.027711188 0.079597019 0.19700001 9.7777842e-39
0.013812957 0.080442533 0.19700001 1.0882693e-38
0.014605632 0.080125466 0.19700001 1.0790497e-38
0.015873913 0.080125466 0.19700001 1.0698301e-38
0.016508052 0.080125466 0.19700001 1.0698301e-38
0.018727541 0.080125466 0.19700001 1.0145128e-38
0.019044612 0.080759607 0.19700001 1.0145128e-38
0.022426689 0.080548227 0.19700001 1.0237682e-38
0.023483589 0.08044254 0.19700001 9.8696197e-39
0.024593335 0.080125466 0.19700001 9.8699799e-39
0.025227474 0.080125466 0.19700001 9.7777842e-39
0.026337219 0.080125466 0.19700001 9.6855886e-39
0.013495889 0.081393749 0.19700001 1.0974888e-38
0.015239772 0.081393749 0.19700001 1.0698301e-38
0.01650805 0.081314482 0.19700001 1.0329879e-38
0.017459262 0.081393749 0.19700001 1.0145846e-38
0.019573061 0.081182368 0.19700001 1.0421715e-38
0.020550692 0.081314482 0.19700001 1.0698301e-38
0.021792552 0.081288062 0.19700001 1.051391e-38
0.022373844 0.081076674 0.19700001 1.0329519e-38
0.023166519 0.081076674 0.19700001 1.0053651e-38
0.044699371 0.011569984 0.19800001 1.5072191e-38
0.043998275 0.012547269 0.19800001 1.4426106e-38
0.044529408 0.012387929 0.19800001 1.4886003e-38
0.043998275 0.013450192 0.19800001 1.3965486e-38
0.044316955 0.013450192 0.19800001 1.4149157e-38
0.043998275 0.014565571 0.19800001 1.3873289e-38
0.044316959 0.014565569 0.19800001 1.3688898e-38
0.043998275 0.015840288 0.19800001 1.3596705e-38
0.044316955 0.015521608 0.19800001 1.3596704e-38
0.043998275 0.016318306 0.19800001 1.3412674e-38
0.044316955 0.016318306 0.19800001 1.3320478e-38
0.043998275 0.017274346 0.19800001 1.3044612e-38
0.044316955 0.017274346 0.19800001 1.304461e-38
0.032844499 0.053763133 0.19800001 1.0238045e-38
0.033163179 0.053763133 0.19800001 1.0238045e-38
0.032844499 0.054081809 0.19800001 1.0238045e-38
0.033163179 0.054081809 0.19800001 1.0238045e-38
0.031251099 0.055037849 0.19800001 1.042208e-38
0.015954491 0.061730113 0.19800001 1.1251475e-38
0.016591849 0.061730113 0.19800001 1.115928e-38
0.015699547 0.062558681 0.19800001 1.1251478e-38
0.016751189 0.062526815 0.19800001 1.1067087e-38
0.015795151 0.063004829 0.19800001 1.1251475e-38
0.016698075 0.063217282 0.19800001 1.1067084e-38
0.049415827 0.063960873 0.19800001 9.0416667e-39
0.050308127 0.063833401 0.19800001 8.9494697e-39
0.051646579 0.063960873 0.19800001 8.8572755e-39
0.048778467 0.064598225 0.19800001 8.8583545e-39
0.049256489 0.064438887 0.19800001 8.9498312e-39
0.050371867 0.064438887 0.19800001 8.8576356e-39
0.051646587 0.064438887 0.19800001 8.7658001e-39
0.052496392 0.064385772 0.19800001 8.6739632e-39
0.046866391 0.065872945 0.19800001 8.9494683e-39
0.047549274 0.065645315 0.19800003 8.7650771e-39
0.048619125 0.065554269 0.19800001 8.7657959e-39
0.049256489 0.065554269 0.19800001 8.857993e-39
0.050265636 0.065448038 0.19800001 8.7661589e-39
0.051487245 0.065235585 0.19800001 8.7661589e-39
0.044954315 0.066828981 0.19800001 9.2253363e-39
0.045804124 0.066616528 0.19800001 9.0413052e-39
0.046547711 0.066510305 0.19800001 8.9494683e-39
0.047503751 0.066510297 0.19800001 8.7650771e-39
0.048619129 0.066510305 0.19800001 8.6736003e-39
0.049256489 0.066510305 0.19800001 8.7657959e-39
0.041767519 0.067466341 0.19800001 9.2253363e-39
0.042404879 0.067466341 0.19800001 9.0413038e-39
0.043552123 0.067338869 0.19800001 8.9494683e-39
0.044635635 0.067307003 0.19800001 9.0416639e-39
0.045751013 0.067307003 0.19800001 8.9494683e-39
0.046547711 0.067307003 0.19800001 8.8572727e-39
0.047503751 0.067307003 0.19800001 8.6728814e-39
0.048619125 0.067307003 0.19800001 8.4895692e-39
0.049097147 0.067147665 0.19800001 8.5817648e-39
0.028701665 0.068741061 0.19800001 9.9621783e-39
0.040492803 0.068581715 0.19800001 9.3178879e-39
0.041448839 0.068422385 0.19800001 9.4097234e-39
0.042404879 0.068422377 0.19800001 8.9494669e-39
0.043467145 0.068422377 0.19800001 8.8572727e-39
0.044635635 0.068422377 0.19800001 8.8572727e-39
0.045751017 0.068422377 0.19800001 8.9494683e-39
0.046547711 0.068422377 0.19800001 8.8572727e-39
0.047424078 0.06818337 0.19800001 8.7650771e-39
0.027267609 0.069378421 0.19800001 1.0238765e-38
0.038899407 0.069697097 0.19800001 9.777787e-39
0.039642993 0.069484644 0.19800001 9.5015603e-39
0.040333465 0.069378421 0.19800001 9.4097234e-39
0.041385107 0.069314681 0.19800001 9.2256923e-39
0.043998275 0.069059737 0.19800001 8.8572727e-39
0.044635635 0.069378413 0.19800001 8.7650771e-39
0.045751013 0.069059737 0.19800001 8.8572727e-39
0.036562424 0.070971817 0.19800001 9.6855914e-39
0.037465349 0.070653141 0.19800001 9.4090045e-39
0.038580723 0.07044068 0.19800001 9.5012002e-39
0.039536767 0.070440687 0.19800001 9.317169e-39
0.040333465 0.070175119 0.19800001 9.4100835e-39
0.041130163 0.070015781 0.19800001 9.1334966e-39
0.018822605 0.071609177 0.19800001 1.0791216e-38
0.034756575 0.071927853 0.19800001 9.4090045e-39
0.035553269 0.071609169 0.19800001 9.5937545e-39
0.036562424 0.071449839 0.19800001 9.6855914e-39
0.037412237 0.071396716 0.19800001 9.5012002e-39
0.038580727 0.071290493 0.19800001 9.3168089e-39
0.016751189 0.072883889 0.19800001 1.069902e-38
0.032844499 0.072883889 0.19800001 9.3168089e-39
0.033588085 0.072777666 0.19800001 9.3168089e-39
0.034374159 0.072692677 0.19800001 9.4090045e-39
0.031782228 0.073627479 0.19800001 9.5933944e-39
0.032685161 0.073521256 0.19800001 9.3168089e-39
0.033481859 0.073521256 0.19800001 9.3168089e-39
0.034225445 0.073415034 0.19800001 9.3168089e-39
0.016591849 0.074795969 0.19800001 1.0882693e-38
0.021690719 0.074158609 0.19800001 1.0054371e-38
0.022583021 0.074541017 0.19800001 9.9621755e-39
0.028595438 0.074689738 0.19800001 1.0054371e-38
0.029551476 0.074636623 0.19800001 1.0330958e-38
0.030677477 0.074541025 0.19800001 1.0146567e-38
0.031442307 0.074349813 0.19800001 9.6855886e-39
0.03276483 0.074397616 0.19800001 9.3168089e-39
0.033322517 0.074397616 0.19800001 9.2246133e-39
0.022806097 0.075592667 0.19800001 9.9621755e-39
0.023602795 0.075592667 0.19800001 9.9621755e-39
0.028446723 0.07562454 0.19800001 9.6855886e-39
0.029551476 0.075592667 0.19800001 9.9621755e-39
0.030613743 0.075592667 0.19800001 1.0146567e-38
0.022646757 0.076389365 0.19800001 9.9621769e-39
0.023762137 0.076389365 0.19800001 9.8699799e-39
0.024399493 0.076389365 0.19800001 9.8699799e-39
0.025451135 0.076453105 0.19800001 1.0054011e-38
0.026470911 0.076708041 0.19800001 1.0145846e-38
0.027320722 0.076495588 0.19800001 9.7774241e-39
0.028382987 0.076389365 0.19800001 9.5930328e-39
0.029551478 0.076389365 0.19800001 9.5011974e-39
0.030295063 0.076070689 0.19800001 9.9621755e-39
0.021531381 0.077664085 0.19800001 9.9621755e-39
0.022646757 0.077345401 0.19800001 9.9621755e-39
0.023762135 0.077345401 0.19800001 9.8699799e-39
0.024399495 0.077345401 0.19800001 9.8699799e-39
0.025514871 0.077345401 0.19800001 1.0053651e-38
0.026470909 0.077345401 0.19800001 1.0145846e-38
0.027235741 0.077281669 0.19800001 9.9614552e-39
0.028303318 0.077106394 0.19800001 9.777064e-39
0.029020345 0.077026725 0.19800001 9.2246105e-39
0.015635811 0.078859128 0.19800001 1.0790497e-38
0.016751189 0.078938797 0.19800001 1.0882693e-38
0.020416003 0.078779459 0.19800001 1.0330238e-38
0.021372041 0.078620113 0.19800001 1.0145846e-38
0.022646757 0.078620113 0.19800001 9.9618154e-39
0.023762137 0.078620113 0.19800001 9.7777842e-39
0.024399495 0.078460775 0.19800001 9.7777842e-39
0.025554705 0.078580283 0.19800001 9.7777842e-39
0.026470913 0.078620113 0.19800001 9.9618154e-39
0.027108269 0.078620121 0.19800001 9.8699799e-39
0.014998452 0.079576164 0.19800001 1.0790497e-38
0.015795151 0.079576164 0.19800001 1.0698301e-38
0.016751189 0.079576164 0.19800001 1.0790497e-38
0.017229209 0.079576164 0.19800001 1.0790497e-38
0.019778643 0.079576164 0.19800001 1.0422433e-38
0.020416003 0.079576164 0.19800001 1.0422433e-38
0.021372041 0.079576164 0.19800001 1.0145846e-38
0.022646757 0.079576157 0.19800001 1.0053651e-38
0.025833551 0.079576164 0.19800001 9.7777842e-39
0.026470911 0.079576164 0.19800001 9.6855886e-39
0.014361094 0.080213517 0.19800001 1.0790497e-38
0.018663265 0.080213517 0.19800001 1.0145128e-38
0.019619303 0.080372855 0.19800001 1.0329519e-38
0.020416003 0.080372855 0.19800001 1.051391e-38
0.021372041 0.080372855 0.19800001 1.0422073e-38
0.022328079 0.080372855 0.19800001 1.0145846e-38
0.015635811 0.081806913 0.19800001 1.051391e-38
0.019619303 0.081169553 0.19800001 1.0329519e-38
0.020522229 0.081275783 0.19800001 1.0606106e-38
0.021308305 0.081297025 0.19800001 1.051391e-38
0.044651885 0.010822793 0.19950001 1.534986e-38
0.043688603 0.011786073 0.19950001 1.4518298e-38
0.044170648 0.011464979 0.19950001 1.5440618e-38
0.043393642 0.01241309 0.19925001 1.4149876e-38
0.045408398 0.012781308 0.2 1.4885643e-38
0.042833213 0.013264155 0.2 1.451794e-38
0.043384928 0.013380622 0.19933335 1.4241714e-38
0.044861067 0.013357978 0.19900002 1.4425384e-38
0.043404013 0.014474113 0.19966668 1.4149876e-38
0.044861067 0.01447899 0.19900002 1.3688898e-38
0.043618072 0.0152236 0.19966668 1.3965486e-38
0.043545615 0.016267246 0.19933335 1.350487e-38
0.043652374 0.017551083 0.19933335 1.3045331e-38
0.044603653 0.017931681 0.2 1.2860579e-38
0.044603653 0.01825358 0.2 1.2768744e-38
0.032854363 0.053340495 0.2 1.0513913e-38
0.032693416 0.054949988 0.2 1.0330241e-38
0.031729225 0.055315811 0.19900002 1.0238409e-38
0.047178842 0.059134666 0.2 9.4097276e-39
0.041734304 0.061471768 0.19975001 9.317532e-39
0.042547762 0.0614997 0.19966668 9.3182508e-39
0.041706566 0.062460944 0.2 9.4097262e-39
0.042672262 0.062460948 0.2 9.3178935e-39
0.043283872 0.06254679 0.2 9.3182536e-39
0.044281751 0.062997445 0.2 9.4097304e-39
0.048949279 0.062997445 0.2 9.1338624e-39
0.041706569 0.063480288 0.2 9.4097276e-39
0.042661618 0.063576959 0.1998 9.3175334e-39
0.043316059 0.063480288 0.2 9.4097304e-39
0.044442702 0.063480288 0.2 9.4097304e-39
0.045569345 0.063641243 0.2 9.4097304e-39
0.046213146 0.063480288 0.2 9.3175348e-39
0.047339793 0.063480295 0.2 9.0416667e-39
0.04862738 0.063480288 0.2 9.1338624e-39
0.04946829 0.063802429 0.19950001 9.133861e-39
0.050946556 0.063963614 0.19900002 8.8572727e-39
0.051373612 0.063750088 0.19900002 8.8572741e-39
0.041588906 0.064638689 0.19990002 9.1338596e-39
0.042466391 0.064558603 0.19914289 9.2256951e-39
0.043495111 0.064572386 0.19920002 9.3178921e-39
0.044481941 0.064573325 0.19960003 9.3178907e-39
0.045455426 0.064605162 0.19950001 9.3178907e-39
0.046400949 0.064604893 0.19936365 9.0416639e-39
0.047395512 0.064497806 0.19933334 8.8572741e-39
0.04835853 0.064497806 0.19933334 8.9494697e-39
0.049106941 0.064391047 0.19933335 9.0416667e-39
0.040901821 0.065572634 0.2 9.2253363e-39
0.041455418 0.065647766 0.19937502 9.2253363e-39
0.042458903 0.0657252 0.19900002 9.1331407e-39
0.04357991 0.0657252 0.19900002 9.1331407e-39
0.044540778 0.0657252 0.19900002 9.4097276e-39
0.045341499 0.0657252 0.19900002 9.2256965e-39
0.04646251 0.0657252 0.19900002 9.0416639e-39
0.047423378 0.065565057 0.19900002 8.8572727e-39
0.039775178 0.066538326 0.2 9.4097276e-39
0.040531587 0.066478215 0.19950001 9.317532e-39
0.041444656 0.066525929 0.19900002 9.2253363e-39
0.042458899 0.066525921 0.19900002 9.0413038e-39
0.04357991 0.066525914 0.19900002 8.9494683e-39
0.044540778 0.066525921 0.19900002 9.2260552e-39
0.045341499 0.066525921 0.19900002 9.2256951e-39
0.046302371 0.066205636 0.19900002 9.0416639e-39
0.035429548 0.067825921 0.2 9.961458e-39
0.036395244 0.067664966 0.2 1.0053652e-38
0.037287805 0.067547314 0.19985715 1.0145848e-38
0.038482975 0.067547314 0.19985719 9.9618168e-39
0.039589122 0.067492172 0.19933337 9.6855928e-39
0.040537167 0.067486785 0.19900002 9.5933972e-39
0.041377924 0.067446753 0.19900002 9.4093661e-39
0.042458899 0.067326643 0.19900002 8.9494683e-39
0.043499842 0.067246571 0.19900002 8.9494683e-39
0.044540778 0.0671665 0.19900002 9.0416639e-39
0.032854363 0.068791613 0.2 9.8699827e-39
0.03360546 0.068577014 0.2 9.777787e-39
0.034302905 0.068469718 0.2 9.7774269e-39
0.035429548 0.068469718 0.2 9.8692624e-39
0.03650444 0.068578795 0.19950001 9.6852313e-39
0.037503045 0.068454467 0.19933335 1.0054014e-38
0.038455289 0.0686078 0.19900002 1.0054014e-38
0.039416157 0.0686078 0.19900002 9.7774269e-39
0.040483788 0.068554424 0.19900002 9.5015603e-39
0.027565468 0.069088235 0.19900002 1.0054374e-38
0.02931348 0.06943541 0.2 9.9621783e-39
0.032747064 0.069328107 0.2 9.777787e-39
0.033498161 0.069274463 0.2 9.8699827e-39
0.034428746 0.069301277 0.1998 9.8699827e-39
0.035483025 0.069264583 0.19962502 9.6855914e-39
0.036533561 0.069248378 0.19900002 9.5012002e-39
0.037654571 0.069248378 0.19900002 9.8699827e-39
0.038455289 0.069248378 0.19900002 9.9621783e-39
0.0393521 0.069216348 0.19900002 9.6855914e-39
0.040377025 0.069088235 0.19900002 9.4100835e-39
0.014828053 0.07040111 0.2 1.1251475e-38
0.015310901 0.070240155 0.2 1.1251475e-38
0.016437545 0.07040111 0.20000002 1.0790497e-38
0.017510541 0.070615709 0.2 1.0698301e-38
0.026738293 0.070723005 0.2 9.9621783e-39
0.027060192 0.070079207 0.2 1.0238765e-38
0.029524246 0.070296839 0.19925001 9.9621783e-39
0.031566769 0.070562057 0.2 9.777787e-39
0.032532468 0.070401102 0.20000002 9.777787e-39
0.033565741 0.070442334 0.19985715 9.777787e-39
0.034537353 0.070385084 0.19950001 9.8699827e-39
0.035572689 0.070369385 0.19900002 9.777787e-39
0.036533557 0.070369393 0.19900002 9.5933958e-39
0.037654568 0.070209242 0.19900002 9.4090045e-39
0.038455289 0.0700491 0.19900002 9.777787e-39
0.016501924 0.071302414 0.2 1.0882693e-38
0.017403241 0.071366802 0.2 1.0790497e-38
0.019237958 0.071970835 0.19900002 1.0791216e-38
0.0265937 0.071537048 0.19940001 9.8699827e-39
0.029957278 0.071688697 0.2 1.0054374e-38
0.030601073 0.071366802 0.2 9.9621783e-39
0.031405821 0.071366794 0.2 9.6855914e-39
0.03250923 0.071453087 0.19985715 9.5933958e-39
0.033572111 0.071576297 0.1991667 9.5933958e-39
0.034771968 0.071650542 0.19900002 9.6855914e-39
0.035465926 0.071437024 0.19900002 9.6855914e-39
0.018917669 0.072291121 0.19900002 1.0791216e-38
0.019286294 0.072150856 0.19950001 1.0791216e-38
0.025558 0.072439797 0.2 9.777787e-39
0.02649687 0.072412975 0.2 9.8699827e-39
0.02754998 0.072533302 0.19966668 1.0054374e-38
0.028437864 0.072472759 0.19950001 1.0330961e-38
0.029742679 0.072439797 0.2 1.0238045e-38
0.030665452 0.072396874 0.2 1.0054014e-38
0.031452022 0.072418101 0.19985715 9.777787e-39
0.032330822 0.07235124 0.19950002 9.5012002e-39
0.033384047 0.072504647 0.19900002 9.5012002e-39
0.034611825 0.072291121 0.19900002 9.5933958e-39
0.015149952 0.073620088 0.2 1.0974888e-38
0.017403241 0.073620088 0.2 1.069902e-38
0.022714563 0.073941991 0.2 9.8699799e-39
0.023680259 0.073941991 0.2 9.9621755e-39
0.024549384 0.073684469 0.2 1.0054371e-38
0.025450701 0.073620096 0.20000002 9.7777856e-39
0.026577344 0.073620096 0.2 9.6855914e-39
0.027382091 0.073620096 0.2 1.0054374e-38
0.028371355 0.073497027 0.19966668 1.0238765e-38
0.029459195 0.073363304 0.19942859 1.0514632e-38
0.030486319 0.073383652 0.19925001 1.0145849e-38
0.031376123 0.073389344 0.1992 9.8696225e-39
0.032209657 0.073251985 0.19900002 9.5012002e-39
0.021909818 0.074585788 0.2 1.0054371e-38
0.022605494 0.07457263 0.19975001 9.9621755e-39
0.023486249 0.07471323 0.19937502 9.9621755e-39
0.024476906 0.074719884 0.19950001 9.9621755e-39
0.025508212 0.074657448 0.19933335 9.8699799e-39
0.026488751 0.074657463 0.19933335 9.4090031e-39
0.027560303 0.074616015 0.19922224 9.7777856e-39
0.028462276 0.074469082 0.19900002 1.014657e-38
0.029327057 0.074372999 0.19900002 1.0423156e-38
0.03038401 0.074340969 0.19900002 1.0514629e-38
0.031088647 0.074212857 0.19900002 1.0053651e-38
0.014828053 0.07555148 0.2 1.0974888e-38
0.017564189 0.07555148 0.2 1.0698662e-38
0.018154336 0.075444184 0.2 1.0514989e-38
0.019767532 0.075682893 0.19950001 1.0238762e-38
0.023561858 0.075173721 0.19900002 9.9621755e-39
0.024522722 0.075494006 0.19900002 9.9621755e-39
0.025536969 0.075494014 0.19900002 9.9621755e-39
0.026444457 0.075494006 0.19900002 9.6855886e-39
0.02756547 0.075494014 0.19900002 9.593393e-39
0.014828053 0.076517172 0.2 1.0882693e-38
0.015231465 0.076389112 0.19966668 1.0974888e-38
0.016566306 0.076645933 0.2 1.0882693e-38
0.017403241 0.076356225 0.2 1.0698662e-38
0.019878535 0.076294735 0.19900002 1.0422433e-38
0.024522724 0.076134585 0.19900002 9.9621755e-39
0.025643734 0.076214656 0.19900002 1.0054011e-38
0.026444457 0.076294735 0.19900002 9.9618154e-39
0.02735194 0.076241352 0.19900002 9.593393e-39
0.015310901 0.077482872 0.2 1.0882693e-38
0.02180027 0.077415742 0.19900002 1.0145846e-38
0.016759444 0.078448564 0.2 1.0882693e-38
0.017695062 0.078531347 0.19966668 1.0698301e-38
0.018337784 0.078531347 0.19966668 1.0698301e-38
0.019195108 0.078531347 0.19966668 1.0606106e-38
0.021266021 0.078126669 0.2 1.0238042e-38
0.013862358 0.079736158 0.2 1.0882693e-38
0.014590752 0.079496622 0.19940001 1.0882693e-38
0.015433171 0.079054773 0.19950001 1.0882693e-38
0.01641042 0.079120949 0.19966668 1.0882693e-38
0.017671643 0.079399891 0.19940002 1.0698301e-38
0.018757522 0.079444237 0.19900002 1.0421715e-38
0.019413946 0.079296626 0.19916667 1.0514269e-38
0.012660568 0.080673575 0.19966668 1.0974888e-38
0.013482304 0.080637984 0.19966668 1.0882693e-38
0.01427348 0.080458485 0.19900002 1.0790497e-38
0.017796658 0.080298342 0.19900002 1.0606106e-38
0.018757524 0.080298342 0.19900002 1.0145128e-38
0.019237958 0.080298342 0.19900002 1.0329519e-38
0.011930968 0.081667542 0.2 1.0974888e-38
0.012484913 0.081310429 0.19960001 1.0974888e-38
0.013185514 0.08130163 0.19950001 1.0882693e-38
0.011930968 0.082311347 0.2 1.0974888e-38
0.012574764 0.082633249 0.2 1.0974888e-38
0.05353827 0.0075766584 0.20099999 1.4614807e-38
0.053561382 0.0086396122 0.20100001 1.4522975e-38
0.0440179 0.010904168 0.20100001 1.5164028e-38
0.043694392 0.011551183 0.20100001 1.4242072e-38
0.043047376 0.013815737 0.20100001 1.4425744e-38
0.043209128 0.014624507 0.20100001 1.4149876e-38
0.045311932 0.015109769 0.20100001 1.3596702e-38
0.043370884 0.0164038 0.20100002 1.3321199e-38
0.043370884 0.017374324 0.20100001 1.3229362e-38
0.043694392 0.01802134 0.20100001 1.3046049e-38
0.04455708 0.018776191 0.20100002 1.2769104e-38
0.052590858 0.059430338 0.20100001 9.5019232e-39
0.046767715 0.060400862 0.20099999 9.2256965e-39
0.047738239 0.060400862 0.20099999 9.3178907e-39
0.048352905 0.060465563 0.20100001 9.4097276e-39
0.049436659 0.060643494 0.20100001 9.2256951e-39
0.052429106 0.060400862 0.20099999 9.2260552e-39
0.053399626 0.060400862 0.20100002 9.4104465e-39
0.027357247 0.061371386 0.20100001 1.042208e-38
0.04142984 0.061371386 0.20100001 9.5019232e-39
0.042238608 0.061047878 0.20100001 9.4097276e-39
0.043047376 0.061694894 0.20100001 9.3182508e-39
0.046929471 0.061371386 0.20100001 9.0416639e-39
0.047738239 0.061371386 0.20100001 9.1338596e-39
0.048385259 0.061371386 0.20100001 9.3182508e-39
0.049355779 0.061371386 0.20100001 9.1338596e-39
0.052493803 0.061306685 0.20100001 9.0416653e-39
0.053399626 0.061047878 0.20100001 9.3182508e-39
0.041106332 0.06244975 0.20100002 9.5019218e-39
0.043586556 0.062126238 0.20100002 9.3182536e-39
0.044572484 0.062572993 0.20099999 9.3182536e-39
0.047738239 0.062018402 0.20100001 9.1338596e-39
0.048385255 0.062018402 0.20100001 9.2260552e-39
0.0494771 0.062503658 0.20099999 9.1338596e-39
0.040782824 0.06395945 0.20100001 9.4097276e-39
0.041106332 0.063635945 0.20100002 9.5015617e-39
0.044988424 0.063312434 0.20100001 9.501926e-39
0.045473687 0.063474186 0.20100001 9.4097304e-39
0.046282455 0.063312434 0.20100001 9.501926e-39
0.049517535 0.063474186 0.20100001 9.3182536e-39
0.040621072 0.064768218 0.20100001 9.2260552e-39
0.039380956 0.065469153 0.20100002 9.4090087e-39
0.040394612 0.065382883 0.20100001 9.4097276e-39
0.033406842 0.066741616 0.20100001 1.0053654e-38
0.034636173 0.066709265 0.20099999 1.0422436e-38
0.035606697 0.066709265 0.20100001 1.0606826e-38
0.036415465 0.066709265 0.20100001 1.0422433e-38
0.037547745 0.066709265 0.20099999 1.0145846e-38
0.038518269 0.066547513 0.20099999 9.9618182e-39
0.03929469 0.066482812 0.20100001 9.5022792e-39
0.040243644 0.066331841 0.20100002 9.2253363e-39
0.032695126 0.067679793 0.20100001 9.6855914e-39
0.033342138 0.067679785 0.20099999 9.777787e-39
0.034636173 0.067679785 0.20099999 9.8692624e-39
0.035606697 0.067679793 0.20100001 1.0145846e-38
0.036415465 0.067518033 0.20100001 1.0145846e-38
0.030754078 0.068326801 0.20100001 9.777787e-39
0.03156285 0.068326801 0.20100001 9.6855914e-39
0.032371618 0.068326809 0.20100001 9.6855914e-39
0.033277441 0.068294451 0.20100001 9.777787e-39
0.034474418 0.068165049 0.20100001 9.6852313e-39
0.015595423 0.069505297 0.20099999 1.1343671e-38
0.016681485 0.069620833 0.20100001 1.0606106e-38
0.017166747 0.069782592 0.20100001 1.0514629e-38
0.029783556 0.069782592 0.20100001 9.9621783e-39
0.030754078 0.069459081 0.20100001 9.8699827e-39
0.03156285 0.069459081 0.20099999 9.8699827e-39
0.032306917 0.06939438 0.20100001 9.777787e-39
0.014578684 0.070429608 0.20100001 1.1343671e-38
0.017328501 0.070429608 0.20100001 1.0606825e-38
0.018137271 0.070753112 0.20100001 1.0790497e-38
0.023960412 0.070753112 0.20100001 1.0238765e-38
0.026656313 0.07064528 0.20100002 9.9621783e-39
0.030646242 0.07064528 0.20100002 9.8699827e-39
0.031508934 0.07053744 0.20100002 9.777787e-39
0.018137271 0.071076624 0.20100001 1.0790497e-38
0.02298989 0.071400128 0.20100001 1.0238765e-38
0.023636904 0.071238376 0.20100001 1.0238765e-38
0.024445672 0.071238376 0.20100001 1.0054374e-38
0.025901459 0.071238376 0.20100001 1.0054374e-38
0.026224967 0.071238376 0.20100001 9.8699827e-39
0.030538408 0.071184456 0.20100002 9.8699827e-39
0.031401094 0.071076624 0.20100001 9.777787e-39
0.01975481 0.07269416 0.20100001 1.069902e-38
0.02298989 0.072370656 0.20100002 1.0054014e-38
0.023636905 0.072370648 0.20099999 1.0330241e-38
0.024607427 0.072370663 0.20099999 1.0054374e-38
0.025685787 0.072154976 0.20100002 9.9621783e-39
0.029783556 0.072370656 0.20100001 1.0238045e-38
0.030592326 0.072208896 0.20100001 1.0054014e-38
0.0152257 0.07366468 0.20100001 1.0974888e-38
0.018622532 0.07366468 0.20100001 1.0790497e-38
0.019673932 0.07366468 0.20100001 1.069866e-38
0.020078318 0.073988192 0.20100001 1.0606825e-38
0.022712598 0.073710904 0.20099999 9.8699813e-39
0.023636902 0.073664688 0.20099999 9.9621783e-39
0.024391755 0.073449008 0.20100002 1.0054374e-38
0.016843239 0.074311696 0.20100001 1.0791216e-38
0.017328501 0.074958712 0.20100001 1.069902e-38
0.018379901 0.074473448 0.20100001 1.0606825e-38
0.019431302 0.074311696 0.20100001 1.069902e-38
0.021534104 0.074635208 0.20100001 1.0238402e-38
0.022019366 0.074311696 0.20100001 1.0054371e-38
0.016843239 0.075282224 0.20100001 1.0790497e-38
0.017328501 0.075443976 0.20100001 1.0698662e-38
0.018784286 0.075929239 0.20100001 1.0330958e-38
0.019431302 0.075929239 0.20100001 1.0330958e-38
0.018460779 0.076738007 0.20099999 1.0422794e-38
0.019431302 0.076738007 0.20100001 1.0330598e-38
0.014363012 0.077654608 0.20100002 1.0790497e-38
0.015872715 0.077870287 0.20100001 1.115928e-38
0.016681485 0.077870287 0.20100001 1.0882693e-38
0.017328501 0.077546775 0.20100001 1.0698662e-38
0.018460779 0.077546775 0.20099999 1.0606466e-38
0.019431302 0.077546775 0.20100001 1.0330238e-38
0.02137235 0.077870287 0.20100001 1.0238042e-38
0.014578684 0.078193791 0.20100001 1.0790497e-38
0.015595423 0.078424871 0.20099999 1.0974888e-38
0.016649134 0.078452602 0.20100001 1.0882693e-38
0.017328501 0.078355543 0.20100001 1.0790497e-38
0.018460779 0.078355551 0.20099999 1.0698301e-38
0.019431302 0.078355551 0.20100001 1.0514269e-38
0.02137235 0.078193791 0.20100001 1.0238042e-38
0.012961145 0.079811335 0.20100001 1.0974888e-38
0.013769914 0.079811335 0.20100001 1.0790497e-38
0.011505361 0.080781855 0.20100001 1.0974888e-38
0.012556762 0.080296591 0.20100001 1.0974888e-38
0.01360816 0.080134839 0.20100001 1.0882693e-38
0.011397525 0.081428878 0.20099999 1.0882693e-38
0.012314131 0.081105366 0.20100001 1.0974888e-38
0.011235771 0.08250723 0.20100002 1.0882693e-38
0.012314131 0.083046414 0.20100001 1.0974888e-38
0.053665299 0.0064067743 0.20200001 1.516582e-38
0.053015064 0.0086825956 0.20200001 1.5718641e-38
0.042936426 0.014859824 0.20200001 1.3690337e-38
0.042936426 0.01551006 0.20200001 1.341411e-38
0.043261543 0.01551006 0.20200001 1.3689259e-38
0.045537364 0.015835177 0.20200001 1.3504509e-38
0.042936426 0.016485412 0.20200001 1.3321555e-38
0.045537364 0.016485412 0.20200001 1.3320478e-38
0.043261543 0.017785881 0.20200001 1.3138245e-38
0.045537364 0.017623322 0.20200001 1.286022e-38
0.045537364 0.018273557 0.20200001 1.2676548e-38
0.045537364 0.01908635 0.20200001 1.2492876e-38
0.033508025 0.05549949 0.20200001 1.0145849e-38
0.049113657 0.058425546 0.20200001 9.5941189e-39
0.048707262 0.059482176 0.20200001 9.5941189e-39
0.049438775 0.059400897 0.20200001 9.5019232e-39
0.050197382 0.059509274 0.20200001 9.2253363e-39
0.045862481 0.060376249 0.20200001 9.2253363e-39
0.046187598 0.060701367 0.20200001 9.2253363e-39
0.04878854 0.060376249 0.20200001 9.5019232e-39
0.049547147 0.060484622 0.20200001 9.317532e-39
0.042611305 0.061134856 0.20200001 9.4097276e-39
0.04358666 0.061351601 0.20200001 9.2260552e-39
0.044236895 0.061351601 0.20200001 9.3182508e-39
0.046187598 0.061026484 0.20200001 9.1338596e-39
0.050089009 0.061351601 0.20200001 9.0416639e-39
0.040985722 0.062489513 0.20200001 9.6859515e-39
0.043911777 0.062001836 0.20200001 9.4104465e-39
0.044345271 0.062110212 0.20200001 9.3182508e-39
0.045374807 0.062326953 0.20200001 9.3182536e-39
0.050089009 0.062164396 0.20200001 9.0416639e-39
0.038384784 0.063952543 0.20200001 9.9621783e-39
0.039522693 0.063952543 0.20200001 9.6855914e-39
0.040498044 0.063668057 0.20200001 9.5933958e-39
0.045699924 0.063302308 0.20200001 9.4097304e-39
0.032857787 0.064927891 0.20200001 1.0238045e-38
0.03372477 0.064711146 0.20200001 1.0606826e-38
0.034375004 0.064711146 0.20200001 1.0790857e-38
0.035296172 0.064927891 0.20200001 1.0974888e-38
0.037246875 0.064602777 0.20200001 1.0698663e-38
0.038384784 0.06460277 0.20200001 1.0054014e-38
0.039522693 0.064602777 0.20200001 9.5933972e-39
0.040118743 0.064494401 0.20200001 9.4100849e-39
0.032857787 0.065415569 0.20200001 1.0145849e-38
0.033670582 0.065415569 0.20200001 1.0422433e-38
0.034483377 0.065415569 0.20200001 1.0791216e-38
0.035458729 0.065415569 0.20200001 1.0883051e-38
0.036596641 0.065415569 0.20200001 1.0698301e-38
0.037246875 0.065415569 0.20200001 1.0698303e-38
0.038384784 0.065415569 0.20200001 1.0146208e-38
0.039468508 0.065361381 0.20200001 9.5012044e-39
0.04001037 0.065253012 0.20200001 9.2253363e-39
0.032641042 0.066661842 0.20200001 9.961458e-39
0.033670582 0.066390917 0.20200001 1.0053654e-38
0.034483377 0.066390917 0.20200001 1.0606826e-38
0.035458729 0.066390917 0.20200001 1.0791216e-38
0.036596641 0.066390917 0.20200001 1.0514629e-38
0.037246875 0.066390917 0.20200001 1.0238042e-38
0.038303506 0.066309638 0.20200001 1.0238045e-38
0.030907085 0.067528829 0.20200001 9.6852341e-39
0.031557318 0.067528836 0.20200001 9.5012016e-39
0.032315925 0.06742046 0.20200001 9.5930385e-39
0.029606616 0.068829298 0.20200001 9.8699827e-39
0.03069034 0.068504184 0.20200001 9.777787e-39
0.031557318 0.068179063 0.20200001 9.6855914e-39
0.032207552 0.068179063 0.20200001 9.5933958e-39
0.014976333 0.069804654 0.20200001 1.1435866e-38
0.015626566 0.069479533 0.20200001 1.1528062e-38
0.016439361 0.069479533 0.20200001 1.0698301e-38
0.017252155 0.069804654 0.20200001 1.0606109e-38
0.02635544 0.069804654 0.20200001 9.9621783e-39
0.027655911 0.069674611 0.20199999 1.0054374e-38
0.028631262 0.069642097 0.20200001 9.9621783e-39
0.029606611 0.069642097 0.20200001 9.9621783e-39
0.03069034 0.069696277 0.20200001 9.8699827e-39
0.017739831 0.070454881 0.20200001 1.0606825e-38
0.023591943 0.070780002 0.20200001 1.0514632e-38
0.024567295 0.070780002 0.20200001 1.0514632e-38
0.025217529 0.070454881 0.20200001 1.014657e-38
0.026290417 0.070389859 0.20199999 9.8699827e-39
0.027005676 0.070129767 0.20200001 1.0054374e-38
0.030581968 0.070129767 0.20200001 9.8699827e-39
0.018715182 0.071105123 0.20200001 1.0882693e-38
0.019365417 0.071755357 0.20200001 1.0974888e-38
0.022454033 0.071592793 0.20200001 1.0422436e-38
0.02321264 0.071213491 0.20200001 1.0238765e-38
0.024567295 0.071105123 0.20200001 1.0238765e-38
0.025217531 0.071430236 0.20200001 1.0054374e-38
0.026030323 0.071105123 0.20200001 9.9621783e-39
0.019365417 0.072405592 0.20200001 1.0791216e-38
0.02017821 0.072730705 0.20200001 1.069902e-38
0.02234566 0.072622336 0.20200001 1.0145849e-38
0.014976333 0.073706061 0.20200001 1.0974888e-38
0.020503327 0.073380947 0.20200001 1.0606825e-38
0.021641238 0.073380947 0.20200001 1.0145848e-38
0.022237286 0.073272578 0.20200001 9.9618182e-39
0.017577272 0.07457304 0.20200001 1.069902e-38
0.018715182 0.074356295 0.20200001 1.069902e-38
0.019202858 0.074356295 0.20200001 1.069902e-38
0.020596217 0.074309841 0.20200001 1.0606825e-38
0.021608725 0.074291267 0.20199999 1.0330238e-38
0.022128914 0.074031174 0.20200001 1.0145849e-38
0.01660192 0.075331643 0.20200001 1.0882693e-38
0.020665886 0.075331643 0.20200001 1.0606825e-38
0.014326098 0.077282347 0.20200001 1.0882693e-38
0.013675863 0.078420259 0.20200001 1.0974888e-38
0.014488657 0.07874538 0.20200001 1.0882693e-38
0.010343412 0.081590153 0.20200001 1.0974888e-38
0.011074926 0.081508875 0.20200001 1.0882693e-38
0.01042469 0.082159109 0.20200001 1.1158201e-38
0.046089526 0.014770024 0.20300001 1.387257e-38
0.04249553 0.015913568 0.20300001 1.3414829e-38
0.046089526 0.015586842 0.20300001 1.3688538e-38
0.04249553 0.016240295 0.20300001 1.3414829e-38
0.046089526 0.016240295 0.20300001 1.3504509e-38
0.043148983 0.017710567 0.20300001 1.3229722e-38
0.043475714 0.018418474 0.20300001 1.3047128e-38
0.04445589 0.019180836 0.20300001 1.2770542e-38
0.045272708 0.019507563 0.20300001 1.2677267e-38
0.045272708 0.059694957 0.20300001 9.2253363e-39
0.044673707 0.060457319 0.20300001 9.4097276e-39
0.045272708 0.06034841 0.20300001 9.2253363e-39
0.037921354 0.06132859 0.20300001 9.8699827e-39
0.038792625 0.061437499 0.20300001 9.777787e-39
0.039718352 0.061410271 0.20300001 9.6863117e-39
0.040453486 0.061573632 0.20300001 9.6863145e-39
0.041624259 0.061437499 0.20300001 9.5019232e-39
0.043475714 0.061165228 0.20300002 9.2256951e-39
0.044619255 0.06132859 0.20300001 9.3182508e-39
0.045272708 0.06132859 0.20300002 9.1338596e-39
0.046307344 0.06132859 0.20300001 9.2260552e-39
0.027139368 0.062635496 0.20300001 1.0514276e-38
0.033238266 0.062853314 0.20300001 9.6855914e-39
0.034490723 0.062798858 0.20300004 1.014657e-38
0.035634264 0.062798858 0.20300001 1.0791219e-38
0.039620332 0.062635496 0.20300002 9.6855928e-39
0.040441815 0.062588818 0.20300004 9.6855928e-39
0.050663698 0.062635496 0.20300001 9.0416667e-39
0.051970609 0.06230877 0.20300001 8.9494711e-39
0.032693725 0.063942403 0.20300001 9.8699827e-39
0.033183813 0.063779041 0.20300001 9.777787e-39
0.034490723 0.063779041 0.20300004 1.0422796e-38
0.037921354 0.063942403 0.20300001 1.0514632e-38
0.038792625 0.063833497 0.20300001 9.8699827e-39
0.039554987 0.063779041 0.20300001 9.777787e-39
0.04020844 0.06361568 0.20300001 9.6855914e-39
0.050663702 0.06361568 0.20300001 9.0416667e-39
0.032693725 0.064432494 0.20300001 1.0054014e-38
0.033183813 0.064432494 0.20300001 1.0145849e-38
0.034599632 0.064378038 0.20300002 1.0698664e-38
0.035743173 0.064486951 0.20300001 1.0882695e-38
0.036614448 0.064595856 0.20300001 1.0882695e-38
0.037594628 0.064269133 0.20300001 1.0699023e-38
0.032432344 0.065641388 0.20300002 1.0053654e-38
0.035960991 0.065249309 0.20300001 1.0974888e-38
0.036614448 0.065249309 0.20300001 1.0882693e-38
0.030406637 0.066882946 0.20300001 9.6855914e-39
0.03145216 0.066752255 0.20300002 9.4086444e-39
0.03225809 0.066665135 0.20300001 9.8696225e-39
0.028773002 0.067536399 0.20300001 9.9621783e-39
0.029535362 0.067427494 0.20300001 9.9621783e-39
0.030243274 0.067373037 0.20300001 9.7777884e-39
0.031386819 0.067209676 0.20300001 9.316453e-39
0.022891918 0.068843305 0.20300001 1.0606827e-38
0.023708735 0.068679944 0.20300001 1.0606827e-38
0.024362188 0.068679944 0.20300001 1.0606827e-38
0.025505731 0.068557426 0.20300004 1.0238045e-38
0.026649278 0.068679944 0.20300001 1.0145849e-38
0.027302731 0.068679944 0.20300001 1.0145849e-38
0.028446278 0.068516582 0.20300004 1.0145849e-38
0.029426455 0.068516582 0.20300002 9.9618182e-39
0.030210603 0.068451241 0.20300002 9.8699827e-39
0.014723746 0.069823489 0.20300001 1.180357e-38
0.017500924 0.069660127 0.20300001 1.0606107e-38
0.018481106 0.069496758 0.20300001 1.0606469e-38
0.019461285 0.069823489 0.20300001 1.0514632e-38
0.022646872 0.069741808 0.20300001 1.0514632e-38
0.023708735 0.069660127 0.20300001 1.0514632e-38
0.024362188 0.069660127 0.20300001 1.0514992e-38
0.025505731 0.069660127 0.20300002 1.014657e-38
0.026649278 0.069660127 0.20300001 9.9621783e-39
0.027248276 0.069605671 0.20300001 1.014657e-38
0.028446278 0.069496758 0.20300001 9.9621783e-39
0.017882105 0.070259124 0.20300001 1.0698663e-38
0.018481106 0.070313573 0.20300001 1.0606827e-38
0.019461285 0.07031358 0.20300001 1.0606827e-38
0.021476099 0.070368029 0.20300001 1.0422436e-38
0.022565192 0.070313573 0.20300002 1.0514632e-38
0.023708735 0.07031358 0.20300001 1.0514632e-38
0.024362188 0.07031358 0.20300001 1.0606827e-38
0.025342368 0.070150211 0.20300001 1.0238765e-38
0.018481106 0.071130395 0.20300001 1.069902e-38
0.019583808 0.071497962 0.20300004 1.0790498e-38
0.020800868 0.071522459 0.20300002 1.0422435e-38
0.021421647 0.071457118 0.20300002 1.0422433e-38
0.022456281 0.071348213 0.20300002 1.0422436e-38
0.019951375 0.072437301 0.20300001 1.0790497e-38
0.020768194 0.072437301 0.20300001 1.0422433e-38
0.021421647 0.072437301 0.20300001 1.0330238e-38
0.022238463 0.072437301 0.20300001 1.0145849e-38
0.020768194 0.073090754 0.20300001 1.0514629e-38
0.021421647 0.073090754 0.20300001 1.0330238e-38
0.014723746 0.07456103 0.20300001 1.1066365e-38
0.013743565 0.077991657 0.20300001 1.0974888e-38
0.014070292 0.077174842 0.20300001 1.0882693e-38
0.054524977 0.0064702076 0.20400001 1.4981429e-38
0.054524977 0.0071268808 0.20400001 1.479812e-38
0.042704869 0.017633641 0.20400001 1.3323715e-38
0.043361541 0.018946987 0.20400001 1.323152e-38
0.045988232 0.018946987 0.20400001 1.2585071e-38
0.04500322 0.01960366 0.20400001 1.2861658e-38
0.045167387 0.028797075 0.20400001 1.2319267e-38
0.04500322 0.029453747 0.20400001 1.186153e-38
0.042704869 0.058675677 0.20400001 9.6852355e-39
0.043252096 0.058566231 0.20400001 9.6852341e-39
0.042442195 0.05972635 0.20400003 9.4097276e-39
0.043361541 0.059660684 0.20400001 9.4097276e-39
0.044182383 0.05998902 0.20400001 9.2253363e-39
0.039585672 0.060974032 0.20400001 9.5941189e-39
0.040406514 0.060974032 0.20400001 9.6863145e-39
0.041227356 0.0606457 0.20400001 9.6863145e-39
0.04221236 0.06031736 0.20400001 9.5941189e-39
0.04347099 0.060755145 0.20400001 9.317532e-39
0.044127658 0.06053625 0.20400001 9.2253363e-39
0.037779823 0.061466537 0.20400001 9.777787e-39
0.038327049 0.061521258 0.20400001 9.777787e-39
0.039312053 0.061411813 0.20400001 9.5941161e-39
0.04073485 0.061466537 0.20400001 9.6863145e-39
0.041172635 0.061411813 0.20400001 9.5941189e-39
0.045495726 0.061630704 0.20400001 9.3178921e-39
0.046644904 0.061959039 0.20400001 9.3182508e-39
0.027601395 0.062944047 0.20400001 1.0237689e-38
0.028586404 0.062944047 0.20400001 1.0237689e-38
0.032362275 0.062944047 0.20400001 9.8692624e-39
0.033183113 0.062944047 0.20400001 9.7770668e-39
0.039257333 0.062779881 0.20400001 9.6855928e-39
0.045988232 0.062615715 0.20400001 9.3182508e-39
0.027929733 0.063929059 0.20400001 1.042208e-38
0.02869585 0.063710161 0.20400001 9.8696267e-39
0.029407246 0.063929059 0.20400001 9.8696267e-39
0.030556424 0.063929059 0.20400001 9.7774311e-39
0.031760324 0.063710168 0.20400001 9.6855914e-39
0.032362275 0.063600719 0.20400001 9.6855914e-39
0.038436495 0.063929059 0.20400001 9.9621783e-39
0.039093167 0.063272387 0.20400001 9.777787e-39
0.025959713 0.064749897 0.20400001 1.0329883e-38
0.026288049 0.064914063 0.20400001 1.0238045e-38
0.027929733 0.064257391 0.20400001 1.042208e-38
0.02875057 0.064585723 0.20400001 9.9618224e-39
0.029407248 0.064585723 0.20400001 9.6852355e-39
0.03055642 0.06458573 0.20400001 9.7774311e-39
0.031705599 0.064585723 0.20400001 9.6855914e-39
0.032198105 0.06458573 0.20400001 9.777787e-39
0.035481468 0.064257391 0.20400001 1.0974891e-38
0.037123151 0.06458573 0.20400001 1.0974891e-38
0.025959713 0.065734908 0.20400001 1.0145849e-38
0.026452217 0.065734908 0.20400001 1.0238045e-38
0.027273059 0.065899074 0.20400001 1.0054374e-38
0.02891474 0.065734908 0.20400001 1.0054017e-38
0.029407246 0.065734908 0.20400001 9.7774297e-39
0.030556425 0.065734908 0.20400001 9.2249762e-39
0.031705603 0.065734908 0.20400001 9.8696225e-39
0.032198105 0.065570742 0.20400001 1.0053654e-38
0.025795545 0.066555753 0.20400001 1.0145849e-38
0.026452217 0.066555746 0.20400001 1.0145849e-38
0.027601397 0.066555746 0.20400001 9.9621783e-39
0.028750572 0.066555753 0.20400001 9.9621783e-39
0.029407248 0.066555753 0.20400001 9.8699827e-39
0.030556424 0.066555746 0.20400001 9.317169e-39
0.031705603 0.066227414 0.20400001 9.7774269e-39
0.023551913 0.067759641 0.20400001 1.0606827e-38
0.024646366 0.06754075 0.20400001 1.0422436e-38
0.025795544 0.067540757 0.20400001 1.0238045e-38
0.026452215 0.067540757 0.20400001 1.0145849e-38
0.027601397 0.06754075 0.20400001 1.0054014e-38
0.028717738 0.06747508 0.20400003 9.9621783e-39
0.029352523 0.067321867 0.20400001 9.9621783e-39
0.030228086 0.067212418 0.20400001 9.8699827e-39
0.022457458 0.068744659 0.20400001 1.0606827e-38
0.023250937 0.068607852 0.20400001 1.0606827e-38
0.024482198 0.068525769 0.20400001 1.0606827e-38
0.025631376 0.068525769 0.20400001 1.0238045e-38
0.026452217 0.068525769 0.20400001 1.0145849e-38
0.027437227 0.068525769 0.20400001 1.0145849e-38
0.01906465 0.069839112 0.20400001 1.0606827e-38
0.020706331 0.069839112 0.20400001 1.0514632e-38
0.021527171 0.069510773 0.20400001 1.0422436e-38
0.022348013 0.069510773 0.20400001 1.0514632e-38
0.014467941 0.07065995 0.20400001 1.1712453e-38
0.017422969 0.070167445 0.20400001 1.0606109e-38
0.018407976 0.070167445 0.20400001 1.0606469e-38
0.020377995 0.070495784 0.20400001 1.0514632e-38
0.021472448 0.070276894 0.20400001 1.0422436e-38
0.020213827 0.071480796 0.20400001 1.0514632e-38
0.013811268 0.074764155 0.20400001 1.1434787e-38
0.01424905 0.074545257 0.20400001 1.1158919e-38
0.013811268 0.075092494 0.20400001 1.1434787e-38
0.014139605 0.075092494 0.20400001 1.1434787e-38
0.013811268 0.078047521 0.20400001 1.0974888e-38
0.055122197 0.0065019247 0.20500001 1.4982508e-38
0.053472467 0.0084815994 0.20500001 1.5532811e-38
0.054792251 0.0084815994 0.20500001 1.4522256e-38
0.044398963 0.019534783 0.20500001 1.3140043e-38
0.046213664 0.019699756 0.20500001 1.2492876e-38
0.046213664 0.026793592 0.20500001 1.2775571e-38
0.046213664 0.02728851 0.20500001 1.2592259e-38
0.045883719 0.028608292 0.205 1.2226353e-38
0.046213664 0.028773265 0.20500001 1.2134517e-38
0.045883719 0.02959813 0.20500001 1.1952647e-38
0.039944693 0.057478547 0.20500001 1.0330241e-38
0.041924369 0.057643522 0.20500001 9.9618224e-39
0.041759398 0.058633357 0.20500003 9.8696239e-39
0.042518269 0.058567367 0.20500001 9.6855928e-39
0.040604584 0.059953142 0.20500001 9.7785101e-39
0.04159442 0.059788167 0.20500003 9.6863145e-39
0.042254314 0.059623197 0.20500001 9.5019232e-39
0.039614744 0.060613032 0.20500001 9.6863145e-39
0.040439613 0.060448058 0.20500001 9.6863145e-39
0.041429449 0.060283087 0.20500001 9.6863145e-39
0.038954854 0.061272923 0.20500001 9.7774311e-39
0.028396588 0.062922657 0.20500001 1.042208e-38
0.02674686 0.063582547 0.20500001 1.042208e-38
0.027406752 0.063582547 0.20500001 1.042208e-38
0.028066643 0.063417569 0.20500001 1.042208e-38
0.029551398 0.063417569 0.20500001 9.9614622e-39
0.030376263 0.063417569 0.20500001 9.8692666e-39
0.031300113 0.063384578 0.20500001 9.777071e-39
0.038954854 0.063252598 0.20500001 9.777787e-39
0.051822741 0.063252598 0.20500001 9.0416667e-39
0.02575702 0.064407408 0.20500001 1.0422438e-38
0.026581885 0.064572379 0.20500003 1.0237689e-38
0.027406752 0.064572379 0.20500003 1.0329885e-38
0.028066643 0.064902328 0.20500001 1.042208e-38
0.035655398 0.064242437 0.20500001 1.0883414e-38
0.025427075 0.065562218 0.20500001 1.0422436e-38
0.02674686 0.065232277 0.20500001 1.0145849e-38
0.02740675 0.065562218 0.20500001 1.0238046e-38
0.028176626 0.065672204 0.205 1.042208e-38
0.024767183 0.066552058 0.20500001 1.0422436e-38
0.025207112 0.066332094 0.205 1.0330241e-38
0.027736697 0.066222109 0.20500001 9.9621783e-39
0.028231615 0.066222109 0.20500001 1.014657e-38
0.0234474 0.067706868 0.20500001 1.0606827e-38
0.024767183 0.067211948 0.20500001 1.0422436e-38
0.025097128 0.067211948 0.20500001 1.0422436e-38
0.02179767 0.068861678 0.20500001 1.0606827e-38
0.022237597 0.068421751 0.205 1.0606827e-38
0.023117453 0.068201788 0.20500001 1.0699023e-38
0.019378068 0.069301598 0.205 1.0606109e-38
0.020543877 0.069389597 0.20500001 1.0514632e-38
0.021467723 0.06919162 0.20500001 1.0514632e-38
0.020312915 0.070181459 0.20500001 1.0514632e-38
0.013549024 0.077770211 0.20500001 1.0974888e-38
0.014208917 0.07711032 0.20500001 1.115928e-38
0.013384052 0.078430101 0.20500001 1.1067084e-38
0.012889133 0.079419941 0.20500001 1.115928e-38
0.013219079 0.079584911 0.20500001 1.1251475e-38
0.046770651 0.016811855 0.20600002 1.3504509e-38
0.043620877 0.019464297 0.20600002 1.323152e-38
0.044118207 0.019795852 0.20600002 1.3324434e-38
0.045444429 0.020127408 0.20600002 1.2678706e-38
0.045775983 0.02559807 0.20600002 1.3417342e-38
0.046604872 0.025432294 0.20600002 1.3140396e-38
0.045775983 0.026426958 0.20600002 1.3050717e-38
0.046660136 0.02631644 0.20600002 1.2958522e-38
0.045775983 0.027421623 0.20600002 1.2684094e-38
0.046687759 0.027504509 0.20600002 1.2500423e-38
0.045444429 0.028747844 0.20600002 1.2409665e-38
0.046660129 0.028526807 0.20600002 1.21338e-38
0.045444429 0.030074064 0.20600002 1.1678937e-38
0.033839993 0.055935379 0.20600002 1.0238045e-38
0.033839993 0.056266934 0.20600002 1.0238045e-38
0.039476436 0.056930047 0.20600002 9.777787e-39
0.038813323 0.057758935 0.20600002 9.9618224e-39
0.039381705 0.057545789 0.206 9.8696253e-39
0.039310656 0.058587819 0.20600002 9.8696267e-39
0.041134212 0.058919378 0.20600002 1.0054374e-38
0.033839993 0.059914041 0.20600002 9.7785101e-39
