# .PCD v0.7 - Point Cloud Data file format
VERSION 0.7
FIELDS x y z rgb
SIZE 4 4 4 4
TYPE F F F F
COUNT 1 1 1 1
WIDTH 993
HEIGHT 1
VIEWPOINT 0 0 0 1 0 0 0
POINTS 993
DATA ascii
0.052517612 0.055714339 0.20600002 8.2075747e-39
0.050417759 0.056930047 0.20600002 8.1160979e-39
0.05141243 0.056598488 0.20600002 8.1157392e-39
0.052407093 0.056598492 0.20600002 8.2079334e-39
0.055722646 0.056930047 0.20600002 8.3926848e-39
0.056054201 0.056266934 0.20600002 8.3926848e-39
0.052572869 0.057261601 0.20600002 8.0231834e-39
0.055391088 0.057261601 0.20600002 8.3004892e-39
0.020677671 -0.010259463 0.20700002 1.5303035e-38
0.021510581 -0.010426044 0.20700002 1.4934613e-38
0.022176914 -0.010259463 0.20700002 1.4934254e-38
0.020560231 -0.0094493199 0.20750001 1.5395231e-38
0.021562943 -0.0094493199 0.20750001 1.521084e-38
0.049568154 -0.0054547982 0.208 9.6798167e-39
0.050572477 -0.0057895728 0.208 1.1148829e-38
0.049233381 0.0034167194 0.208 1.5532442e-38
0.048340648 0.0043652463 0.208 1.3428144e-38
0.049591869 0.0045829145 0.20775001 1.5347688e-38
0.050237704 0.0049232035 0.208 1.534553e-38
0.048563834 0.0059275264 0.208 1.4708805e-38
0.045665033 0.0088975113 0.20700002 1.1061318e-38
0.045216091 0.0096100438 0.208 1.1430822e-38
0.044998705 0.010563335 0.20700002 1.1431901e-38
0.045216091 0.010279592 0.208 1.1615213e-38
0.04761257 0.010755836 0.20750001 1.3247001e-38
0.048340648 0.010725957 0.208 1.3787214e-38
0.049568158 0.010614366 0.208 1.4792003e-38
0.050631959 0.010358236 0.20733334 1.4515056e-38
0.047559507 0.011618689 0.208 1.3983124e-38
0.044332374 0.012229159 0.20700002 1.087909e-38
0.046997692 0.012395741 0.20700002 1.3438953e-38
0.046997692 0.013228654 0.20700002 1.3439674e-38
0.046664529 0.014894477 0.20700002 1.2339086e-38
0.05345583 0.014930454 0.20750001 1.3686726e-38
0.045998197 0.015227642 0.20700002 1.0782933e-38
0.046610661 0.015264424 0.20750001 1.1424694e-38
0.05099567 0.015560807 0.20700002 1.5072523e-38
0.057602737 0.015412797 0.208 1.1391201e-38
0.059611384 0.01563598 0.208 1.1300444e-38
0.060280934 0.01563598 0.208 1.1208248e-38
0.05099567 0.016227137 0.20700002 1.4522233e-38
0.051576801 0.016640304 0.208 1.4154174e-38
0.05258112 0.016640304 0.208 1.3693557e-38
0.053630769 0.016392404 0.20740001 1.3229708e-38
0.054624721 0.01643372 0.20750001 1.2126603e-38
0.055259317 0.016640304 0.208 1.1576668e-38
0.057825923 0.016863486 0.208 1.0382093e-38
0.058774453 0.016640304 0.20799999 1.0474647e-38
0.05961138 0.016640304 0.20799999 1.0200581e-38
0.060615703 0.016640302 0.20799997 9.7421226e-39
0.061575543 0.016659256 0.20740001 9.378382e-39
0.062323272 0.016726885 0.20700002 8.0955647e-39
0.057602737 0.017644625 0.20799999 9.7414037e-39
0.058774449 0.017644625 0.208 9.0081589e-39
0.059611384 0.017644625 0.208 8.3681915e-39
0.060615707 0.017644625 0.20799999 7.9115363e-39
0.061638486 0.017602211 0.20750001 7.4556015e-39
0.062589809 0.017626429 0.20700002 6.8156341e-39
0.065646932 0.017936181 0.20750001 6.4522522e-39
0.056933191 0.018648949 0.208 8.7362523e-39
0.057602737 0.018481562 0.20799999 8.0930451e-39
0.058774449 0.018481562 0.208 7.1768552e-39
0.05961138 0.018481562 0.208 6.536529e-39
0.060615707 0.018481562 0.20799999 6.2631862e-39
0.061638486 0.018437134 0.20750001 6.1735115e-39
0.062656432 0.018392708 0.20700002 6.2675078e-39
0.063322768 0.01855929 0.20700002 6.2689483e-39
0.065651722 0.018443635 0.20720001 6.4544172e-39
0.066648982 0.018394612 0.20740001 6.5473373e-39
0.056933191 0.01965327 0.208 6.3550161e-39
0.057602737 0.01965327 0.20799997 5.8965644e-39
0.058774453 0.019653272 0.20799999 5.8990868e-39
0.05961138 0.019653272 0.20799999 5.6250208e-39
0.060615703 0.01965327 0.20799997 5.8104911e-39
0.061589111 0.019590013 0.20733334 5.8112156e-39
0.062656432 0.019558784 0.20700002 6.1800009e-39
0.063489348 0.019475494 0.20700002 6.2721951e-39
0.065821499 0.01922562 0.20700002 6.5494981e-39
0.068653405 0.019891949 0.20700002 7.8416788e-39
0.056598417 0.020657595 0.208 5.9934418e-39
0.057602737 0.020657595 0.20799999 5.9941649e-39
0.058774449 0.020657595 0.208 5.9952453e-39
0.05961138 0.020657595 0.208 6.0881612e-39
0.060622398 0.020640774 0.20783333 6.2732741e-39
0.061490357 0.020558279 0.20700002 6.3658341e-39
0.06265644 0.020558279 0.20700002 6.5502267e-39
0.063322768 0.020558279 0.20700002 6.6424224e-39
0.068542354 0.020669334 0.20700002 8.4870482e-39
0.055928867 0.02149453 0.208 6.2718322e-39
0.056598417 0.02149453 0.208 6.3643893e-39
0.057602737 0.021494528 0.20799999 6.2732727e-39
0.058774449 0.021494528 0.208 6.4576654e-39
0.05961138 0.021494528 0.208 6.5498596e-39
0.06063604 0.021442726 0.20750003 6.7346124e-39
0.061490357 0.021391191 0.20700002 6.8268122e-39
0.06265644 0.021391191 0.20700002 6.6442216e-39
0.063322768 0.021391191 0.20700002 6.6445804e-39
0.068653405 0.021391191 0.20700002 8.7636351e-39
0.055661045 0.022532329 0.20799999 7.2859813e-39
0.056598417 0.022498854 0.208 7.101953e-39
0.057602737 0.022498854 0.20799999 6.9190023e-39
0.058774449 0.022498852 0.208 7.1033935e-39
0.059759606 0.022569707 0.20750001 7.1033935e-39
0.060824025 0.022557266 0.20700002 7.2877834e-39
0.061490357 0.022557266 0.20700002 7.2877848e-39
0.062656432 0.022557268 0.20700002 7.4728977e-39
0.063322768 0.022557268 0.20700002 7.5654535e-39
0.068764456 0.02244621 0.20700002 8.9487452e-39
0.069766201 0.022554649 0.208 9.1331365e-39
0.070658937 0.02266624 0.208 9.1334966e-39
0.05559409 0.023168402 0.20799999 7.6547638e-39
0.056598417 0.0231684 0.208 7.5629283e-39
0.057602737 0.0231684 0.20799999 7.2874204e-39
0.058751248 0.023312707 0.2078 7.3796175e-39
0.059603479 0.02347737 0.20714286 7.5640101e-39
0.060824033 0.023556761 0.20700002 7.6565645e-39
0.061490357 0.023556761 0.20700002 7.6565645e-39
0.06265644 0.023556761 0.20700002 8.025347e-39
0.069821998 0.023001013 0.208 9.1334966e-39
0.070658937 0.023001013 0.208 9.1334966e-39
0.054506078 0.024423804 0.208 8.1164608e-39
0.055594094 0.02434011 0.20799997 8.0246253e-39
0.056598421 0.02434011 0.20799999 8.2086565e-39
0.057608802 0.02432693 0.20788887 7.9324297e-39
0.058514912 0.024312805 0.20720001 7.8405956e-39
0.059657957 0.024389675 0.20700002 8.1168224e-39
0.060824029 0.024389673 0.20700002 8.0246281e-39
0.061490357 0.024389673 0.20700002 8.0246281e-39
0.062489852 0.024389673 0.20700002 8.2093781e-39
0.069319837 0.024674885 0.208 9.040222e-39
0.054422382 0.025511822 0.208 8.5770803e-39
0.05559409 0.025511822 0.20799999 8.3934079e-39
0.056729823 0.025581991 0.20766668 8.6696346e-39
0.057745896 0.025525559 0.20714286 8.4852434e-39
0.058491874 0.02555575 0.20700002 8.301571e-39
0.059657957 0.02555575 0.20700002 8.3934079e-39
0.060824025 0.025555747 0.20700002 8.3934093e-39
0.061490357 0.02555575 0.20700002 8.4856063e-39
0.062323272 0.025389168 0.20700002 8.4856063e-39
0.068985067 0.025344433 0.208 9.1334966e-39
0.069487229 0.025679208 0.208 9.5933958e-39
0.053920221 0.026348757 0.208 9.4064808e-39
0.054422382 0.02618137 0.208 9.2228084e-39
0.05559409 0.02618137 0.20799999 8.7621904e-39
0.056729823 0.026305996 0.20766668 8.7618316e-39
0.05782555 0.026555244 0.20700002 8.5777991e-39
0.058491878 0.026555244 0.20700002 8.5777991e-39
0.059657957 0.026555246 0.20700002 8.5777991e-39
0.060824033 0.026555244 0.20700002 8.5777991e-39
0.061323777 0.02622208 0.20700002 8.6699947e-39
0.053920221 0.027353078 0.208 9.4068367e-39
0.054422382 0.027353078 0.20799999 9.3150012e-39
0.055594087 0.02735308 0.20799997 9.0387773e-39
0.056696966 0.027361846 0.20774999 8.9465816e-39
0.057825547 0.027554741 0.20700002 8.6699947e-39
0.058491874 0.027554741 0.20700002 8.6699947e-39
0.059574664 0.027304865 0.20700002 8.5777991e-39
0.060657449 0.027221574 0.20700002 8.854386e-39
0.053920221 0.028524786 0.208 9.591228e-39
0.054422382 0.028524786 0.208 9.4990323e-39
0.05559409 0.028524786 0.20799999 9.2228056e-39
0.05667726 0.02859731 0.2078 8.9465788e-39
0.057639688 0.028655471 0.20733333 8.9469376e-39
0.058491878 0.028720815 0.20700002 9.0391332e-39
0.05932479 0.028887399 0.20700002 9.4068367e-39
0.053585447 0.029194336 0.208 9.5905091e-39
0.054422386 0.029194336 0.208 9.5908692e-39
0.055594087 0.029194335 0.20799999 9.3146411e-39
0.056729823 0.029314132 0.20766668 8.9465774e-39
0.05782555 0.029553726 0.20700002 9.0391332e-39
0.058491878 0.029553728 0.20700002 9.3153628e-39
0.05949137 0.029553728 0.20700002 9.1309687e-39
0.052781988 0.030432999 0.20799999 9.8674547e-39
0.053585444 0.030366043 0.20799999 9.4068367e-39
0.054422382 0.030366046 0.20799999 9.2224455e-39
0.055594094 0.030366046 0.20799997 9.1302498e-39
0.056668043 0.030444872 0.20740001 9.0384143e-39
0.05782555 0.030553222 0.20700002 9.2231657e-39
0.058491874 0.03055322 0.20700002 9.2235273e-39
0.05932479 0.030553222 0.20700002 8.8547433e-39
0.074317202 0.030886386 0.20700002 9.4082787e-39
0.051576801 0.031705141 0.208 9.591228e-39
0.052581128 0.031370372 0.20799999 9.6834236e-39
0.053585447 0.031370368 0.208 9.4990323e-39
0.054422386 0.031370368 0.208 9.2224455e-39
0.05559409 0.031370368 0.20799999 9.6830649e-39
0.056602921 0.031621628 0.20714286 9.4068367e-39
0.057825547 0.031719297 0.20700002 9.2235245e-39
0.058491874 0.031719297 0.20700002 9.0391332e-39
0.059491374 0.031719297 0.20700002 8.8547419e-39
0.051465213 0.0322631 0.208 9.4990323e-39
0.05258112 0.032207306 0.20799999 9.4990323e-39
0.053585447 0.032207303 0.208 9.4068367e-39
0.054422386 0.032207303 0.208 9.1302498e-39
0.055565089 0.032281939 0.20771429 9.591228e-39
0.056659471 0.032552212 0.20700002 9.4986722e-39
0.057825547 0.032552209 0.20700002 9.0391332e-39
0.058491878 0.032552212 0.20700002 8.9469376e-39
0.05932479 0.032219045 0.20700002 8.7625463e-39
0.050639432 0.033445973 0.20799999 9.4990323e-39
0.051409412 0.033379015 0.20799999 9.6834236e-39
0.052581124 0.033379015 0.20799997 9.591228e-39
0.053585451 0.033379015 0.20799999 9.4990323e-39
0.054422379 0.033379018 0.20799999 9.2224455e-39
0.055459969 0.033465199 0.20750001 9.591228e-39
0.056659468 0.033551708 0.20700002 9.1302498e-39
0.057792228 0.033485074 0.20700002 8.8547419e-39
0.058325294 0.03321854 0.20700002 8.9469376e-39
0.049902931 0.034383334 0.208 9.4068367e-39
0.050572477 0.034383334 0.208 9.4990323e-39
0.051409416 0.034383334 0.208 9.7756192e-39
0.05258112 0.034383334 0.20799999 9.6834236e-39
0.053585447 0.034383334 0.208 9.6834236e-39
0.054612804 0.034494817 0.20766668 9.1302498e-39
0.055446576 0.034583937 0.20720001 9.2224455e-39
0.056659471 0.034717783 0.20700002 9.0380542e-39
0.057658963 0.0345512 0.20700002 8.9469376e-39
0.049902931 0.035220273 0.208 9.406478e-39
0.050572477 0.035220273 0.208 9.5908678e-39
0.051409416 0.035220273 0.208 9.591228e-39
0.052581128 0.035220273 0.20799999 9.7756192e-39
0.053585447 0.035220273 0.208 9.6834236e-39
0.054629713 0.035385173 0.20742856 9.2224455e-39
0.055493396 0.035550691 0.20700002 9.0380542e-39
0.056659471 0.035550695 0.20700002 9.2224441e-39
0.049902931 0.036391985 0.208 9.2217266e-39
0.050572481 0.036391981 0.20799999 9.4061179e-39
0.051409412 0.036391985 0.20799999 9.591228e-39
0.052581128 0.036391985 0.20799997 9.6834236e-39
0.053715609 0.036488581 0.2076 9.4068367e-39
0.054745335 0.03647976 0.20714286 9.2224455e-39
0.055493396 0.03655019 0.20700002 9.1302498e-39
0.056659475 0.036550187 0.20700002 9.3146411e-39
0.057658963 0.036217023 0.20700002 9.6834208e-39
0.049791336 0.037507895 0.208 9.2220867e-39
0.050572477 0.037396304 0.208 9.1298911e-39
0.051409416 0.037396304 0.208 9.3146411e-39
0.052581128 0.037396304 0.20799999 9.3146411e-39
0.053635269 0.037609611 0.20733334 9.1302498e-39
0.054827061 0.037716262 0.20700002 9.1302498e-39
0.055493392 0.037716266 0.20700002 9.0380542e-39
0.056659471 0.037716266 0.20700002 9.1302498e-39
0.049735539 0.038233243 0.208 9.2224469e-39
0.050572477 0.038233243 0.208 8.9458614e-39
0.051409416 0.038233243 0.208 9.0380542e-39
0.052581128 0.038233239 0.20799999 9.1298897e-39
0.053602371 0.038480129 0.20714286 9.6830635e-39
0.054827064 0.038549177 0.20700002 9.3139222e-39
0.055493392 0.038549177 0.20700002 9.3142824e-39
0.056659471 0.038549177 0.20700002 9.0380542e-39
0.048563834 0.039739724 0.208 1.0512463e-38
0.049568154 0.039404951 0.20799997 9.5905091e-39
0.050572481 0.039404947 0.20799999 9.129531e-39
0.051409412 0.039404951 0.20799999 9.0380542e-39
0.052538287 0.039414592 0.20769998 9.4986736e-39
0.053660985 0.039548669 0.20700002 1.0050767e-38
0.054827061 0.039548669 0.20700002 9.4053962e-39
0.055493396 0.039548669 0.20700002 9.2213651e-39
0.056617822 0.039507024 0.20700002 9.0380528e-39
0.048563834 0.040409274 0.208 9.867096e-39
0.049568158 0.040409274 0.20799999 9.3139222e-39
0.050572477 0.040409274 0.208 9.129531e-39
0.051409416 0.040409274 0.208 9.0376955e-39
0.05243621 0.040536005 0.20742856 9.591228e-39
0.053660989 0.040714744 0.20700002 9.7748976e-39
0.054827064 0.040714744 0.20700002 9.6827019e-39
0.055493392 0.040714748 0.20700002 9.4983107e-39
0.056326304 0.040548164 0.20700002 8.8536629e-39
0.071318723 0.040881328 0.20700002 8.3004892e-39
0.048563834 0.041246209 0.208 9.4061179e-39
0.049568158 0.041246209 0.20799999 9.2217266e-39
0.050572477 0.041246209 0.208 9.0373353e-39
0.051604662 0.041291166 0.20766668 9.1298911e-39
0.052445196 0.041320626 0.20720001 9.5908678e-39
0.053660989 0.041381072 0.20700002 9.314281e-39
0.054827064 0.041381076 0.20700002 9.1298897e-39
0.055437863 0.041325551 0.20700002 9.2217266e-39
0.04839645 0.042417917 0.20799999 9.406478e-39
0.049568158 0.042417921 0.20799997 9.6827047e-39
0.050632935 0.042483978 0.20785713 9.129531e-39
0.051627439 0.04246198 0.20740001 9.129531e-39
0.052494913 0.042547151 0.20700002 9.1298911e-39
0.053660985 0.042547151 0.20700002 9.0373353e-39
0.054743774 0.042463861 0.20700002 8.9454984e-39
0.047894284 0.043757018 0.208 9.591228e-39
0.048396446 0.043422241 0.208 9.8685337e-39
0.049568158 0.043422241 0.20799999 1.0235879e-38
0.050713543 0.04351924 0.20766668 9.0369766e-39
0.051828586 0.043713227 0.20700002 8.9447838e-39
0.052494913 0.043713227 0.20700002 9.129531e-39
0.053660985 0.043713227 0.20700002 9.129531e-39
0.05466048 0.043546647 0.20700002 9.129531e-39
0.061954804 0.043087468 0.208 8.8525881e-39
0.062289581 0.043087468 0.208 8.8525881e-39
0.047626462 0.044493519 0.20799999 9.5908664e-39
0.048396442 0.044426564 0.20799999 9.4068339e-39
0.049568154 0.044426564 0.20799997 9.4061164e-39
0.050617095 0.044361215 0.20750001 8.8529427e-39
0.051828586 0.044379562 0.20700002 8.8533042e-39
0.052494913 0.044379562 0.20700002 9.0373353e-39
0.053660985 0.044379562 0.20700002 9.129531e-39
0.04677837 0.04565407 0.208 9.2224427e-39
0.047559507 0.045598272 0.208 9.3146383e-39
0.048396446 0.045598272 0.208 8.9458558e-39
0.049568158 0.045598272 0.20799999 8.6689101e-39
0.050652325 0.045569904 0.20711112 8.6685514e-39
0.051828582 0.045545638 0.20700002 8.8543818e-39
0.05249491 0.045545638 0.20700002 8.4856007e-39
0.053660989 0.045545638 0.20700002 8.3930435e-39
0.046622142 0.046502165 0.20799999 9.0380514e-39
0.047559507 0.046435211 0.208 9.3146383e-39
0.048396446 0.046435211 0.208 9.1298883e-39
0.04954743 0.046466384 0.20771429 8.4841602e-39
0.050662506 0.046711713 0.20700002 8.3919659e-39
0.051828586 0.046711713 0.20700002 8.6689115e-39
0.052494913 0.046711709 0.20700002 8.6689115e-39
0.053494401 0.046711713 0.20700002 8.3926848e-39
0.044881314 0.047774307 0.208 8.5770732e-39
0.045416959 0.047506489 0.20799999 8.7614645e-39
0.046555188 0.04743953 0.20799997 8.9458572e-39
0.047559511 0.04743953 0.20799999 9.6830635e-39
0.048396442 0.047439534 0.20799999 9.5905091e-39
0.049466327 0.04742416 0.20774999 8.4841616e-39
0.050662506 0.047378045 0.20700002 8.3001304e-39
0.051828586 0.047378041 0.20700002 8.4841616e-39
0.052494913 0.047378041 0.20700002 8.5763572e-39
0.053494401 0.047378041 0.20700002 8.4845203e-39
0.044658136 0.04866704 0.208 8.7614645e-39
0.045383479 0.048611239 0.208 8.6692689e-39
0.046555188 0.048611239 0.20799999 8.8536601e-39
0.047559507 0.048611239 0.208 9.1298883e-39
0.048396446 0.048611242 0.208 9.1298883e-39
0.049460452 0.048590008 0.20737502 8.4841587e-39
0.05066251 0.048544116 0.20700002 8.2075747e-39
0.051828582 0.04854412 0.20700002 8.2997703e-39
0.052494913 0.04854412 0.20700002 8.3919659e-39
0.053411111 0.048460826 0.20700002 8.4841616e-39
0.043876991 0.049782954 0.208 8.577076e-39
0.044546541 0.049448181 0.208 8.3934037e-39
0.045383479 0.049448181 0.208 8.4848804e-39
0.046555188 0.049448181 0.20799999 8.5767173e-39
0.047559507 0.049448177 0.208 8.8529441e-39
0.048596527 0.049535517 0.20766668 8.8529427e-39
0.049443819 0.049590837 0.20720001 8.3919659e-39
0.050662506 0.049710199 0.20700002 8.3919659e-39
0.051828586 0.049710199 0.20700002 8.2997703e-39
0.052494913 0.049710199 0.20700002 8.3919659e-39
0.043584064 0.050494347 0.20799997 8.4848804e-39
0.04459754 0.050395686 0.20757143 8.4845217e-39
0.045439787 0.050336711 0.2078 8.3926848e-39
0.046555188 0.050452501 0.20799997 8.3919659e-39
0.047622032 0.050465442 0.20785713 8.3919659e-39
0.048620336 0.050313435 0.20742859 8.5763572e-39
0.049496427 0.050376527 0.20700002 8.6685528e-39
0.050662506 0.050376523 0.20700002 8.9451397e-39
0.051773056 0.050320998 0.20700002 8.3919659e-39
0.05232833 0.050209943 0.20700002 8.4841616e-39
0.043884963 0.051521156 0.20725001 8.5767173e-39
0.044332374 0.051209439 0.20700002 8.5763572e-39
0.045998197 0.051209439 0.20700002 8.8529441e-39
0.04677837 0.051568415 0.208 8.8518651e-39
0.047677815 0.05159758 0.20722224 8.4845203e-39
0.048830103 0.051542606 0.20700002 8.5767173e-39
0.049496427 0.051542606 0.20700002 9.0376955e-39
0.050579216 0.051292732 0.20700002 9.4064752e-39
0.044438653 0.052669007 0.20750001 8.5767159e-39
0.045383476 0.052795921 0.208 8.5763572e-39
0.046618402 0.052520305 0.20785713 8.6681941e-39
0.04766402 0.052708674 0.20700002 8.3923247e-39
0.048830099 0.052708674 0.20700002 8.577076e-39
0.049329847 0.052708678 0.20700002 8.8536629e-39
0.044713929 0.053381775 0.208 8.577076e-39
0.045383479 0.053465467 0.20799999 8.5767159e-39
0.046512298 0.053410519 0.207625 8.3919659e-39
0.04766402 0.053375002 0.20700002 8.2082935e-39
0.048830099 0.053375006 0.20700002 8.3926848e-39
0.049329847 0.053375006 0.20700002 8.577076e-39
0.044881314 0.054469794 0.208 8.9458586e-39
0.045599334 0.054691188 0.20757143 8.8529441e-39
0.046601087 0.054530896 0.20714286 8.3923247e-39
0.047721587 0.054357082 0.20725001 8.2082935e-39
0.048744235 0.054578722 0.20714286 8.1157392e-39
0.049463112 0.054607712 0.20700002 8.115379e-39
0.043709606 0.055808891 0.208 8.6685528e-39
0.044743277 0.055657715 0.20775001 8.9454984e-39
0.045626443 0.055629477 0.20733333 8.6692717e-39
0.046664529 0.055707157 0.20700002 8.3919659e-39
0.047729809 0.055664372 0.20728572 8.2079334e-39
0.048709892 0.055593599 0.20720001 8.2079334e-39
0.049496427 0.05570716 0.20700002 8.2997703e-39
0.042537894 0.056645826 0.208 8.3004892e-39
0.043542217 0.056478441 0.20799997 8.3923261e-39
0.044620715 0.056349974 0.20737499 8.4848804e-39
0.045887142 0.056317955 0.20700002 8.4848804e-39
0.046664529 0.056373484 0.20700002 8.2997703e-39
0.04766402 0.056373488 0.20700002 8.3919659e-39
0.048830099 0.056373484 0.20700002 8.1160979e-39
0.049496427 0.056373488 0.20700002 8.2082935e-39
0.050440397 0.056429014 0.20700002 8.2079334e-39
0.042426303 0.057594355 0.208 8.2082935e-39
0.043607499 0.057681944 0.20785713 8.3004892e-39
0.044665541 0.057539556 0.20700002 8.2075747e-39
0.046731163 0.057472933 0.20700002 9.1298897e-39
0.04766402 0.057539564 0.20700002 9.2217252e-39
0.048830103 0.057539564 0.20700002 8.2997689e-39
0.049496427 0.057539564 0.20700002 8.023182e-39
0.050614916 0.057634752 0.20700002 7.9317066e-39
0.051828586 0.057706144 0.20700002 8.2075747e-39
0.052494913 0.057872728 0.20700002 8.115379e-39
0.042537894 0.058487084 0.208 8.2082935e-39
0.043547232 0.058556952 0.20757143 8.3004892e-39
0.044665541 0.058539063 0.20700002 8.3001304e-39
0.046997692 0.058205895 0.20700002 1.0144399e-38
0.04766402 0.058205891 0.20700002 9.6830621e-39
0.048830099 0.058205895 0.20700002 8.5763558e-39
0.049496427 0.058539059 0.20700002 8.2068558e-39
0.050662506 0.058539063 0.20700002 7.8391523e-39
0.051828586 0.058539063 0.20700002 8.1157392e-39
0.05232833 0.058205895 0.20700002 8.2075747e-39
0.042768806 0.059347592 0.20750001 8.2079334e-39
0.043513175 0.059355985 0.20733334 8.207932e-39
0.044665541 0.059371974 0.20700002 8.3923219e-39
0.046889961 0.05915663 0.208 9.9592888e-39
0.047559507 0.05915663 0.208 9.6827019e-39
0.048563834 0.05915663 0.208 8.9451369e-39
0.049233381 0.05915663 0.208 8.5752782e-39
0.042999715 0.060204882 0.20700002 8.2997703e-39
0.043666042 0.060204882 0.20700002 8.2997703e-39
0.044665541 0.060204882 0.20700002 8.2997703e-39
0.045831613 0.060371466 0.20700002 8.5763558e-39
0.046621114 0.060587753 0.20740001 8.760747e-39
0.047224734 0.06049573 0.208 8.66855e-39
0.043542217 0.06150005 0.208 8.2075747e-39
0.044546541 0.06150005 0.208 8.2997703e-39
0.021213839 -0.0091812452 0.20900001 1.5487427e-38
0.05047923 0.0036013378 0.20900001 1.6083092e-38
0.048797309 0.0046104891 0.20900001 1.4709158e-38
0.049301885 0.0047786809 0.20900001 1.4891028e-38
0.050546505 0.0077724955 0.20900002 1.5067868e-38
0.051488381 0.0078061339 0.20900001 1.5432335e-38
0.045433473 0.0093198614 0.20900001 1.124751e-38
0.050815612 0.010665396 0.20900001 1.4606533e-38
0.051656574 0.010665396 0.20900001 1.4606533e-38
0.044760704 0.011674548 0.20900001 1.0971286e-38
0.048685182 0.011450292 0.20900001 1.4428984e-38
0.049301885 0.01100178 0.20900001 1.4978195e-38
0.050142843 0.01100178 0.20900001 1.4607612e-38
0.051824763 0.01100178 0.20900001 1.4882757e-38
0.047788158 0.012179123 0.20900001 1.2517355e-38
0.048460927 0.012010931 0.20900001 1.3973764e-38
0.045769855 0.01369285 0.20900001 1.0969844e-38
0.047788158 0.01369285 0.20900001 1.260919e-38
0.047788158 0.014365618 0.20900001 1.2515557e-38
0.048460927 0.014702002 0.20900001 1.4433653e-38
0.047451776 0.015374769 0.20900001 1.2152172e-38
0.04862912 0.015038386 0.20900001 1.4706996e-38
0.049335524 0.015307492 0.20900002 1.5072172e-38
0.05047923 0.015374769 0.20900001 1.5257636e-38
0.051600512 0.015150513 0.20900001 1.5346233e-38
0.052329339 0.015038386 0.20900001 1.516005e-38
0.053170297 0.015038386 0.20900001 1.4146981e-38
0.056534138 0.015711153 0.20900001 1.1758179e-38
0.05855244 0.015711153 0.20900001 1.1208248e-38
0.059225205 0.015542962 0.20900001 1.1667428e-38
0.050703485 0.016496047 0.20900001 1.4245292e-38
0.051488381 0.016720304 0.20900001 1.424637e-38
0.056534138 0.016552111 0.20900001 1.1207889e-38
0.057711482 0.016552113 0.20900001 1.065652e-38
0.058216054 0.01638392 0.20900001 1.0657239e-38
0.065952882 0.016720304 0.20900001 7.7314709e-39
0.051656574 0.01722488 0.20900001 1.3970504e-38
0.052329339 0.01722488 0.20900001 1.3603521e-38
0.053506684 0.01722488 0.20900001 1.3141109e-38
0.054684028 0.01722488 0.20900001 1.240391e-38
0.055356793 0.01722488 0.20900001 1.1853254e-38
0.056534138 0.017224878 0.20900001 1.0749791e-38
0.057543289 0.017056689 0.20900001 1.0658321e-38
0.065952882 0.01722488 0.20900001 7.1833362e-39
0.066513531 0.017280944 0.20900001 6.633405e-39
0.051824763 0.018234031 0.20900001 1.3142902e-38
0.052329343 0.018402221 0.20900001 1.2317824e-38
0.053506687 0.018402223 0.20900001 1.2317468e-38
0.054684028 0.018402223 0.20900001 1.1396238e-38
0.055356789 0.018402224 0.20900001 1.0937781e-38
0.05649209 0.018360177 0.20900001 1.0019428e-38
0.066962034 0.01806584 0.20900001 6.6380882e-39
0.051824763 0.019579567 0.20900001 1.1311952e-38
0.052329339 0.019579565 0.20900001 1.0668751e-38
0.053506684 0.019579565 0.20900001 1.0024825e-38
0.054684028 0.019579567 0.20900001 8.6462133e-39
0.055356793 0.019579567 0.20900001 8.0037292e-39
0.056365944 0.019579565 0.20900001 7.1797334e-39
0.051824763 0.020252334 0.20900001 9.2958973e-39
0.052329339 0.020252334 0.20900001 8.651974e-39
0.053506684 0.020252334 0.20900001 8.0084081e-39
0.054684028 0.020252334 0.20900001 6.9982219e-39
0.055356793 0.020252334 0.20900001 6.5394059e-39
0.056309879 0.02019627 0.20900001 6.264984e-39
0.051656574 0.021429678 0.20900001 7.6493548e-39
0.052329335 0.021429678 0.20900001 7.1894599e-39
0.053506684 0.021429677 0.20900001 6.5455352e-39
0.054684028 0.021429675 0.20900001 6.2700301e-39
0.055356789 0.021429678 0.20900001 6.2707504e-39
0.056197751 0.021093292 0.20900001 5.9945236e-39
0.050815612 0.022607021 0.20900001 7.9291885e-39
0.051656574 0.022607019 0.20900001 7.7455175e-39
0.052329339 0.022607021 0.20900001 7.4700096e-39
0.053506684 0.022607019 0.20900001 7.1937857e-39
0.054684028 0.022607019 0.20900001 7.1937857e-39
0.0551886 0.022438828 0.20900001 7.1937857e-39
0.050647423 0.023279788 0.20900001 8.2075747e-39
0.051656574 0.023279786 0.20900001 7.9313479e-39
0.052329339 0.023279788 0.20900001 7.8391523e-39
0.053506684 0.023279786 0.20900001 7.654761e-39
0.054684028 0.023279786 0.20900001 7.7469594e-39
0.071335025 0.023111595 0.20900001 9.041301e-39
0.05047923 0.024457132 0.20900001 8.7607512e-39
0.05165657 0.024457129 0.20900001 8.5767187e-39
0.052329343 0.024457129 0.20900001 8.5767201e-39
0.053506684 0.024457132 0.20900001 8.4845245e-39
0.054515835 0.024288937 0.20900001 8.115742e-39
0.049470078 0.025802666 0.20900001 9.591228e-39
0.05047923 0.025634475 0.20900001 9.2224455e-39
0.051656574 0.025634473 0.20900001 9.0380542e-39
0.052329339 0.025634473 0.20900001 9.0376983e-39
0.053506684 0.025634475 0.20900001 8.9455026e-39
0.049470078 0.02630724 0.20900001 9.6827047e-39
0.05047923 0.026307242 0.20900001 9.4983135e-39
0.051656574 0.02630724 0.20900001 9.2224455e-39
0.052329339 0.02630724 0.20900001 9.1298939e-39
0.053439401 0.026273603 0.20900002 9.1298939e-39
0.048797309 0.027652776 0.20900001 1.0142604e-38
0.049301889 0.027484583 0.20900001 9.8667359e-39
0.05047923 0.027484583 0.20900001 9.6827047e-39
0.05165657 0.027484583 0.20900001 9.867096e-39
0.052329343 0.027484583 0.20900001 9.8678149e-39
0.053338494 0.027484583 0.20900001 9.4990323e-39
0.048685182 0.028717989 0.20900001 9.8667373e-39
0.049301885 0.028661927 0.20900001 1.0051487e-38
0.05047923 0.028661927 0.20900001 9.6834236e-39
0.051656574 0.028661927 0.20900001 9.6834236e-39
0.052329339 0.028661925 0.20900001 9.6834236e-39
0.05333849 0.028661925 0.20900001 9.4990323e-39
0.047788158 0.029502887 0.20900001 9.7749004e-39
0.04862912 0.029334694 0.20900001 9.7749004e-39
0.049301885 0.029334694 0.20900001 9.9596518e-39
0.05047923 0.029334694 0.20900001 9.6834236e-39
0.051656574 0.029334696 0.20900001 9.6834236e-39
0.052329339 0.029334696 0.20900001 9.7756192e-39
0.053170297 0.029334694 0.20900001 9.6834236e-39
0.076717168 0.029502887 0.20900001 7.1952332e-39
0.047653608 0.030579317 0.20900002 9.7749004e-39
0.04862912 0.03051204 0.20900001 9.7749004e-39
0.049301889 0.030512037 0.20900001 1.0051487e-38
0.05047923 0.030512039 0.20900001 9.7749004e-39
0.05165657 0.030512035 0.20900001 9.7752591e-39
0.052245241 0.030427944 0.20900001 9.9596518e-39
0.073689707 0.030848421 0.20900001 9.5004743e-39
0.074698858 0.030848421 0.20900001 1.0238039e-38
0.047451776 0.031689387 0.20900001 9.5901504e-39
0.04862912 0.031689379 0.20900001 9.4990323e-39
0.049301885 0.031689383 0.20900001 9.591228e-39
0.05047923 0.031689379 0.20900001 9.591228e-39
0.051600512 0.031633317 0.20900001 9.4990323e-39
0.075035244 0.03152119 0.20900001 8.9465844e-39
0.076044396 0.031857572 0.20900001 8.7629092e-39
0.046779007 0.032362148 0.20900001 9.129531e-39
0.047451776 0.032362148 0.20900001 9.2224455e-39
0.04862912 0.032362148 0.20900001 9.3146411e-39
0.049301885 0.032362148 0.20900001 9.4990323e-39
0.05047923 0.032362148 0.20900001 9.2224455e-39
0.051488381 0.032193955 0.20900001 9.4990323e-39
0.046610814 0.033455398 0.20900001 9.1298897e-39
0.047451776 0.033539493 0.20900001 9.1302498e-39
0.04862912 0.033539493 0.20900001 9.1302498e-39
0.049301881 0.033539489 0.20900001 9.2224455e-39
0.050226938 0.033455394 0.20900001 9.3146411e-39
0.046554748 0.034436513 0.20900001 9.3139194e-39
0.047451776 0.034548644 0.20900001 9.2220853e-39
0.04862912 0.03454864 0.20900001 9.1302498e-39
0.049301885 0.03454864 0.20900001 9.2224455e-39
0.046779007 0.035389602 0.20900001 9.7749004e-39
0.047451776 0.035389606 0.20900001 9.4983135e-39
0.04862912 0.035389602 0.20900001 9.129531e-39
0.049301885 0.035389602 0.20900001 9.2220867e-39
0.047451776 0.036566943 0.20900001 9.774899e-39
0.04862912 0.036566947 0.20900001 9.4061164e-39
0.049301889 0.036566947 0.20900001 9.3139208e-39
0.046779007 0.037912481 0.20900001 9.3139222e-39
0.047451776 0.037576098 0.20900001 9.5905077e-39
0.04862912 0.037576094 0.20900001 9.4061164e-39
0.049245819 0.037463967 0.20900001 9.4061179e-39
0.046554748 0.038473118 0.20900001 9.129531e-39
0.047451776 0.038417056 0.20900001 9.5905091e-39
0.04862912 0.038417056 0.20900001 9.867096e-39
0.049133692 0.038417056 0.20900001 1.0235879e-38
0.045657728 0.039818656 0.20900001 9.6841439e-39
0.046442624 0.039594401 0.20900001 9.9603692e-39
0.047451776 0.039594397 0.20900001 1.0420989e-38
0.048595481 0.039527122 0.20900002 1.0789408e-38
0.044760704 0.040939935 0.20900001 9.4068367e-39
0.045601666 0.040603548 0.20900001 9.6834236e-39
0.04644262 0.040603548 0.20900001 9.7756192e-39
0.047451776 0.040603552 0.20900001 1.0051847e-38
0.048460927 0.040603548 0.20900001 9.9592916e-39
0.044760704 0.04144451 0.20900001 9.4068367e-39
0.045601666 0.04144451 0.20900001 9.3146411e-39
0.04644262 0.04144451 0.20900001 9.4068367e-39
0.047451776 0.04144451 0.20900001 9.3139222e-39
0.048460927 0.04144451 0.20900001 9.2217266e-39
0.071335025 0.041612703 0.20900001 8.3004892e-39
0.04452043 0.042669911 0.20900001 9.5905091e-39
0.045601666 0.042621851 0.20900001 9.0380542e-39
0.046442624 0.042621851 0.20900001 8.9458628e-39
0.047451772 0.042621851 0.20900001 9.1298925e-39
0.042742401 0.043967389 0.20900001 1.0420267e-38
0.043527294 0.043743134 0.20900001 1.0512463e-38
0.044424322 0.043631006 0.20900001 9.9592888e-39
0.045601666 0.043631006 0.20900001 9.0376913e-39
0.04644262 0.043631002 0.20900001 9.1302484e-39
0.047384497 0.043563731 0.20900002 9.4064752e-39
0.042630274 0.044528026 0.20900001 1.0051486e-38
0.043415166 0.044471964 0.20900001 1.014368e-38
0.044424322 0.044471964 0.20900001 9.6827019e-39
0.045601666 0.044471964 0.20900001 9.3139194e-39
0.04644262 0.044471964 0.20900001 9.4990295e-39
0.047227517 0.044415902 0.20900001 9.7752563e-39
0.041492976 0.045697361 0.20900001 9.5908664e-39
0.042574212 0.045649309 0.20900001 9.2220853e-39
0.04341517 0.045649305 0.20900001 9.1298897e-39
0.044424322 0.045649305 0.20900001 9.0380542e-39
0.045601666 0.045649309 0.20900001 9.1302484e-39
0.046375342 0.045582026 0.20900002 9.4068339e-39
0.047115389 0.045312922 0.20900001 9.6834208e-39
0.041464143 0.046591181 0.20900002 8.9458558e-39
0.042574212 0.04665846 0.20900001 8.7614645e-39
0.043415166 0.04665846 0.20900001 8.6692703e-39
0.044424322 0.046658456 0.20900001 8.9458572e-39
0.045601666 0.04665846 0.20900001 8.9458558e-39
0.046106238 0.046322074 0.20900001 9.130247e-39
0.041464143 0.047533054 0.20900002 8.9458558e-39
0.042574212 0.047499418 0.20900001 8.5770732e-39
0.04341517 0.047499418 0.20900001 8.4848776e-39
0.044424322 0.047499418 0.20900001 8.6692689e-39
0.045433473 0.047331225 0.20900001 8.7614645e-39
0.041396867 0.04834038 0.20900001 8.8536629e-39
0.042574212 0.04834038 0.20900001 8.9458572e-39
0.043415166 0.04834038 0.20900001 9.0380528e-39
0.044256128 0.048340376 0.20900001 8.8536601e-39
0.04049984 0.0492374 0.20900001 8.7614673e-39
0.041396867 0.049181338 0.20900001 8.6692717e-39
0.042574212 0.049181335 0.20900001 8.9458586e-39
0.043415166 0.049181338 0.20900001 9.0380542e-39
0.044087935 0.049181335 0.20900001 8.761826e-39
0.03960282 0.050582934 0.20900001 8.8536629e-39
0.040387712 0.050358683 0.20900001 8.6689115e-39
0.041396864 0.050358679 0.20900001 8.577076e-39
0.042574212 0.050358683 0.20900001 8.8536629e-39
0.043303039 0.05013442 0.20900001 8.8536629e-39
0.038436688 0.051435106 0.20900002 8.9458586e-39
0.039546758 0.051367827 0.20900001 8.6692717e-39
0.040387712 0.05136783 0.20900001 8.3923261e-39
0.041396867 0.05136783 0.20900001 8.5767173e-39
0.042574212 0.05136783 0.20900001 8.6692717e-39
0.043078784 0.051704213 0.20900001 8.7614673e-39
0.037472386 0.052264854 0.20900001 8.7614673e-39
0.038369413 0.052208792 0.20900001 8.8536629e-39
0.039546758 0.052208789 0.20900001 8.4848804e-39
0.040387712 0.052208789 0.20900001 8.3001304e-39
0.041396867 0.052208792 0.20900001 8.4845203e-39
0.042574212 0.052208789 0.20900001 8.4848804e-39
0.043415166 0.052208789 0.20900001 8.6692717e-39
0.037360258 0.053386133 0.20900001 8.392682e-39
0.038369413 0.053386126 0.20900001 8.4855979e-39
0.039546758 0.053386133 0.20900001 8.1168168e-39
0.040387712 0.053386126 0.20900001 8.116458e-39
0.041396864 0.053386133 0.20900001 8.1164566e-39
0.042574212 0.053386133 0.20900001 8.3926848e-39
0.04341517 0.053386133 0.20900001 8.6692717e-39
0.04417203 0.053470228 0.20900001 8.4848804e-39
0.036687493 0.054395285 0.20900001 8.5767131e-39
0.037360258 0.054395288 0.20900001 8.392682e-39
0.038369413 0.054395285 0.20900001 8.3934009e-39
0.039546758 0.054395288 0.20900001 8.3008479e-39
0.040387712 0.054395288 0.20900001 8.2086537e-39
0.041396867 0.054395285 0.20900001 8.3923247e-39
0.042574212 0.054395288 0.20900001 8.3004892e-39
0.043415166 0.054395288 0.20900001 8.577076e-39
0.044256128 0.054395288 0.20900001 8.5767159e-39
0.037360258 0.055068053 0.20900001 8.4845175e-39
0.038369413 0.055068057 0.20900001 8.4848776e-39
0.039546758 0.055236246 0.20900001 8.392682e-39
0.040387712 0.055236246 0.20900001 8.3926848e-39
0.041396867 0.055236239 0.20900001 8.6689115e-39
0.042574212 0.055236243 0.20900001 8.3919659e-39
0.043415166 0.055236243 0.20900001 8.5767173e-39
0.044357043 0.055202611 0.20900002 8.8529441e-39
0.038705796 0.05674997 0.20900001 8.3004892e-39
0.039580397 0.056480862 0.20900002 8.3926848e-39
0.040387712 0.056413587 0.20900001 8.3926848e-39
0.041396864 0.056413591 0.20900001 8.4848804e-39
0.042540573 0.056346308 0.20900002 8.3004892e-39
0.043078784 0.056077205 0.20900001 8.3926848e-39
0.038369413 0.057422739 0.20900001 8.0235407e-39
0.039546758 0.057422735 0.20900001 8.3004892e-39
0.040387712 0.057422735 0.20900001 8.3926848e-39
0.041396867 0.057422739 0.20900001 8.3004892e-39
0.042406019 0.057086352 0.20900001 8.2082935e-39
0.038436688 0.058230061 0.20900002 7.9309864e-39
0.039546758 0.058263697 0.20900001 8.2079334e-39
0.040387712 0.058263697 0.20900001 8.300129e-39
0.041228674 0.058263697 0.20900001 8.2082935e-39
0.038705796 0.059272848 0.20900001 8.1153776e-39
0.039546758 0.059272848 0.20900001 8.2075733e-39
0.040387712 0.059272848 0.20900001 8.2075733e-39
0.041060481 0.059104655 0.20900001 8.3919659e-39
0.047283582 0.059777424 0.20900001 9.2217238e-39
0.048460927 0.059441041 0.20900001 9.0373325e-39
0.049133692 0.059777424 0.20900001 8.4841587e-39
0.047115389 0.060113806 0.20900001 8.9451369e-39
0.042742401 0.062468495 0.20900001 8.0231806e-39
0.043415166 0.062636688 0.20900001 8.0231806e-39
0.04431219 0.062524557 0.20900001 8.2075719e-39
0.043751553 0.063141264 0.20900001 8.0231806e-39
0.044087935 0.063141264 0.20900001 8.2075719e-39
0.020639354 -0.0092251748 0.21000001 1.5395231e-38
0.049706776 -0.0058452417 0.21000001 9.3117586e-39
0.049199786 0.0049705422 0.21000001 1.4524767e-38
0.045312863 0.0086884676 0.21000001 1.124751e-38
0.045312863 0.0090264603 0.21000001 1.1339705e-38
0.049537778 0.011730406 0.21000001 1.5531727e-38
0.050720755 0.01105442 0.21000001 1.4515416e-38
0.048016809 0.012744386 0.21000001 1.2609193e-38
0.048016809 0.013420373 0.21000001 1.2517718e-38
0.032807112 0.014772346 0.21000001 1.2077633e-38
0.033483095 0.014772346 0.21000001 1.1893242e-38
0.04598885 0.01409636 0.21000001 1.0969844e-38
0.048354805 0.01409636 0.21000001 1.4896429e-38
0.049284287 0.01460335 0.21000001 1.5533151e-38
0.054438684 0.014772346 0.21000001 1.3778204e-38
0.032807112 0.01511034 0.21000001 1.2077633e-38
0.033483095 0.01511034 0.21000001 1.1893242e-38
0.047678817 0.015786326 0.21000001 1.3254194e-38
0.04818581 0.01561733 0.21000001 1.3060801e-38
0.049143452 0.015673662 0.20999999 1.4888502e-38
0.055452663 0.015448333 0.21000001 1.3226828e-38
0.056128651 0.015786326 0.21000001 1.2401028e-38
0.05714263 0.015786326 0.21000001 1.1483393e-38
0.058832597 0.015448333 0.21000001 1.1758545e-38
0.046664838 0.016462313 0.21000001 1.0600339e-38
0.047340825 0.016462313 0.21000001 1.2156493e-38
0.048354805 0.016462313 0.21000001 1.4161382e-38
0.04936878 0.016631309 0.21000002 1.4246014e-38
0.050270099 0.016687641 0.20999999 1.4060542e-38
0.049368784 0.017476292 0.21000002 1.3513486e-38
0.050382763 0.017476292 0.21000001 1.387867e-38
0.051058751 0.017476292 0.21000001 1.387831e-38
0.049368784 0.018490272 0.21000002 1.3428129e-38
0.050382763 0.018490272 0.21000002 1.3606039e-38
0.051227748 0.018490272 0.21000002 1.3695717e-38
0.05207273 0.018828265 0.21000001 1.3052867e-38
0.04936878 0.019673249 0.21000002 1.4090418e-38
0.050382763 0.019673247 0.21000001 1.2604125e-38
0.051227748 0.019673247 0.21000001 1.2321786e-38
0.048354805 0.020349234 0.21000001 1.068928e-38
0.049368784 0.020349236 0.21000002 1.4744797e-38
0.050382759 0.020349234 0.21000001 1.1972446e-38
0.051227745 0.020349234 0.21000001 1.0399006e-38
0.047678817 0.021701209 0.21000001 9.1266429e-39
0.048185807 0.02153221 0.21000002 9.0337256e-39
0.049368784 0.021532213 0.21000002 9.2188329e-39
0.050382763 0.021532213 0.21000002 8.8489728e-39
0.051058751 0.021532213 0.20999999 8.2021685e-39
0.047678817 0.022715189 0.21000001 9.4961527e-39
0.048185807 0.022715189 0.21000001 9.1273702e-39
0.049368784 0.022715187 0.21000002 8.5745579e-39
0.050382763 0.022715189 0.21000001 8.1139385e-39
0.047340825 0.023391174 0.21000001 9.4972345e-39
0.04818581 0.023391172 0.21000001 9.128452e-39
0.04936878 0.023391174 0.21000002 8.6674738e-39
0.050044768 0.023391174 0.21000001 8.4830826e-39
0.04598885 0.024912143 0.21000001 1.0695778e-38
0.046529643 0.024641749 0.21000001 1.0142604e-38
0.047340825 0.024574148 0.21000002 9.7741815e-39
0.04818581 0.024574148 0.21000002 9.4057577e-39
0.049368784 0.024574151 0.21000002 9.0376969e-39
0.045763522 0.025813458 0.20999999 1.0511386e-38
0.04649584 0.025757127 0.21000001 1.0326995e-38
0.047340821 0.025757127 0.21000001 1.0142604e-38
0.048185807 0.025757127 0.21000001 1.0050408e-38
0.049301185 0.025723327 0.21000001 9.5905091e-39
0.069986373 0.025588131 0.21000001 9.4090045e-39
0.044974871 0.026602108 0.21000001 1.0326995e-38
0.045650855 0.02643311 0.21000001 1.0419191e-38
0.04649584 0.02643311 0.21000001 1.0326995e-38
0.047340825 0.026433112 0.21000001 1.0326995e-38
0.048185807 0.026433112 0.21000001 1.02348e-38
0.049199786 0.026433112 0.21000001 9.6827047e-39
0.044839673 0.027683685 0.21000001 1.0603941e-38
0.045650855 0.027616089 0.21000002 1.0327715e-38
0.04649584 0.027616089 0.21000002 9.9592916e-39
0.047340825 0.027616085 0.21000002 9.9592916e-39
0.048185807 0.027616085 0.21000002 1.0050768e-38
0.049030788 0.027278095 0.21000001 1.0050408e-38
0.044805869 0.028799063 0.21000001 1.0511384e-38
0.045650855 0.028799063 0.21000001 1.0326992e-38
0.04649584 0.028799063 0.21000001 9.9582112e-39
0.047340825 0.028799064 0.21000001 9.7745416e-39
0.048129473 0.028742731 0.20999999 9.7749004e-39
0.043960892 0.029644048 0.21000001 1.0695778e-38
0.044805873 0.029475052 0.21000001 1.0419189e-38
0.045650858 0.029475052 0.21000001 1.0419188e-38
0.04649584 0.029475052 0.21000001 9.7745374e-39
0.047340825 0.029475052 0.21000001 9.7745402e-39
0.048016809 0.029306054 0.21000001 9.7749004e-39
0.043960888 0.030658027 0.20999999 9.5905091e-39
0.044805873 0.030658029 0.21000002 9.5905091e-39
0.045650855 0.030658029 0.21000002 9.5905091e-39
0.04649584 0.030658027 0.21000002 9.5905091e-39
0.047171824 0.030573528 0.21000001 9.5905091e-39
0.075506933 0.030883357 0.20999999 1.0238039e-38
0.043791894 0.031672008 0.21000001 9.867096e-39
0.044805873 0.031672008 0.21000001 9.5905091e-39
0.045650855 0.031672008 0.21000001 9.4983135e-39
0.04649584 0.031672008 0.21000001 9.2217266e-39
0.075732261 0.031672008 0.21000001 9.315367e-39
0.076408252 0.031672008 0.21000001 9.316446e-39
0.042721581 0.032573324 0.20999999 9.9582112e-39
0.0436229 0.032347996 0.21000002 9.9589315e-39
0.044805869 0.032347996 0.21000002 9.5905091e-39
0.045650855 0.032347996 0.21000002 9.4061179e-39
0.046411343 0.032263495 0.21000001 9.129531e-39
0.042608917 0.033530969 0.21000001 1.0418828e-38
0.043622896 0.033530969 0.21000002 1.0419188e-38
0.044805873 0.033530969 0.21000001 9.4979533e-39
0.045650855 0.033530969 0.21000001 9.3139222e-39
0.046326842 0.033699967 0.21000001 9.129531e-39
0.042608917 0.034206957 0.21000001 1.1063478e-38
0.043622896 0.034206957 0.21000002 1.078761e-38
0.044805869 0.034206957 0.21000001 9.7738186e-39
0.045650858 0.034206957 0.21000001 9.4053962e-39
0.046326842 0.034037959 0.21000001 9.2217238e-39
0.041848432 0.035474431 0.21000001 1.1708845e-38
0.042608917 0.035389934 0.21000002 1.1433337e-38
0.0436229 0.03538993 0.21000002 1.0419185e-38
0.044805873 0.035389934 0.21000002 9.8660156e-39
0.045650858 0.03538993 0.21000002 9.590149e-39
0.046326842 0.03538993 0.20999999 9.4983121e-39
0.041763932 0.036572911 0.21000001 1.2261659e-38
0.042608917 0.036572911 0.21000001 1.078725e-38
0.043622896 0.036572907 0.21000002 9.8660156e-39
0.044805873 0.036572911 0.21000001 9.866017e-39
0.045650855 0.036572911 0.21000001 9.7738214e-39
0.04649584 0.036572907 0.21000001 9.6823446e-39
0.04091895 0.037248895 0.21000001 1.1894321e-38
0.041763932 0.037248895 0.21000001 1.1893599e-38
0.042608917 0.037248895 0.21000001 1.0695055e-38
0.043622896 0.037248895 0.21000002 9.77382e-39
0.044805869 0.037248895 0.21000001 9.7738214e-39
0.045650858 0.037248895 0.21000001 9.5897888e-39
0.04649584 0.037248895 0.21000001 9.4061179e-39
0.040677525 0.038480159 0.21000002 1.0419188e-38
0.041763932 0.038431872 0.21000002 1.0050405e-38
0.042608917 0.038431872 0.21000002 9.7741787e-39
0.0436229 0.038431868 0.21000002 9.5901462e-39
0.044805873 0.038431872 0.21000002 9.5905063e-39
0.045650855 0.038431872 0.21000002 9.1295282e-39
0.046326842 0.038262874 0.21000001 9.0373325e-39
0.039904971 0.039783843 0.21000001 1.0050405e-38
0.040580954 0.039614845 0.21000002 9.8660142e-39
0.041763932 0.039614845 0.21000001 9.6827019e-39
0.042608917 0.039614849 0.21000001 9.3139208e-39
0.0436229 0.039614845 0.21000002 9.2224455e-39
0.044805869 0.039614849 0.21000001 9.4990323e-39
0.045538191 0.039558515 0.20999999 9.591228e-39
0.039566979 0.040290833 0.21000001 1.0234797e-38
0.040580958 0.040290833 0.21000002 9.8660142e-39
0.041763932 0.040290833 0.21000001 9.5905063e-39
0.042608917 0.040290833 0.21000001 9.3139208e-39
0.043622896 0.040290833 0.21000002 9.314281e-39
0.044805869 0.040290833 0.21000001 9.4068367e-39
0.038806491 0.04155831 0.21000001 9.8667373e-39
0.039566975 0.04147381 0.21000002 1.0327714e-38
0.040580958 0.04147381 0.21000002 9.7741801e-39
0.041763932 0.04147381 0.21000002 9.4050389e-39
0.042608917 0.04147381 0.21000002 9.3132034e-39
0.043622896 0.04147381 0.21000002 9.6827047e-39
0.044636875 0.04147381 0.20999999 9.4990323e-39
0.072436824 0.041727304 0.21000001 8.2082935e-39
0.038620595 0.042690586 0.21000001 9.4061179e-39
0.039566979 0.042656787 0.21000001 9.6827047e-39
0.040580958 0.04265679 0.21000002 9.4983135e-39
0.041763932 0.042656787 0.21000001 9.4061179e-39
0.042608917 0.042656787 0.21000001 9.2217266e-39
0.0436229 0.04265679 0.21000002 9.4983135e-39
0.072183333 0.042487789 0.21000001 8.1160979e-39
0.038552996 0.043332774 0.21000002 9.2217266e-39
0.039566979 0.043332774 0.21000001 9.4061179e-39
0.040580958 0.04333277 0.21000002 9.4061179e-39
0.041763932 0.04333277 0.21000001 9.4061179e-39
0.042608917 0.04333277 0.21000001 9.774899e-39
0.043397564 0.04327644 0.20999999 9.9592916e-39
0.037403822 0.04458335 0.21000001 9.4057577e-39
0.038552996 0.044515751 0.21000002 9.2217266e-39
0.039566979 0.044515755 0.21000002 9.0373353e-39
0.040580958 0.044515755 0.21000002 9.0373353e-39
0.041763932 0.044515748 0.21000002 9.4061179e-39
0.042270925 0.044346754 0.21000001 9.6827047e-39
0.037370019 0.045698725 0.21000001 9.5905063e-39
0.038552999 0.045698721 0.21000002 9.3139194e-39
0.039566979 0.045698725 0.21000001 9.1295282e-39
0.040580958 0.045698721 0.21000002 9.2217238e-39
0.037370019 0.046374716 0.21000001 9.3139194e-39
0.038552996 0.046374712 0.21000002 9.3139194e-39
0.039566979 0.046374712 0.21000001 9.3139194e-39
0.04041196 0.046374712 0.21000001 9.2217238e-39
0.036637705 0.047783017 0.20999999 9.3142782e-39
0.037370022 0.047557693 0.21000002 9.130247e-39
0.038552996 0.047557689 0.21000002 9.0380514e-39
0.039566975 0.047557693 0.21000002 9.3146383e-39
0.04053871 0.047515437 0.21000002 9.1302484e-39
0.03584905 0.048740663 0.21000001 9.0373325e-39
0.036525041 0.048740663 0.21000001 9.0376913e-39
0.037370019 0.048740666 0.21000001 9.130247e-39
0.038552996 0.048740666 0.21000002 9.0380542e-39
0.039566979 0.048740663 0.21000001 9.0380542e-39
0.04041196 0.048740666 0.21000001 8.8536629e-39
0.035680056 0.049416654 0.21000001 9.0373325e-39
0.036525037 0.049416654 0.21000001 9.0373325e-39
0.037370019 0.049416654 0.21000001 9.406115e-39
0.038552996 0.04941665 0.21000002 9.0380542e-39
0.039566979 0.04941665 0.21000001 9.1302498e-39
0.040242963 0.049247656 0.21000001 8.9458586e-39
0.034497079 0.050937623 0.21000001 9.1295282e-39
0.035553306 0.050641876 0.21000002 9.0373325e-39
0.036525041 0.050599631 0.21000002 9.0373325e-39
0.037370019 0.050599631 0.21000002 9.3139194e-39
0.038552999 0.050599635 0.21000002 9.0380528e-39
0.039454311 0.050374299 0.20999999 9.0380528e-39
0.034384415 0.05172627 0.20999999 9.313918e-39
0.035511058 0.05161361 0.21000002 8.7607456e-39
0.036525041 0.051613607 0.21000001 8.8533014e-39
0.037370019 0.051613607 0.21000001 9.0376927e-39
0.038215004 0.051275615 0.21000001 9.3139194e-39
0.034384415 0.052402258 0.20999999 9.3139194e-39
0.035511058 0.052458595 0.21000002 8.5763544e-39
0.036525041 0.052458588 0.21000001 8.4848804e-39
0.037201025 0.052289594 0.21000001 8.7614673e-39
0.034497079 0.053641569 0.20999999 8.7607456e-39
0.035511058 0.053641569 0.21000002 8.4841587e-39
0.036525037 0.053641573 0.21000002 8.4848776e-39
0.034328081 0.054655552 0.21000001 8.3919645e-39
0.035511058 0.054655552 0.21000002 8.3919645e-39
0.036187045 0.054655552 0.21000001 8.3923233e-39
0.034328081 0.055331536 0.21000001 8.3919659e-39
0.035578657 0.055466734 0.21000001 8.3919659e-39
0.036412377 0.0554442 0.20999999 8.4841602e-39
0.037539016 0.055669531 0.21000001 8.5763544e-39
0.038552999 0.055669531 0.20999999 8.5767131e-39
0.03584905 0.056345515 0.21000001 8.6685528e-39
0.036412373 0.056570847 0.20999999 8.5763572e-39
0.037201025 0.056345515 0.21000001 8.4841616e-39
0.038620595 0.056480713 0.21000001 8.4841602e-39
0.039228983 0.056345515 0.21000001 8.5763544e-39
0.036637705 0.057246834 0.20999999 8.3919631e-39
0.037313689 0.057246834 0.20999999 8.1153762e-39
0.038383998 0.057021502 0.21000001 8.2997675e-39
0.036637705 0.058148146 0.20999999 7.930985e-39
0.037370019 0.058373477 0.21000002 7.930985e-39
0.038215004 0.058711469 0.21000001 8.0231834e-39
0.037370019 0.059556451 0.21000001 7.9309864e-39
0.038383998 0.059556451 0.21000001 8.1160965e-39
0.037539016 0.06006344 0.21000001 8.2075719e-39
0.038327668 0.060176104 0.20999999 8.2997675e-39
0.047678817 0.060401436 0.21000001 9.0373325e-39
0.048016809 0.061077423 0.21000001 8.5763544e-39
0.049264271 -0.0058730762 0.21100001 8.9451341e-39
0.050283078 -0.0045146653 0.21100001 1.004572e-38
0.051301885 0.0036358002 0.21100001 1.5899054e-38
0.051301885 0.0049942113 0.21100001 1.5896183e-38
0.045358837 0.0083902385 0.21100001 1.1155314e-38
0.045189038 0.0094090467 0.21100001 1.1339705e-38
0.045189038 0.010597656 0.21100001 1.1063481e-38
0.044509832 0.011786265 0.21100001 1.0971286e-38
0.045189038 0.01110706 0.21100001 1.0971286e-38
0.050283078 0.011786265 0.21100001 1.5715754e-38
0.051301885 0.01110706 0.21100001 1.4422141e-38
0.044509832 0.012125868 0.21100001 1.0971286e-38
0.048585065 0.012635272 0.21100001 1.4895357e-38
0.045528639 0.013823883 0.21100001 1.0878727e-38
0.048585065 0.013654081 0.21100001 1.5080101e-38
0.050283078 0.014842691 0.21100001 1.5624265e-38
0.045358837 0.015861498 0.21100001 1.1063478e-38
