# .PCD v0.7 - Point Cloud Data file format
VERSION 0.7
FIELDS x y z rgb
SIZE 4 4 4 4
TYPE F F F F
COUNT 1 1 1 1
WIDTH 977
HEIGHT 1
VIEWPOINT 0 0 0 1 0 0 0
POINTS 977
DATA ascii
0.035217766 0.065818131 0.22200002 9.8688967e-39
0.036396883 0.065782405 0.22200003 9.7767024e-39
0.028736446 0.066473529 0.223 1.0236597e-38
0.029274821 0.066473529 0.223 1.0052206e-38
0.030448392 0.066483267 0.22283335 1.0236596e-38
0.031546343 0.066473082 0.22225001 9.868175e-39
0.032716617 0.066532746 0.22200002 9.9607294e-39
0.033431228 0.066532746 0.22200002 1.0236597e-38
0.034503151 0.066532746 0.22200002 1.0052568e-38
0.035217766 0.066532746 0.22200002 9.8685379e-39
0.036111034 0.066354096 0.22200002 9.8692568e-39
0.028556988 0.067370817 0.223 1.014404e-38
0.029274821 0.067370817 0.223 1.0052203e-38
0.030206794 0.067486122 0.22220001 1.0052206e-38
0.031466041 0.067604676 0.22200002 1.01444e-38
0.032716617 0.067604676 0.22200002 9.7756192e-39
0.033431228 0.067604676 0.22200002 1.0052206e-38
0.034503151 0.067604676 0.22200002 9.8685365e-39
0.035039112 0.067604676 0.22200002 9.8685379e-39
0.028616806 0.068327926 0.223 1.0051484e-38
0.029355759 0.068385534 0.22280002 1.0051846e-38
0.030215465 0.068497941 0.22200002 1.0328434e-38
0.031466041 0.068497948 0.22200002 1.0052206e-38
0.032716617 0.068497941 0.22200002 1.0052206e-38
0.033431228 0.068497941 0.22200002 9.868175e-39
0.034443598 0.068378836 0.22200002 9.8681764e-39
0.036825649 0.068855248 0.22200002 9.8685379e-39
0.037540261 0.068855248 0.22200002 9.5926699e-39
0.025649762 0.069524318 0.223 1.0144039e-38
0.028613117 0.069470428 0.22260001 9.591228e-39
0.029442923 0.069512084 0.22214289 9.7752605e-39
0.030215465 0.069569856 0.22200002 1.0143683e-38
0.031466041 0.069569856 0.22200002 9.8678149e-39
0.032716617 0.069569856 0.22200002 9.8678149e-39
0.033431228 0.069569863 0.22200002 9.9600105e-39
0.034324497 0.069569863 0.22200002 1.0052206e-38
0.036825649 0.069212556 0.22200002 9.8685379e-39
0.026463306 0.07072071 0.223 9.0376955e-39
0.027480237 0.070959985 0.223 9.3146411e-39
0.028428929 0.070820436 0.22200002 9.4068367e-39
0.029500851 0.070820436 0.22200002 9.8678149e-39
0.030215465 0.070820436 0.22200002 9.5908692e-39
0.031466041 0.070820436 0.22200002 9.6827047e-39
0.032716617 0.070820436 0.22200002 9.7759794e-39
0.033431228 0.070820436 0.22200002 9.6837837e-39
0.034324497 0.070820436 0.22200002 9.5919468e-39
0.026582945 0.071498364 0.223 8.8536629e-39
0.027538555 0.071418002 0.22275001 9.2224455e-39
0.028428929 0.071356393 0.22200002 9.4068367e-39
0.029500851 0.071356393 0.22200002 9.7756192e-39
0.030215465 0.071356393 0.22200002 9.4990323e-39
0.031466041 0.071356393 0.22200002 9.5915881e-39
0.032716617 0.071356393 0.22200002 9.5001113e-39
0.033431228 0.071356393 0.22200002 9.5001113e-39
0.026941862 0.072575107 0.223 9.4983121e-39
0.027556064 0.072482422 0.22216667 9.6827033e-39
0.028428927 0.072428316 0.22200002 9.7748976e-39
0.02946512 0.072356857 0.22200003 9.6827033e-39
0.030215465 0.072249666 0.22200002 9.5908678e-39
0.031510703 0.07238365 0.22200002 9.5912266e-39
0.032680888 0.072356857 0.22200003 9.1313288e-39
0.033371676 0.072190113 0.22200002 9.0391332e-39
0.026941862 0.073292941 0.223 1.014368e-38
0.027535662 0.073500238 0.22200002 1.0236234e-38
0.028428929 0.073500238 0.22200002 9.7756164e-39
0.029500851 0.073500238 0.22200002 9.4990295e-39
0.026941862 0.074369691 0.223 1.0512461e-38
0.027596872 0.074561052 0.22250001 9.7752563e-39
0.028428929 0.074393511 0.22200002 9.5912252e-39
0.029500851 0.074393511 0.22200002 9.4068339e-39
0.027596872 0.075456336 0.22250001 9.2224427e-39
0.028250275 0.075286776 0.22200002 9.4990295e-39
0.042925831 -0.021737549 0.22400001 1.6554125e-38
0.042745568 -0.019934919 0.22400001 1.8208989e-38
0.043646883 -0.019574393 0.22400001 1.8208624e-38
0.044127584 -0.019574393 0.22400002 1.5902292e-38
0.045449514 -0.018492814 0.22400001 1.525728e-38
0.046891619 -0.018132288 0.22400001 1.5260521e-38
0.038960043 -0.017771762 0.22400001 1.710156e-38
0.039560918 -0.017531412 0.22400002 1.7102275e-38
0.040522322 -0.01729106 0.22400002 1.8117161e-38
0.041483726 -0.01705071 0.22400001 1.774838e-38
0.042385042 -0.01705071 0.22400001 1.6822107e-38
0.046891619 -0.017771762 0.22400001 1.6737096e-38
0.047252145 -0.017411236 0.22400001 1.6367235e-38
0.049295127 -0.01729106 0.22400002 1.3968342e-38
0.040582411 -0.01650992 0.22400001 1.7100131e-38
0.041483726 -0.016690183 0.22400001 1.6822466e-38
0.042565305 -0.01650992 0.22399999 1.6079503e-38
0.043646883 -0.016329657 0.22400001 1.6079142e-38
0.047612671 -0.016690183 0.22400001 1.7477185e-38
0.048694249 -0.016690183 0.22400001 1.4795227e-38
0.049235038 -0.016690183 0.22400001 1.5073972e-38
0.039500833 -0.015608605 0.22400001 1.6916455e-38
0.040402148 -0.015969131 0.22400001 1.7097613e-38
0.042745568 -0.015608605 0.22400001 1.6363632e-38
0.043646883 -0.015608605 0.22400001 1.6270003e-38
0.042805657 -0.014767378 0.22400002 1.645799e-38
0.043646883 -0.014887553 0.22400001 1.6639145e-38
0.044007409 -0.014527027 0.22400001 1.6549108e-38
0.042925831 -0.013805974 0.22400001 1.663736e-38
0.043646883 -0.013445448 0.22400001 1.7467121e-38
0.044187676 -0.013445449 0.22399999 1.645189e-38
0.045088988 -0.013625711 0.22400001 1.5896555e-38
0.050136354 -0.013805974 0.22400001 1.4429334e-38
0.038960043 -0.012724395 0.22400001 1.6549837e-38
0.044187672 -0.012363869 0.22400001 1.5991632e-38
0.038960043 -0.01128229 0.22400001 1.6174935e-38
0.044367936 -0.011462553 0.22400001 1.5254424e-38
0.050136354 -0.01128229 0.22400001 1.4337141e-38
0.038599517 -0.010561238 0.22400001 1.6451877e-38
0.040402148 -0.010200712 0.22400001 1.5896185e-38
0.041844252 -0.010200712 0.22400001 1.5158267e-38
0.042204779 -0.010200712 0.22400001 1.4790564e-38
0.044367936 -0.010561238 0.22400001 1.4423223e-38
0.045088988 -0.010561238 0.22400001 1.2679782e-38
0.047612671 -0.010200712 0.22400001 1.4431499e-38
0.037878465 -0.0094796596 0.22400001 1.5714312e-38
0.040402148 -0.0096599227 0.22400001 1.5712154e-38
0.044367936 -0.0094796596 0.22400001 1.4150226e-38
0.045269251 -0.0096599227 0.22400001 1.3047117e-38
0.047252145 -0.0094796596 0.22400001 1.406128e-38
0.037517939 -0.0082178181 0.22400001 1.4884917e-38
0.040402148 -0.0083980812 0.22400002 1.4881322e-38
0.047252145 -0.0087586073 0.22400001 1.3416274e-38
0.037517939 -0.0073165027 0.22400001 1.4148078e-38
0.039681096 -0.0073165027 0.22400001 1.3871847e-38
0.044367936 -0.0073165027 0.22400001 1.3320471e-38
0.047612671 -0.0073165027 0.22400001 1.3876886e-38
0.037638113 -0.00659545 0.22400002 1.3596702e-38
0.038960043 -0.0064151874 0.22400001 1.405768e-38
0.039320569 -0.0067757135 0.22400001 1.3873288e-38
0.044223722 -0.0066675558 0.22400001 1.258435e-38
0.045269251 -0.0065954509 0.22399999 1.2953491e-38
0.048333723 -0.0062349248 0.22400001 1.2403198e-38
0.037157413 -0.0055138725 0.22400001 1.3136444e-38
0.038960043 -0.0053336094 0.22400001 1.3045329e-38
0.039320569 -0.0051533463 0.22400001 1.2861658e-38
0.044367936 -0.0053336094 0.22400001 1.2311003e-38
0.045269251 -0.0053336094 0.22400001 1.2310282e-38
0.038960043 -0.0044322941 0.22400001 1.1667074e-38
0.039320569 -0.0047928202 0.22400001 1.2034416e-38
0.044367936 -0.0047928202 0.22400001 1.2311003e-38
0.045269251 -0.0047928202 0.22400001 1.2218087e-38
0.035535045 -0.0033507156 0.22400001 1.2126247e-38
0.036075834 -0.0033507156 0.22400001 1.1850022e-38
0.038719695 -0.0035910662 0.22400002 1.1299372e-38
0.038599517 -0.0029901895 0.22400001 1.1207895e-38
0.036075834 -0.001548085 0.22400001 1.0657239e-38
0.067441605 0.034504525 0.22400001 1.2450018e-38
0.060952134 0.03594663 0.22400001 1.1251472e-38
0.061673187 0.03594663 0.22400001 1.1159277e-38
0.062213972 0.035766367 0.22400001 1.115928e-38
0.063475817 0.035766367 0.22399999 1.0790497e-38
0.064557396 0.035586104 0.22399999 1.1159638e-38
0.065458708 0.035586104 0.22399999 1.1713172e-38
0.066540286 0.035766367 0.22400001 1.2358181e-38
0.067225292 0.035513997 0.22400001 1.300391e-38
0.068162657 0.035225578 0.22400001 1.2635126e-38
0.060771871 0.036307156 0.22400001 1.1343668e-38
0.061673187 0.036307156 0.22400001 1.1343671e-38
0.062213976 0.036307156 0.22400001 1.1251475e-38
0.063475817 0.036307156 0.22400002 1.0790856e-38
0.064557396 0.036307156 0.22400001 1.0791216e-38
0.065458715 0.036307156 0.22400001 1.1067084e-38
0.066540286 0.036307156 0.22400001 1.1067083e-38
0.060636673 0.037433803 0.22399999 1.1067803e-38
0.061673183 0.037388735 0.22400002 1.115964e-38
0.062213976 0.037388738 0.22399999 1.1159638e-38
0.063430756 0.037343666 0.22399999 1.069902e-38
0.064437218 0.037148383 0.22400002 1.069902e-38
0.065458715 0.037028208 0.22400001 1.069902e-38
0.068667397 0.037460841 0.22400001 9.9610965e-39
0.06972494 0.037629087 0.22400002 1.0144767e-38
0.059630204 0.038710665 0.22400002 1.1252194e-38
0.060591608 0.038650576 0.22399999 1.1159998e-38
0.061673187 0.038650576 0.22400001 1.0975607e-38
0.062033713 0.038470313 0.22400001 1.0883412e-38
0.069785029 0.038470313 0.22400001 1.0330238e-38
0.058668803 0.039431717 0.22400002 1.1252194e-38
0.05951003 0.039371628 0.22400001 1.1159998e-38
0.060591608 0.039371628 0.22399999 1.0975607e-38
0.056866169 0.040873822 0.22400002 1.1343671e-38
0.057563193 0.040705573 0.22400001 1.1343671e-38
0.058608714 0.04063347 0.22399999 1.1251834e-38
0.059510034 0.04063347 0.22399999 1.1067803e-38
0.060351256 0.040393118 0.22400002 1.0791216e-38
0.055904768 0.041715048 0.22400001 1.1343671e-38
0.056806084 0.041715048 0.22400001 1.1804649e-38
0.057527136 0.041715048 0.22400001 1.1343671e-38
0.058608714 0.041715048 0.22400001 1.1343671e-38
0.059149504 0.041715048 0.22400001 1.1251475e-38
0.05434249 0.042676449 0.22400002 1.1435866e-38
0.055544242 0.042436104 0.22400001 1.1251475e-38
0.056806087 0.042436104 0.22399999 1.1343671e-38
0.057527136 0.042436104 0.22399999 1.1251475e-38
0.058548629 0.042195749 0.22400002 1.1343671e-38
0.053621437 0.043758031 0.22400002 1.0606466e-38
0.054282401 0.043697942 0.22400001 1.0790497e-38
0.055544242 0.043697938 0.22399999 1.1251475e-38
0.05680608 0.043697942 0.22400001 1.1251475e-38
0.057527136 0.043517679 0.22400001 1.0974888e-38
0.052539859 0.044719432 0.22400002 1.1251474e-38
0.053561345 0.044599257 0.22400001 1.0975246e-38
0.054282404 0.044599257 0.22400001 1.1620256e-38
0.055472136 0.044527151 0.22400001 1.1159277e-38
0.056625821 0.044238731 0.22400001 1.1067803e-38
0.051698636 0.045560658 0.22400002 1.1712089e-38
0.052479774 0.045500573 0.22400001 1.1344025e-38
0.05350126 0.045440484 0.22400002 1.0974885e-38
0.050857406 0.046401888 0.22400001 1.2725521e-38
0.051578458 0.046401888 0.22400001 1.2448932e-38
0.052479774 0.046401888 0.22400001 1.143622e-38
0.053381085 0.046401888 0.22400001 1.088269e-38
0.050677143 0.047303207 0.22400001 1.1987237e-38
0.051578458 0.047303207 0.22400001 1.1987598e-38
0.052479774 0.047303203 0.22400001 1.1251474e-38
0.048513986 0.048925571 0.22400001 1.1343668e-38
0.049235038 0.048745312 0.22400001 1.1251472e-38
0.050496876 0.048565045 0.22400001 1.0974525e-38
0.051578458 0.048565045 0.22399999 1.088233e-38
0.052299511 0.048565045 0.22400002 1.0974885e-38
0.047432408 0.049286097 0.22400001 1.1343668e-38
0.048513986 0.049286097 0.22400001 1.1343668e-38
0.049235038 0.049286097 0.22400001 1.1159277e-38
0.05049688 0.049286097 0.22400002 1.0791213e-38
0.051578458 0.049286097 0.22400001 1.0699017e-38
0.045629777 0.050547943 0.22400001 1.1434785e-38
0.046531092 0.050367679 0.22399999 1.1066002e-38
0.047432408 0.050367672 0.22399999 1.1619176e-38
0.048513982 0.050367672 0.22399999 1.1251472e-38
0.049235035 0.050367679 0.22399999 1.0974885e-38
0.050445378 0.050264668 0.22399999 1.0790496e-38
0.051217932 0.05000715 0.22400001 1.0790494e-38
0.044367936 0.05180978 0.22400001 1.2264901e-38
0.045449514 0.051629517 0.22399999 1.2818075e-38
0.046531092 0.051629521 0.22400001 1.2633684e-38
0.047432408 0.051629521 0.22400001 1.1895759e-38
0.048513986 0.051629521 0.22400001 1.1159277e-38
0.049235038 0.051449254 0.22400001 1.0790494e-38
0.042925831 0.052530833 0.22400001 1.152698e-38
0.043646883 0.05235057 0.22400001 1.1343669e-38
0.044187672 0.052350566 0.22400001 1.1435505e-38
0.045449514 0.05235057 0.22399999 1.2724442e-38
0.046531092 0.052350566 0.22400001 1.2171268e-38
0.047252145 0.052170306 0.22400001 1.1895044e-38
0.041603904 0.053852763 0.22400002 1.1435866e-38
0.042565301 0.053612415 0.22400001 1.1527343e-38
0.043646883 0.053612411 0.22400002 1.1251475e-38
0.044151619 0.053540308 0.22400001 1.1251475e-38
0.045359384 0.053342015 0.22400001 1.152734e-38
0.056806084 0.053432148 0.22400001 1.0791219e-38
0.040762674 0.054693989 0.22400001 1.152698e-38
0.041483726 0.054693989 0.22400001 1.1434786e-38
0.042565305 0.054693986 0.22400002 1.1250756e-38
0.043646883 0.054693989 0.22400001 1.1251475e-38
0.039560918 0.05565539 0.22400002 1.2173429e-38
0.040582415 0.055415045 0.22399999 1.1343308e-38
0.041483726 0.055415038 0.22399999 1.1251472e-38
0.042445127 0.055294868 0.22399999 1.1251114e-38
0.038839865 0.056736972 0.22400002 1.1435864e-38
0.039500833 0.056676883 0.22400001 1.1434785e-38
0.040582411 0.056676883 0.22400001 1.1250393e-38
0.041363552 0.056616794 0.22400002 1.1066362e-38
0.03643636 0.057938725 0.22400001 1.1434066e-38
0.037608072 0.057758462 0.22400001 1.1158558e-38
0.03877978 0.057578199 0.22400001 1.1250756e-38
0.039500833 0.057578199 0.22400001 1.1343311e-38
0.040522322 0.057458024 0.22400002 1.1158559e-38
0.033552147 0.058659777 0.22400001 1.0697576e-38
0.034513552 0.058539599 0.22400002 1.0974162e-38
0.035535045 0.058479514 0.22400001 1.1342588e-38
0.036256097 0.05847951 0.22400001 1.1250033e-38
0.037517939 0.058479514 0.22399999 1.0974167e-38
0.03877978 0.058299251 0.22400001 1.0882693e-38
0.039320569 0.058299251 0.22400001 1.0974888e-38
0.032560699 0.059561089 0.22400001 1.0881967e-38
0.033552147 0.059380829 0.22400001 1.1066359e-38
0.034453463 0.059380829 0.22400001 1.1619532e-38
0.035535045 0.059380829 0.22400001 1.1250392e-38
0.036256097 0.059380829 0.22400001 1.0974167e-38
0.037157413 0.059020303 0.22400001 1.0881611e-38
0.029946888 0.060462408 0.22400001 1.0973444e-38
0.03066794 0.060282145 0.22400001 1.0973444e-38
0.031208728 0.060282148 0.22400001 1.0881608e-38
0.032470569 0.060282145 0.22399999 1.0789771e-38
0.033552147 0.060282145 0.22400001 1.0974162e-38
0.034453463 0.060282148 0.22400001 1.1158196e-38
0.035474956 0.060222059 0.22400002 1.1066002e-38
0.029631428 0.061589055 0.22399999 1.0789052e-38
0.03066794 0.061543986 0.22400002 1.0789052e-38
0.031208729 0.061543986 0.22399999 1.0697218e-38
0.032470569 0.061543986 0.22400001 1.069722e-38
0.033552147 0.061543986 0.22399999 1.0789415e-38
0.034393374 0.061303634 0.22400002 1.0789773e-38
0.027783731 0.062986091 0.22400001 1.0881248e-38
0.028504783 0.062625565 0.22400001 1.0880888e-38
0.029586362 0.062625565 0.22399999 1.042027e-38
0.03066794 0.062625565 0.22400001 1.0696857e-38
0.031208728 0.062625565 0.22400001 1.0605021e-38
0.032380439 0.062445302 0.22400001 1.069722e-38
0.026702153 0.063707143 0.22400001 1.0604658e-38
0.027603468 0.063526884 0.22400001 1.0789052e-38
0.028504783 0.063526884 0.22400001 1.0881248e-38
0.029514257 0.06349083 0.22400001 1.0881248e-38
0.03066794 0.063346617 0.22400001 1.1619532e-38
0.031028466 0.063346617 0.22400001 1.1342945e-38
0.0259811 0.064788722 0.22400001 1.0512463e-38
0.026521889 0.064428195 0.22400001 1.0512463e-38
0.027603468 0.064428195 0.22400001 1.0420986e-38
0.028384609 0.064308017 0.22400002 1.0605377e-38
0.025800837 0.065329507 0.22400001 1.0420267e-38
0.026521889 0.065329507 0.22400001 1.0328071e-38
0.027603468 0.065329507 0.22400001 1.032843e-38
0.028144257 0.065149248 0.22400001 1.0420986e-38
0.024779348 0.066831701 0.22400002 9.9592916e-39
0.025800837 0.066591352 0.22399999 1.0235879e-38
0.026521891 0.066591352 0.22399999 1.0143683e-38
0.027603468 0.066591352 0.22399999 1.0143683e-38
0.028144257 0.066591352 0.22400002 1.0143681e-38
0.024538996 0.067312405 0.22400002 9.9592888e-39
0.025800837 0.067312405 0.22400001 9.9592888e-39
0.026521889 0.067312405 0.22400001 1.014368e-38
0.027603468 0.067312405 0.22400001 1.014368e-38
0.022736363 0.068754509 0.22400001 9.9582098e-39
0.023313206 0.06846609 0.22400001 9.9589287e-39
0.024538996 0.068393975 0.22400001 9.9592888e-39
0.025800839 0.068393983 0.22399999 9.8670932e-39
0.026521889 0.068393983 0.22399999 9.7748976e-39
0.02760347 0.068393983 0.22399999 1.0051484e-38
0.028144257 0.068393983 0.22400001 1.0235876e-38
0.022736363 0.069475561 0.22400001 9.7738186e-39
0.023277152 0.069475561 0.22400001 9.4979505e-39
0.024538996 0.069565691 0.22400001 9.8670932e-39
0.025620574 0.069475561 0.22400001 1.0328071e-38
0.027603468 0.069475561 0.22400001 9.3146397e-39
0.024719259 0.070376873 0.22400001 9.6830621e-39
0.02574075 0.070436962 0.22400002 1.0052203e-38
0.024899522 0.071458459 0.22400001 9.4983107e-39
0.025800837 0.071638726 0.22399999 9.4061164e-39
0.0259811 0.072720297 0.22400001 8.9451397e-39
0.026341626 0.072720297 0.22400001 8.9451397e-39
0.0259811 0.073441349 0.22400002 9.5905063e-39
0.026341626 0.073441349 0.22400002 9.7748976e-39
0.0259811 0.074703187 0.22400001 1.0789041e-38
0.026341626 0.074703187 0.22400001 1.0695769e-38
0.026581978 0.075484328 0.22400002 9.6827005e-39
0.013362683 0.077407137 0.22400001 1.0511381e-38
0.014444262 0.077407137 0.22399999 1.032699e-38
0.015165314 0.077767663 0.22400001 1.0050403e-38
0.013362683 0.078128189 0.22400001 9.7738158e-39
0.014372157 0.078272395 0.22400001 9.7730969e-39
0.043479599 -0.022558862 0.22500001 1.6645251e-38
0.044686716 -0.020144626 0.22500001 1.5713221e-38
0.04480743 -0.019541064 0.22500001 1.5529551e-38
0.045290276 -0.019661777 0.22500001 1.5623536e-38
0.046014547 -0.019299641 0.22500001 1.5261944e-38
0.046376687 -0.01857537 0.22500001 1.5075763e-38
0.047583804 -0.018333947 0.22500001 1.4703385e-38
0.048368432 -0.018213235 0.22500001 1.4243481e-38
0.04927377 -0.018213235 0.22500001 1.3968334e-38
0.047825228 -0.017488964 0.22500001 1.4615518e-38
0.048368432 -0.017488964 0.22500001 1.4427161e-38
0.04927377 -0.017851099 0.22500001 1.405909e-38
0.039737526 -0.016402557 0.22500001 1.7101204e-38
0.048187364 -0.016764693 0.22500001 1.6550184e-38
0.038409699 -0.013143335 0.22500001 1.7102654e-38
0.044928141 -0.013143335 0.22500001 1.5806521e-38
0.050722312 -0.013867607 0.22500001 1.4152747e-38
0.03913397 -0.012056929 0.22500001 1.6919698e-38
0.044928141 -0.011332657 0.22500001 1.5069311e-38
0.044747073 -0.010246251 0.22500001 1.3962964e-38
0.045290276 -0.010246251 0.22500001 1.2954207e-38
0.046195615 -0.010246251 0.22500001 1.1945813e-38
0.047583804 -0.010487675 0.22500001 1.3971959e-38
0.040944651 -0.0097030476 0.22500001 1.589655e-38
0.041487854 -0.0098841153 0.22500001 1.5528488e-38
0.04257426 -0.0098841153 0.22500001 1.4515419e-38
0.043298531 -0.0098841153 0.22500001 1.4606535e-38
0.044475473 -0.0097935814 0.22500001 1.4239189e-38
0.046376687 -0.0097030476 0.22500001 1.2954927e-38
0.047463089 -0.0098841153 0.22500001 1.4154192e-38
0.036961157 -0.0084355725 0.22500001 1.4886355e-38
0.037685428 -0.008797708 0.22500001 1.516258e-38
0.043479599 -0.0082545048 0.22500001 1.4239192e-38
0.044611271 -0.0083903056 0.22500001 1.4242426e-38
0.045290276 -0.0084355725 0.22500001 1.3968356e-38
0.046376679 -0.0084355725 0.22500001 1.3413027e-38
0.040220376 -0.0073491656 0.22500001 1.4146636e-38
0.043479599 -0.0073491656 0.22500001 1.3778573e-38
0.044566005 -0.0073491656 0.22500001 1.3503784e-38
0.045290276 -0.0073491656 0.22500001 1.3597058e-38
0.046376687 -0.0073491656 0.22500001 1.3689255e-38
0.047463089 -0.0073491656 0.22500001 1.3508104e-38
0.036961157 -0.0062627592 0.22500001 1.2859858e-38
0.037685428 -0.0069870302 0.22500001 1.3688179e-38
0.039767705 -0.0065343608 0.22500001 1.3597061e-38
0.040220376 -0.0066248947 0.22500001 1.3596339e-38
0.043479599 -0.0069870302 0.22500001 1.3319752e-38
0.04420387 -0.0062627592 0.22500001 1.2309563e-38
0.046105079 -0.0067154285 0.22500001 1.3322272e-38
0.047825228 -0.0069870302 0.22500001 1.359922e-38
0.036599021 -0.0055384878 0.22500001 1.2859858e-38
0.039737526 -0.0054177758 0.22500001 1.2953134e-38
0.040220376 -0.0053574201 0.22500001 1.2677266e-38
0.04420387 -0.0053574201 0.22500001 1.2495034e-38
0.046195615 -0.0053574201 0.22500001 1.2219167e-38
0.047644161 -0.0053574201 0.22500001 1.1392648e-38
0.039737526 -0.004331369 0.22500001 1.1483043e-38
0.040220376 -0.0048142164 0.22500001 1.194222e-38
0.044747073 -0.0040899455 0.22500001 1.1483763e-38
0.045290276 -0.0040899455 0.22500001 1.1392286e-38
0.046304256 -0.004524508 0.22499999 1.1760708e-38
0.033701934 -0.0037278098 0.22500001 1.31368e-38
0.039496105 -0.0037278098 0.22500001 1.1115699e-38
0.036236886 -0.0022792672 0.22500001 1.0932028e-38
0.036236886 -0.0019171316 0.22500001 1.0840551e-38
0.03913397 -0.0017360637 0.22500001 9.9229167e-39
0.039224505 -0.00046858919 0.22500001 9.2800683e-39
0.064845599 0.033934295 0.22500001 1.2081955e-38
0.065750942 0.033934295 0.22500001 1.2358542e-38
0.060741395 0.034537856 0.22500001 1.1436225e-38
0.061344955 0.034537856 0.22500001 1.088341e-38
0.062491722 0.034658566 0.22500001 1.1344387e-38
0.063397057 0.034477498 0.22500001 1.1620614e-38
0.064483464 0.034477498 0.22500001 1.1528781e-38
0.065750942 0.034477498 0.22500001 1.2266346e-38
0.066294149 0.034477498 0.22500001 1.2542933e-38
0.067199484 0.034658566 0.22500001 1.2450737e-38
0.060681041 0.035563905 0.22500001 1.1250395e-38
0.061405312 0.035563905 0.22500001 1.1067083e-38
0.062491722 0.035382837 0.22500001 1.1067084e-38
0.063397057 0.035382837 0.22500001 1.1067084e-38
0.064121328 0.035382837 0.22500001 1.0974888e-38
0.066294149 0.035382837 0.22500001 1.2450737e-38
0.06701842 0.035382837 0.22500001 1.3096107e-38
0.059775703 0.036288176 0.22500001 1.1528059e-38
0.060620684 0.036227819 0.22500001 1.1528059e-38
0.057783958 0.037917785 0.22500001 1.1159996e-38
0.058327161 0.037736718 0.22500001 1.1344388e-38
0.059458837 0.037600916 0.22500001 1.1252193e-38
0.060499974 0.037193514 0.22500001 1.1252194e-38
0.057602894 0.038642056 0.22500001 1.1252194e-38
0.058327161 0.038642056 0.22500001 1.1252194e-38
0.059232499 0.038642056 0.22500001 1.1252194e-38
0.055550788 0.039607752 0.22500001 1.1528059e-38
0.056335416 0.039366331 0.22500001 1.1435866e-38
0.05760289 0.039366327 0.22500001 1.1159998e-38
0.058327161 0.039185263 0.22500001 1.134439e-38
0.059051432 0.039004192 0.22500001 1.1252194e-38
0.054585088 0.040694162 0.22500001 1.2265261e-38
0.055430077 0.040633805 0.22500001 1.1436221e-38
0.056335412 0.040633805 0.22500001 1.1251474e-38
0.057421822 0.040452737 0.22500001 1.1343671e-38
0.05374011 0.041659858 0.22500001 1.2265264e-38
0.054524738 0.041539144 0.22500001 1.2080872e-38
0.055430077 0.041539144 0.22500001 1.1435864e-38
0.056154348 0.041177008 0.22500001 1.1343671e-38
0.047644161 0.042987686 0.22500001 1.1896119e-38
0.051627651 0.042987686 0.22500001 1.1067084e-38
0.052750271 0.042697977 0.22499999 1.1435865e-38
0.053619396 0.04262555 0.22500001 1.1528061e-38
0.054464381 0.042384129 0.22500001 1.1435865e-38
0.047463089 0.043711957 0.22500001 1.1711372e-38
0.050722312 0.043711957 0.22500001 1.1251475e-38
0.051446583 0.043711957 0.22500001 1.1252194e-38
0.052714057 0.043711957 0.22500001 1.1252194e-38
0.05325726 0.043711957 0.22500001 1.1252194e-38
0.047644161 0.04425516 0.22500001 1.0789415e-38
0.048428789 0.044315517 0.22500001 9.7749046e-39
0.049635906 0.044255164 0.22500001 9.0362605e-39
0.050722312 0.04425516 0.22500001 1.0328078e-38
0.051446587 0.044255156 0.22500001 1.1251834e-38
0.0526537 0.044194803 0.22500001 1.1344031e-38
0.047734696 0.045613166 0.22500001 1.0881614e-38
0.048368435 0.045522634 0.22500001 1.1066005e-38
0.049635906 0.04552263 0.22500001 1.0882693e-38
0.050722312 0.045522634 0.22500001 1.1159277e-38
0.051325873 0.04540192 0.22500001 1.1343308e-38
0.044747073 0.046971176 0.22500001 1.1620255e-38
0.045290276 0.046971176 0.22500001 1.1343668e-38
0.04644911 0.046681467 0.22499999 1.1251475e-38
0.047644161 0.04660904 0.22500001 1.0974169e-38
0.048368432 0.04660904 0.22500001 1.1803569e-38
0.049635906 0.04660904 0.22500001 1.2450014e-38
0.050722312 0.04660904 0.22500001 1.2909911e-38
0.043358888 0.047574732 0.22500001 1.1711372e-38
0.044566005 0.047514379 0.22500001 1.1435504e-38
0.045290276 0.047514379 0.22500001 1.1343308e-38
0.046376687 0.047514379 0.22500001 1.1435505e-38
0.047644161 0.047514379 0.22500001 1.115928e-38
0.048368432 0.047514379 0.22500001 1.1803929e-38
0.049635906 0.047514379 0.22500001 1.2816637e-38
0.042634618 0.048661143 0.22500001 1.1619176e-38
0.043298531 0.048600785 0.22500001 1.1619176e-38
0.044566005 0.048600789 0.22500001 1.1342589e-38
0.045290276 0.048600785 0.22500001 1.1342229e-38
0.046376687 0.048600789 0.22500001 1.1526622e-38
0.047644161 0.048600789 0.22500001 1.1158201e-38
0.048368432 0.048600789 0.22500001 1.1067084e-38
0.049454838 0.048419718 0.22500001 1.1435504e-38
0.041668922 0.04932506 0.22500001 1.1896123e-38
0.04257426 0.049325064 0.22500001 1.1619536e-38
0.043298528 0.049325064 0.22500001 1.1435504e-38
0.044566005 0.049325064 0.22500001 1.1343308e-38
0.045290276 0.04932506 0.22500001 1.1711372e-38
0.046376687 0.04932506 0.22500001 1.1619176e-38
0.047644161 0.049143992 0.22500001 1.1342589e-38
0.040944651 0.05095467 0.22500001 1.1159277e-38
0.041487854 0.050592538 0.22500001 1.1342948e-38
0.04257426 0.050592531 0.22500001 1.1435864e-38
0.043298528 0.050592538 0.22500001 1.1343668e-38
0.044566005 0.050592534 0.22500001 1.0790137e-38
0.045290276 0.050230399 0.22500001 1.1711372e-38
0.046014547 0.050230399 0.22500001 1.0512828e-38
0.040944651 0.051678941 0.22500001 1.1252191e-38
0.041487854 0.051678941 0.22500001 1.1344028e-38
0.04257426 0.051678941 0.22500001 1.1343668e-38
0.043298531 0.051678941 0.22500001 1.1159277e-38
0.044384938 0.051678941 0.22500001 1.152734e-38
0.039858241 0.052765347 0.22500001 1.1804646e-38
0.040582515 0.052403212 0.22500001 1.1620255e-38
0.041487854 0.052403212 0.22500001 1.235782e-38
0.04257426 0.052403212 0.22500001 1.1619176e-38
0.043238174 0.052161787 0.22500001 1.1251112e-38
0.04420387 0.052041076 0.22500001 1.1620258e-38
0.039568532 0.053706896 0.22499999 1.1435504e-38
0.040582515 0.053670689 0.22500001 1.1435504e-38
0.041427497 0.053610329 0.22500001 1.1435865e-38
0.036961157 0.05493816 0.22500001 1.1434066e-38
0.037685428 0.05493816 0.22500001 1.1710653e-38
0.038288984 0.054696739 0.22500001 1.1250755e-38
0.039496105 0.054576024 0.22500001 1.1067083e-38
0.040461805 0.05445531 0.22500001 1.1435504e-38
0.032977663 0.055662431 0.22500001 1.1157479e-38
0.033520866 0.055662431 0.22500001 1.0973088e-38
0.034607276 0.055662431 0.22500001 1.0973088e-38
0.035512615 0.055481359 0.22500001 1.0789415e-38
0.036599021 0.055481363 0.22500001 1.1342589e-38
0.037685428 0.055481363 0.22500001 1.152698e-38
0.038228631 0.055481363 0.22500001 1.1250755e-38
0.039423678 0.055445146 0.22499999 1.1528059e-38
0.031770546 0.056507412 0.22500001 1.1158554e-38
0.032796595 0.056386702 0.22500001 1.1711369e-38
0.033520866 0.056386702 0.22500001 1.2540412e-38
0.034607276 0.056386702 0.22500001 1.2264544e-38
0.035512615 0.056386702 0.22500001 1.2356738e-38
0.036599021 0.056386698 0.22500001 1.208051e-38
0.037685428 0.056386702 0.22500001 1.1434785e-38
0.038228631 0.056386702 0.22500001 1.1159277e-38
0.03913397 0.056024566 0.22500001 1.2265624e-38
0.030442715 0.05729204 0.22500001 1.1434422e-38
0.031529121 0.05729204 0.22500001 1.1342226e-38
0.032796595 0.05729204 0.22500001 1.1341866e-38
0.033520866 0.057292037 0.22500001 1.1893961e-38
0.034607276 0.05729204 0.22500001 1.3553482e-38
0.035512615 0.05729204 0.22500001 1.2631527e-38
0.036599021 0.05729204 0.22500001 1.1802845e-38
0.037685428 0.05729204 0.22500001 1.1434786e-38
0.038047563 0.057110973 0.22500001 1.1342589e-38
0.029718444 0.058921654 0.22500001 1.1065639e-38
0.030261645 0.058559518 0.22500001 1.1157836e-38
0.031529121 0.058559518 0.22500001 1.1250751e-38
0.032796595 0.058559518 0.22500001 1.1158554e-38
0.033520866 0.058378451 0.22500001 1.1066358e-38
0.034546923 0.058318093 0.22500001 1.1157116e-38
0.035512615 0.058197383 0.22500001 1.1709572e-38
0.036236886 0.058197383 0.22500001 1.1709574e-38
0.029718444 0.059283789 0.22500001 1.0973444e-38
0.030261647 0.059283789 0.22500001 1.1157835e-38
0.031529121 0.059283789 0.22500001 1.1158554e-38
0.032615528 0.059283789 0.22500001 1.0974162e-38
0.025191747 0.060732331 0.22500001 1.106456e-38
0.026459223 0.060732331 0.22500001 1.106456e-38
0.02766634 0.060611621 0.22500001 1.0787973e-38
0.028450968 0.060551263 0.22500001 1.0972365e-38
0.02957359 0.060442619 0.22499999 1.0973444e-38
0.030201292 0.060128774 0.22500001 1.0973444e-38
0.031348053 0.06000806 0.22500001 1.0974162e-38
0.023924273 0.061818738 0.22500001 1.1065639e-38
0.024648543 0.06163767 0.22500001 1.1065639e-38
0.025191749 0.06163767 0.22500001 1.0881248e-38
0.026459223 0.06163767 0.22500001 1.0789052e-38
0.027545629 0.06163767 0.22500001 1.1342226e-38
0.028450968 0.06163767 0.22500001 1.1526617e-38
0.029356308 0.061456602 0.22500001 1.0881248e-38
0.023562139 0.062361941 0.22500001 1.0512465e-38
0.024648543 0.062361941 0.22500001 1.0696857e-38
0.025191747 0.062361944 0.22500001 1.0881248e-38
0.026459223 0.062361941 0.22500001 1.0789052e-38
0.027545629 0.062361944 0.22500001 1.1341866e-38
0.028450968 0.062180873 0.22500001 1.1618813e-38
0.022548158 0.063701846 0.22499999 1.0511385e-38
0.023562139 0.063629419 0.22500001 9.8663771e-39
0.024648542 0.063629419 0.22500001 1.0696138e-38
0.025191747 0.063629419 0.22500001 1.0696138e-38
0.026413955 0.063584156 0.22500001 1.042027e-38
0.027183494 0.063267283 0.22500001 1.0881248e-38
0.021751458 0.064715825 0.22500001 1.0695775e-38
0.022475731 0.064715825 0.22500001 1.0326994e-38
0.023562139 0.064715825 0.22500001 1.0973085e-38
0.024648543 0.064715825 0.22500001 1.1803201e-38
0.025191747 0.064715825 0.22500001 1.1157832e-38
0.026097087 0.064715825 0.22500001 1.0604658e-38
0.021606604 0.065512523 0.22499999 1.0511744e-38
0.022475729 0.065440096 0.22500001 1.0420267e-38
0.023562139 0.065440089 0.22500001 1.0789051e-38
0.024648542 0.065440096 0.22500001 1.0973083e-38
0.025101211 0.065349564 0.22500001 1.0789051e-38
0.02157039 0.066707566 0.22500001 1.014368e-38
0.022475731 0.066707566 0.22500001 1.0420268e-38
0.023562139 0.066707566 0.22500001 1.0328071e-38
0.024648543 0.066707566 0.22500001 1.0143681e-38
0.025010679 0.066526502 0.22500001 1.0235879e-38
0.020665051 0.067612909 0.22500001 1.0050405e-38
0.02157039 0.067431845 0.22500001 1.0142601e-38
0.022475731 0.067431837 0.22500001 1.0603579e-38
0.02348971 0.067395627 0.22499999 1.0419188e-38
0.021630747 0.068457894 0.22500001 1.0142601e-38
0.022475731 0.068518251 0.22500001 1.0511384e-38
0.023200002 0.06833718 0.22500001 1.0326992e-38
0.022113595 0.069061451 0.22500001 1.0326992e-38
0.023803562 0.070751421 0.22500001 9.7748976e-39
0.023743205 0.071777463 0.22500001 9.7748976e-39
0.024648543 0.071777463 0.22500001 9.6827019e-39
0.023924273 0.07232067 0.22500001 9.6827019e-39
0.024648543 0.07232067 0.22500001 9.3139194e-39
0.023924271 0.073407076 0.22500001 9.2217238e-39
0.025372816 0.074131347 0.22500001 9.6827019e-39
0.045491569 -0.019385418 0.22600001 1.534911e-38
0.038944155 -0.017202947 0.22600001 1.682497e-38
0.0393079 -0.017202947 0.22600001 1.7009362e-38
0.0393079 -0.01665733 0.22600001 1.7195556e-38
0.050220255 -0.014656732 0.22600001 1.4522606e-38
0.051493362 -0.013929241 0.22600001 1.2864524e-38
0.038762283 -0.011564897 0.22600001 1.6730988e-38
0.046946548 -0.010473662 0.22600001 1.2590826e-38
0.041490372 -0.0095642991 0.22600001 1.6173498e-38
0.036761682 -0.0084730638 0.22600001 1.4886355e-38
0.043309096 -0.008109319 0.22600001 1.4607614e-38
0.044036586 -0.0088368095 0.22600001 1.424063e-38
0.037125427 -0.007381829 0.22600001 1.3964043e-38
0.040762879 -0.0071999561 0.22600001 1.3963324e-38
0.043309096 -0.007381829 0.22600001 1.405516e-38
0.046946548 -0.0070180837 0.22600001 1.341375e-38
0.047310293 -0.0070180837 0.22600001 1.3598141e-38
0.040762879 -0.006472466 0.22600001 1.35967e-38
0.043672841 -0.0062905937 0.22600001 1.3044968e-38
0.046704054 -0.00653309 0.22600001 1.3138963e-38
0.048037782 -0.0066543384 0.22600001 1.3047126e-38
0.040762879 -0.0053812307 0.22600001 1.2861657e-38
0.043672841 -0.0053812307 0.22600001 1.2678703e-38
0.046946548 -0.0053812307 0.22600001 1.1484842e-38
0.040641632 -0.0043506199 0.22600001 1.1207175e-38
0.044036586 -0.0048356131 0.22600001 1.2495394e-38
0.036397938 -0.0030168875 0.22600001 1.1575235e-38
0.0393079 -0.0033806327 0.22600001 1.1299372e-38
0.040217262 -0.0037443778 0.22600001 1.0839472e-38
0.045491565 -0.0037443778 0.22600001 1.1024945e-38
0.058659136 0.03132065 0.22600003 1.1713169e-38
0.062951334 0.031538896 0.22600001 1.0513913e-38
0.063315079 0.031357024 0.22600001 1.1159281e-38
0.057858899 0.032266386 0.22600001 1.1804646e-38
0.058586389 0.032526199 0.22600004 1.1251833e-38
0.061860096 0.032993875 0.22600001 1.1805368e-38
0.062587589 0.032630131 0.22600003 1.2081953e-38
0.063460574 0.032702878 0.22600003 1.254293e-38
0.064406313 0.032993875 0.22600001 1.2265624e-38
0.061860096 0.033721369 0.22600001 1.1713172e-38
0.062587589 0.033721369 0.22600001 1.1528419e-38
0.063496947 0.033721369 0.22600001 1.1989037e-38
0.064588189 0.033721369 0.22600001 1.1989759e-38
0.065133803 0.033721369 0.22600001 1.2358542e-38
0.058659136 0.034667104 0.22600003 1.1712453e-38
0.059677627 0.034812603 0.22600001 1.2265627e-38
0.060041372 0.034812603 0.22600001 1.2081236e-38
0.061860096 0.034266986 0.22600001 1.0975606e-38
0.062587589 0.034266986 0.22600001 1.1251833e-38
0.063496947 0.034085114 0.22600001 1.1989037e-38
0.064588189 0.034085114 0.22600001 1.1897563e-38
0.058586389 0.035721965 0.22600003 1.1713169e-38
0.059677627 0.035721965 0.22600001 1.1435864e-38
0.060041372 0.035721965 0.22600001 1.1434785e-38
0.057858899 0.036631327 0.22600001 1.1343668e-38
0.058586389 0.036631327 0.22600003 1.1528059e-38
0.059677627 0.036631327 0.22600001 1.1435864e-38
0.056767665 0.037722565 0.22600001 1.1713172e-38
0.057495154 0.037540689 0.22600001 1.1344388e-38
0.058495454 0.037449755 0.22600001 1.1344388e-38
0.055676427 0.0388138 0.22600001 1.1804649e-38
0.056585796 0.038450055 0.22600001 1.152878e-38
0.05713141 0.03808631 0.22600001 1.1528778e-38
0.053857703 0.039541289 0.22600001 1.1435864e-38
0.05482769 0.039420042 0.22600001 1.1620255e-38
0.055433929 0.039298791 0.22600001 1.1712452e-38
0.051493362 0.040996268 0.22600001 1.1528059e-38
0.052220851 0.040814396 0.22600001 1.1343669e-38
0.053493962 0.04063252 0.22600004 1.1712451e-38
0.054706439 0.040390026 0.22600001 1.1620254e-38
0.04985651 0.041360013 0.22600001 1.2079791e-38
0.050402127 0.041360013 0.22600001 1.1988316e-38
0.051493362 0.041360013 0.22600001 1.1435864e-38
0.052220851 0.041360013 0.22600001 1.1251472e-38
0.053312086 0.041360013 0.22600001 1.189648e-38
0.046946548 0.042814996 0.22600001 1.1527336e-38
0.047310293 0.042633124 0.22600001 1.1342945e-38
0.048401523 0.04263312 0.22600003 1.1711727e-38
0.049492765 0.042451251 0.22600003 1.1803924e-38
0.050402123 0.042451251 0.22600003 1.171173e-38
0.051493362 0.042451251 0.22600003 1.1159277e-38
0.052184474 0.0423785 0.22600003 1.1159277e-38
0.053130213 0.042087507 0.22600001 1.1620255e-38
0.046825301 0.043663736 0.22600001 1.1618817e-38
0.048474275 0.043615233 0.22600003 1.171173e-38
0.049492765 0.043542486 0.22600001 1.1434785e-38
0.050341502 0.043421239 0.22600001 1.152734e-38
0.051311489 0.043178741 0.22600001 1.115928e-38
0.045855314 0.044451848 0.22600001 1.152698e-38
0.046764679 0.044451848 0.22600001 1.1711372e-38
0.047310293 0.04463372 0.22600001 1.1066002e-38
0.048219655 0.044269975 0.22600001 1.0512828e-38
0.044400331 0.045724954 0.22600001 1.1895763e-38
0.045491565 0.045543086 0.22600003 1.1803567e-38
0.046764676 0.045543082 0.22600001 1.1158199e-38
0.047310293 0.045543082 0.22600001 1.0605025e-38
0.0393079 0.046452448 0.22600001 1.208051e-38
0.040217262 0.046452448 0.22600001 1.1895401e-38
0.043551594 0.046331197 0.22600001 1.1711372e-38
0.044400331 0.046270572 0.22600001 1.1895763e-38
0.045491565 0.046270568 0.22600003 1.1711372e-38
0.046764676 0.046088699 0.22600001 1.134259e-38
0.038944155 0.047179937 0.22600001 1.2079791e-38
0.0393079 0.047543686 0.22600001 1.1895043e-38
0.040399134 0.047543678 0.22600004 1.2171991e-38
0.041672245 0.047543686 0.22600003 1.2448937e-38
0.042399734 0.047543678 0.22600003 1.1987958e-38
0.043430343 0.047301184 0.22600001 1.1619896e-38
0.044036586 0.047179937 0.22600001 1.1620255e-38
0.038944155 0.048816789 0.22600001 1.1895404e-38
0.0393079 0.048816789 0.22600001 1.2079794e-38
0.040399134 0.048816789 0.22600003 1.1987598e-38
0.041672245 0.048816789 0.22600001 1.2080154e-38
0.042217862 0.048634917 0.22600001 1.1711372e-38
0.038653158 0.049580656 0.22600003 1.2079795e-38
0.0393079 0.049544279 0.22600001 1.217235e-38
0.040399134 0.049544275 0.22600003 1.1619536e-38
0.041490372 0.049544279 0.22600001 1.1711732e-38
0.037489172 0.050635517 0.22600001 1.2357097e-38
0.03858041 0.050635513 0.22600003 1.1895401e-38
0.0393079 0.050635517 0.22600001 1.2080153e-38
0.040399134 0.050635517 0.22600003 1.1251472e-38
0.03657981 0.051908623 0.22600001 1.3279053e-38
0.0373073 0.051544879 0.22600001 1.2633684e-38
0.038580414 0.051544879 0.22600003 1.1896119e-38
0.0393079 0.051544879 0.22600001 1.1527338e-38
0.040217262 0.051544879 0.22600001 1.1436581e-38
0.034579214 0.052999862 0.22600001 1.1710653e-38
0.035524949 0.052708864 0.22600003 1.1619176e-38
0.03657981 0.052636117 0.22600003 1.3001749e-38
0.0373073 0.052636117 0.22600003 1.2448575e-38
0.03858041 0.052636117 0.22600004 1.1434785e-38
0.0393079 0.052636117 0.22600001 1.1803567e-38
0.040035389 0.052454241 0.22600001 1.1527699e-38
0.03094176 0.053727351 0.22600001 1.1803204e-38
0.031669252 0.053727351 0.22600001 1.1618457e-38
0.032214869 0.053727351 0.22600001 1.1434066e-38
0.033487976 0.053727347 0.22600001 1.1526261e-38
0.034579214 0.053727351 0.22600001 1.1710653e-38
0.035488576 0.053727351 0.22600001 1.1802848e-38
0.03657981 0.053727351 0.22600001 1.1802848e-38
0.0373073 0.053727351 0.22600001 1.1711011e-38
0.03858041 0.053727347 0.22600001 1.1434785e-38
0.030578015 0.054272968 0.22600003 1.1434422e-38
0.031669252 0.054272968 0.22600001 1.1618457e-38
0.032214869 0.054272965 0.22600001 1.1526261e-38
0.033487976 0.054272968 0.22600003 1.1249675e-38
0.034579214 0.054272968 0.22600001 1.1157479e-38
0.035488576 0.054272968 0.22600001 1.1434066e-38
0.03657981 0.054272965 0.22600001 1.1618457e-38
0.0373073 0.054272968 0.22600001 1.1526622e-38
0.038337912 0.054212343 0.22600001 1.1251472e-38
0.028638041 0.055788577 0.22600001 1.1342945e-38
0.029486781 0.055546075 0.22600003 1.1434422e-38
0.030578014 0.055546071 0.22600004 1.1434422e-38
0.031669252 0.055546075 0.22600001 1.1526259e-38
0.032214869 0.055546075 0.22600003 1.0880892e-38
0.033487976 0.055364206 0.22600003 1.0419554e-38
0.034579214 0.055364203 0.22600001 1.0418835e-38
0.035488576 0.05518233 0.22600001 9.6823488e-39
0.03657981 0.05518233 0.22600001 1.1157479e-38
0.027668055 0.056273568 0.22600001 1.1066358e-38
0.028577417 0.056273568 0.22600001 1.1342945e-38
0.029486779 0.056273568 0.22600001 1.1434782e-38
0.030578015 0.056273568 0.22600001 1.1618813e-38
0.031669252 0.056273568 0.22600001 1.1526617e-38
0.026940564 0.057728548 0.22600001 1.1617734e-38
0.027522558 0.05743755 0.22600003 1.1157475e-38
0.028577417 0.057364807 0.22600003 1.1434422e-38
0.029486781 0.057364803 0.22600003 1.125003e-38
0.030432517 0.057219304 0.22600003 1.1342226e-38
0.025849329 0.058819782 0.22600001 1.1248951e-38
0.026758691 0.05863791 0.22600001 1.1433343e-38
0.027486183 0.05863791 0.22600001 1.170993e-38
0.028577417 0.05863791 0.22600001 1.1617734e-38
0.029486779 0.05863791 0.22600001 1.1157475e-38
0.024394348 0.059547272 0.22600001 1.0695778e-38
0.025485583 0.059365395 0.22600003 1.106456e-38
0.026758691 0.059365399 0.22600001 1.1248951e-38
0.027486183 0.059365399 0.22600001 1.1433343e-38
0.028577417 0.059365399 0.22600001 1.1341147e-38
0.029123034 0.059365399 0.22600001 1.1157475e-38
0.022575622 0.06063851 0.22600001 1.1433343e-38
0.023545608 0.060517263 0.22600001 1.1248951e-38
0.024212476 0.060456641 0.22600001 1.1156756e-38
0.025485583 0.060456645 0.22600003 1.106456e-38
0.026758691 0.060456641 0.22600001 1.1156756e-38
0.027425557 0.060396016 0.22600001 1.1156756e-38
0.028577417 0.060274765 0.22600001 1.0880888e-38
0.029123034 0.060274765 0.22600001 1.0973444e-38
0.021848133 0.061365999 0.22600001 1.1156756e-38
0.02239375 0.061365999 0.22600001 1.106456e-38
0.023484984 0.061365999 0.22600001 1.1157116e-38
0.024151852 0.061244752 0.22600001 1.1249312e-38
0.021484388 0.062457234 0.22600003 1.0788331e-38
0.02239375 0.062457234 0.22600003 1.0880529e-38
0.023484984 0.062093489 0.22600001 1.0788692e-38
0.046946548 0.062820978 0.22600001 1.0329516e-38
0.021484386 0.063730344 0.22600001 1.0696135e-38
0.022211878 0.063548468 0.22600001 1.0604658e-38
0.020756897 0.064275958 0.22600001 1.0603579e-38
0.021484386 0.064275958 0.22600001 1.0603579e-38
0.020635648 0.065245949 0.22600001 1.0511384e-38
0.021120641 0.065185323 0.22600001 1.0695775e-38
0.020635648 0.067428418 0.22600001 1.0327351e-38
0.023303112 0.071914606 0.22600001 9.7748976e-39
0.022454374 0.072520845 0.22600001 9.6827019e-39
0.023424359 0.072520845 0.22600001 9.7748976e-39
0.022575622 0.073369585 0.22600001 9.5905063e-39
0.023484984 0.073551461 0.22600001 9.406115e-39
0.023545608 0.074218325 0.22600001 9.3139194e-39
0.039116472 -0.016183002 0.22700001 1.7841649e-38
0.038751118 -0.012894811 0.22700001 1.6918619e-38
0.037472378 -0.0096066194 0.22700001 1.5162216e-38
0.036193635 -0.0086932331 0.22700001 1.4884197e-38
0.0413086 -0.0086932331 0.22700001 1.5434494e-38
0.043135375 -0.0085105551 0.22700001 1.5345898e-38
0.037289701 -0.0070491373 0.22700001 1.3411592e-38
0.0413086 -0.0074144918 0.22700001 1.4422144e-38
0.037289701 -0.0066837827 0.22700001 1.322792e-38
0.0413086 -0.0065011056 0.22700001 1.3965837e-38
0.047519632 -0.0064097666 0.22700001 1.2679424e-38
0.036193635 -0.0055877189 0.22700001 1.3044249e-38
0.0413086 -0.0054050414 0.22700001 1.2863093e-38
0.047519632 -0.0055877189 0.22700001 1.1576677e-38
0.0413086 -0.0048570097 0.22700001 1.1942939e-38
0.034732219 -0.0033955912 0.22700001 1.2768737e-38
0.039725397 -0.0031520214 0.22700001 1.1023864e-38
0.040760569 -0.0033955912 0.22700001 1.0747637e-38
0.039664507 -0.0022995274 0.22700001 1.0381734e-38
0.040577892 -0.0022995274 0.22700001 1.0566125e-38
0.039847184 -0.0017514955 0.22700001 9.9229167e-39
0.039847184 -0.00083810906 0.22700001 9.4637406e-39
0.062255602 0.030825958 0.22700001 1.1989037e-38
0.057457279 0.03153231 0.22700003 1.2080514e-38
0.05848027 0.031678449 0.22700001 1.1713169e-38
0.059576333 0.031313095 0.22700001 1.1528778e-38
0.062426101 0.031459235 0.22700003 1.0882693e-38
0.057311136 0.032628376 0.22700003 1.2633328e-38
0.061768461 0.032774515 0.22700001 1.1252194e-38
0.062133815 0.032591838 0.22700001 1.134439e-38
0.057627779 0.03338344 0.22700001 1.1988317e-38
0.05848027 0.03313987 0.22700001 1.0974885e-38
0.061768461 0.03313987 0.22700001 1.1528781e-38
0.055922788 0.03460129 0.22700001 1.1896122e-38
0.056288142 0.03460129 0.22700001 1.1896123e-38
0.057384208 0.034601286 0.22700003 1.1619896e-38
0.05848027 0.034418609 0.22700001 1.0974885e-38
0.055922788 0.035697352 0.22700001 1.2173429e-38
0.056288142 0.035697352 0.22700001 1.2081233e-38
0.057384208 0.035697352 0.22700001 1.1620255e-38
0.055922788 0.036245383 0.22700001 1.1989037e-38
0.056288142 0.036245383 0.22700001 1.1804646e-38
0.057311136 0.036208846 0.22700003 1.1528059e-38
0.055679217 0.03764591 0.22700001 1.1712452e-38
0.056288142 0.037524123 0.22700001 1.1620256e-38
0.057140633 0.037280556 0.22700001 1.1712451e-38
0.050807822 0.038985543 0.22700001 1.2080154e-38
0.051416744 0.038741972 0.22700001 1.1987958e-38
0.05245192 0.038985543 0.22700001 1.1526983e-38
0.053730659 0.038985543 0.22700001 1.0697222e-38
0.054339584 0.038741972 0.22700001 1.1251115e-38
0.055484362 0.038547117 0.22700003 1.1620255e-38
0.04971176 0.039716251 0.22700001 1.1896842e-38
0.050625145 0.039533574 0.22700001 1.1896122e-38
0.051538531 0.039533574 0.22700001 1.1895763e-38
0.052634597 0.039533574 0.22700001 1.1343668e-38
0.053730659 0.039533574 0.22700001 1.1158559e-38
0.05427869 0.039350897 0.22700001 1.1158919e-38
0.048981048 0.040812317 0.22700001 1.3647117e-38
0.049529083 0.04062964 0.22700001 1.3370889e-38
0.050625145 0.04062964 0.22700001 1.235674e-38
0.051538531 0.04062964 0.22700001 1.1803929e-38
0.05245192 0.040446963 0.22700001 1.1435866e-38
0.047884986 0.041543026 0.22700001 1.1527336e-38
0.048798371 0.041360348 0.22700001 1.2079431e-38
0.049468189 0.041299459 0.22700001 1.3001745e-38
0.050625145 0.041177671 0.22700001 1.2172707e-38
0.046423566 0.042639088 0.22700001 1.1619532e-38
0.047519635 0.042395517 0.22700001 1.1527336e-38
0.048798371 0.042273734 0.22700001 1.1711727e-38
0.044596795 0.043735154 0.22700001 1.1803567e-38
0.045571074 0.043491583 0.22700001 1.152662e-38
0.046240889 0.0433698 0.22700001 1.1526979e-38
0.040760569 0.044831216 0.22700001 1.3000668e-38
0.0413086 0.044648539 0.22700001 1.3278334e-38
0.042404667 0.044648539 0.22700001 1.2264541e-38
0.043500733 0.044465866 0.22700001 1.1711729e-38
0.044414118 0.044465858 0.22700001 1.1619175e-38
0.045510177 0.044465866 0.22700001 1.1250393e-38
0.046058211 0.044100508 0.22700001 1.152698e-38
0.038385764 0.045927279 0.22700001 1.1988314e-38
0.039554901 0.045781143 0.22700003 1.2172348e-38
0.040760569 0.045744602 0.22700001 1.19876e-38
0.0413086 0.045744602 0.22700001 1.2264184e-38
0.042404667 0.045744598 0.22700001 1.1987597e-38
0.043500729 0.045744602 0.22700001 1.171137e-38
0.044414118 0.045561925 0.22700001 1.1711372e-38
0.036437202 0.046536207 0.22700001 1.2171987e-38
0.037472378 0.046475314 0.22700001 1.1987595e-38
0.038385764 0.046475314 0.22700001 1.1987954e-38
0.039390489 0.046383973 0.22700001 1.208051e-38
0.040821463 0.04641442 0.22700001 1.1526622e-38
0.0413086 0.046475314 0.22700001 1.1526261e-38
0.042404663 0.04647531 0.22700001 1.1803208e-38
0.043135375 0.046292637 0.22700001 1.1803567e-38
0.035706494 0.047632266 0.22700001 1.1157479e-38
0.036376312 0.047571376 0.22700001 1.1710653e-38
0.037472378 0.047571376 0.22700001 1.2079791e-38
0.038385764 0.047571376 0.22700001 1.1987595e-38
0.039116472 0.047754053 0.22700001 1.1710653e-38
0.034610435 0.048606545 0.22700001 1.180285e-38
0.035645604 0.048484761 0.22700001 1.115748e-38
0.036376312 0.048484761 0.22700001 1.198724e-38
0.037472378 0.048484761 0.22700001 1.2263826e-38
0.038385764 0.048484761 0.22700001 1.1802848e-38
0.039116472 0.048119407 0.22700001 1.1618457e-38
0.032722767 0.049946181 0.22700001 1.1710653e-38
0.033270799 0.049763504 0.22700001 1.1710653e-38
0.034366861 0.049580827 0.22700003 1.1341872e-38
0.035645604 0.049580831 0.22700001 1.1250396e-38
0.036376312 0.049580827 0.22700001 1.19876e-38
0.037472378 0.049580827 0.22700001 1.2356022e-38
0.03826398 0.049337257 0.22700001 1.1895044e-38
0.031261347 0.05067689 0.22700001 1.18954e-38
0.03254009 0.050676893 0.22700001 1.1803204e-38
0.033270799 0.05067689 0.22700001 1.1711372e-38
0.034366861 0.050676893 0.22700001 1.1250393e-38
0.035645604 0.05067689 0.22700001 1.1619176e-38
0.036376312 0.05067689 0.22700001 1.217235e-38
0.037289701 0.05067689 0.22700001 1.2449293e-38
0.030591533 0.051285814 0.22700001 1.1711009e-38
0.031261347 0.051224921 0.22700001 1.1803204e-38
0.03254009 0.051224917 0.22700001 1.1803204e-38
0.033270799 0.051224921 0.22700001 1.1711369e-38
0.034366865 0.051224928 0.22700001 1.152698e-38
0.035645604 0.051224925 0.22700001 1.2171991e-38
0.036376312 0.051224925 0.22700001 1.2633684e-38
0.037289701 0.051042244 0.22700001 1.2818075e-38
0.027790479 0.052869014 0.22700001 1.1618813e-38
0.028521188 0.052869014 0.22700001 1.1618813e-38
0.029471111 0.052576732 0.22700003 1.1434422e-38
0.030530639 0.05250366 0.22700001 1.1526617e-38
0.031261347 0.052503664 0.22700001 1.1526617e-38
0.032540094 0.052503668 0.22700003 1.1618456e-38
0.033270799 0.052503664 0.22700001 1.1618457e-38
0.034366865 0.052503668 0.22700003 1.1619176e-38
0.035584714 0.052260097 0.22700001 1.1895044e-38
