# .PCD v0.7 - Point Cloud Data file format
VERSION 0.7
FIELDS x y z rgb
SIZE 4 4 4 4
TYPE F F F F
COUNT 1 1 1 1
WIDTH 992
HEIGHT 1
VIEWPOINT 0 0 0 1 0 0 0
POINTS 992
DATA ascii
0.057101872 0.063252598 0.20500001 7.103025e-39
0.071289539 0.063582547 0.20500001 6.9186337e-39
0.038789883 0.064572386 0.20500003 6.3643767e-39
0.039284799 0.064902328 0.20500001 6.4565738e-39
0.038789883 0.065562218 0.20500001 6.456571e-39
0.037470099 0.066387087 0.20500001 6.2725398e-39
0.038624909 0.066387087 0.20500003 6.6409622e-39
0.037525091 0.067321934 0.205 6.4565738e-39
0.038558923 0.067343935 0.20500001 6.4576514e-39
0.016599115 -0.03142944 0.20600002 1.4974598e-38
0.016599115 -0.030434772 0.20600002 1.5345177e-38
0.016599115 -0.029771663 0.20600002 1.571216e-38
0.016599115 -0.02861122 0.20600002 1.4697289e-38
0.016599115 -0.026953442 0.20600002 1.3505583e-38
0.014941338 -0.02562722 0.20600002 1.2217365e-38
0.064674638 0.013496302 0.20600002 1.00551e-38
0.061469603 0.016701337 0.20600002 9.133498e-39
0.062022194 0.016148744 0.20600002 9.3182508e-39
0.060695976 0.017806521 0.20600002 9.041301e-39
0.061027531 0.01714341 0.20600002 9.1334966e-39
0.065337747 0.017474964 0.20600002 9.4104451e-39
0.060364418 0.018469632 0.20600002 8.9491026e-39
0.060447305 0.019547185 0.20600002 8.7639924e-39
0.065006196 0.019132743 0.20600002 9.4100835e-39
0.060530197 0.020458963 0.20600002 8.7636323e-39
0.060474936 0.021232592 0.20600002 8.6714367e-39
0.057546198 0.02277985 0.20600002 8.3026542e-39
0.058375087 0.02277985 0.20600002 8.3026542e-39
0.059259236 0.02266933 0.20600002 8.3948498e-39
0.060032863 0.022116739 0.20600002 8.4870454e-39
0.057380419 0.023442959 0.20600002 8.3026542e-39
0.05837509 0.023442961 0.20600002 8.3948498e-39
0.059038199 0.023111405 0.20600002 8.3026542e-39
0.045444429 0.02410607 0.20600002 1.5484803e-38
0.046439096 0.024437627 0.20600002 1.4470647e-38
0.056385756 0.02410607 0.20600002 8.5785208e-39
0.057380419 0.024271848 0.20600002 8.3026528e-39
0.058043532 0.02410607 0.20600002 8.3948498e-39
0.046770651 0.025266515 0.20600002 1.2351992e-38
0.057131752 0.025349403 0.20600002 8.3941267e-39
0.043786652 0.026426958 0.20600002 1.6499309e-38
0.047102205 0.026426958 0.20600002 9.0358682e-39
0.057048865 0.026426958 0.20600002 8.4863224e-39
0.043786652 0.027090067 0.20600002 1.6221633e-38
0.047102205 0.027255844 0.20600002 7.8395026e-39
0.054462731 0.027620554 0.20600002 8.3012122e-39
0.055556871 0.027587401 0.20600002 8.3015724e-39
0.05621998 0.027421623 0.20600002 8.3934079e-39
0.057048865 0.027090067 0.20600002 8.4863224e-39
0.038150214 0.028747844 0.20600002 1.0972359e-38
0.053401757 0.028582066 0.20600002 8.2097355e-39
0.054396424 0.028582066 0.20600002 8.3941267e-39
0.055556867 0.028416289 0.20600002 8.4863224e-39
0.038150214 0.029410955 0.20600002 1.0327706e-38
0.048428427 0.029742509 0.20600002 7.9335045e-39
0.049754649 0.029079398 0.20600002 8.2093725e-39
0.053291235 0.029521473 0.20600002 8.3022898e-39
0.054330111 0.029344643 0.20600002 8.6707136e-39
0.065337747 0.029079398 0.20600002 9.2238902e-39
0.043786652 0.030074064 0.20600002 1.0322971e-38
0.05265576 0.03048851 0.20600002 8.3941225e-39
0.053235982 0.030405618 0.20600002 8.486321e-39
0.05419749 0.03033931 0.20600002 8.6707136e-39
0.062187973 0.030737175 0.20600002 8.6707136e-39
0.05174398 0.031400286 0.20600002 8.3937638e-39
0.052572869 0.031566061 0.20600002 8.3015682e-39
0.053180721 0.031510804 0.20600002 8.3937638e-39
0.04246043 0.032726508 0.20600002 8.5734467e-39
0.052407093 0.032063395 0.20600002 8.3015682e-39
0.039476436 0.033721171 0.20600002 1.4828665e-38
0.040471099 0.033389617 0.20600002 1.3263502e-38
0.041134212 0.033058062 0.20600002 1.1700142e-38
0.045775983 0.033389617 0.20600002 8.5763544e-39
0.049754649 0.033721171 0.20600002 8.3926848e-39
0.045278654 0.03455006 0.20600002 8.4848804e-39
0.048759982 0.034715839 0.20600002 8.3015682e-39
0.049588874 0.034550063 0.20600002 8.1168168e-39
0.050086204 0.034715839 0.20600002 8.0249813e-39
0.039144877 0.035710502 0.20600002 1.0501989e-38
0.045112874 0.035047393 0.20600002 8.4848804e-39
0.048428427 0.035378948 0.20600002 8.5785152e-39
0.049588874 0.035378948 0.20600002 8.1171769e-39
0.050086204 0.035378948 0.20600002 8.0246239e-39
0.07578174 0.035710502 0.20600002 7.8416774e-39
0.039144877 0.036042061 0.20600002 9.7662235e-39
0.046770651 0.03670517 0.20600002 8.3937638e-39
0.04730114 0.036439925 0.20600002 8.6703507e-39
0.048428424 0.036373615 0.206 8.5785138e-39
0.049555719 0.036307305 0.20600002 8.3937638e-39
0.050086204 0.036042061 0.20600002 8.2093725e-39
0.064674638 0.03670517 0.20600002 7.8409529e-39
0.046770651 0.037534058 0.20600002 8.3937638e-39
0.047267981 0.037534058 0.20600002 8.578155e-39
0.048207391 0.037478801 0.20600002 8.578155e-39
0.055722646 0.037699837 0.20600002 8.6703507e-39
0.065006196 0.037534058 0.20600002 7.8409529e-39
0.036492437 0.038031392 0.20600002 9.8587583e-39
0.046660136 0.038252428 0.20600002 8.3015682e-39
0.047267981 0.038362946 0.20600002 8.4859594e-39
0.048096873 0.038031392 0.20600002 8.578155e-39
0.076942183 0.038694501 0.20600002 8.4870454e-39
0.040802654 0.039026055 0.20600002 8.4841616e-39
0.046770651 0.039191835 0.20600002 8.578155e-39
0.047267985 0.039357614 0.20600002 8.3937638e-39
0.047102205 0.040518053 0.20600002 8.2093725e-39
0.043786652 0.041346945 0.20600002 8.3015682e-39
0.044283986 0.041346945 0.20600002 8.1171769e-39
0.045112874 0.041346945 0.20600002 8.116821e-39
0.046770651 0.041346945 0.20600002 8.3012122e-39
0.047102205 0.041181169 0.20600002 8.2090152e-39
0.050251983 0.041346945 0.20600002 8.3015682e-39
0.042507797 0.042436335 0.206 8.0239023e-39
0.043620873 0.042341609 0.20600002 8.1171769e-39
0.044283986 0.042341609 0.20600002 8.0249813e-39
0.045444429 0.042341616 0.206 8.0246239e-39
0.046604872 0.042341609 0.20600002 8.2090166e-39
0.047102205 0.042010054 0.20600002 8.3012122e-39
0.041797321 0.043833606 0.20600002 7.84059e-39
0.04246043 0.043667831 0.206 7.9320668e-39
0.043620873 0.043667834 0.20600002 8.1160979e-39
0.044283986 0.043667834 0.20600002 8.3004892e-39
0.045444429 0.043667831 0.206 7.9320682e-39
0.046638027 0.04360152 0.20600002 8.0246253e-39
0.047102205 0.043999385 0.20600002 8.116821e-39
0.05550161 0.043778349 0.20600002 7.5636472e-39
0.041797321 0.044662498 0.20600002 8.0242624e-39
0.04246043 0.044662494 0.20600002 7.8398697e-39
0.043620877 0.044662498 0.20600002 7.9320668e-39
0.044283986 0.044662494 0.20600002 8.0246211e-39
0.045112874 0.044662498 0.20600002 8.116458e-39
0.047102205 0.044662498 0.20600002 8.2086551e-39
0.054479312 0.044662498 0.20600002 7.4714502e-39
0.055391088 0.04433094 0.20600002 7.4714516e-39
0.041797321 0.045491382 0.20600002 7.9317066e-39
0.04246043 0.045325607 0.20600002 7.839511e-39
0.043620877 0.045491382 0.20600002 7.8402299e-39
0.044283986 0.045491382 0.20600002 7.9327856e-39
0.045112874 0.045491382 0.20600002 8.1171769e-39
0.047102205 0.045325607 0.20600002 8.4848804e-39
0.055391088 0.045325607 0.20600002 7.4718075e-39
0.02267763 0.046762347 0.20600002 8.5749124e-39
0.039144877 0.046983384 0.20600002 7.7473154e-39
0.04067003 0.046718139 0.20600002 7.839511e-39
0.041465767 0.046651829 0.20600002 7.839511e-39
0.045223396 0.046541307 0.20600002 8.301208e-39
0.046770651 0.046983384 0.20600002 8.2093725e-39
0.047102205 0.04648605 0.20600002 8.3937638e-39
0.038813323 0.047978051 0.20600002 7.7473154e-39
0.03980799 0.047978051 0.20600002 7.6551197e-39
0.040636875 0.047646493 0.20600002 7.6551197e-39
0.041465767 0.047646493 0.20600002 7.7473154e-39
0.055391088 0.047314938 0.20600002 7.4714516e-39
0.025882665 0.04864116 0.20600002 1.4093603e-38
0.026545776 0.04864116 0.20600002 1.1698708e-38
0.027208887 0.04864116 0.20600002 9.8566073e-39
0.038813323 0.048475385 0.20600002 7.6551197e-39
0.039559323 0.048392493 0.20600002 7.6551197e-39
0.040636875 0.048475381 0.20600002 7.6551197e-39
0.041465767 0.048475385 0.20600002 7.7473154e-39
0.037818659 0.049801603 0.20600002 7.6544009e-39
0.03837125 0.049746346 0.20600002 7.6544009e-39
0.039571166 0.049683191 0.206 7.6551197e-39
0.040636878 0.049635828 0.20600002 7.7473154e-39
0.041134212 0.049635824 0.20600002 7.6551197e-39
0.037818659 0.050298937 0.20600002 7.5622025e-39
0.038813323 0.050298937 0.20600002 7.8387921e-39
0.039559323 0.05079627 0.20600002 7.7473154e-39
0.040636875 0.050630491 0.20600002 8.0239023e-39
0.041134212 0.050630491 0.20600002 8.1160979e-39
0.036823992 0.051459379 0.20600002 7.5629213e-39
0.037708137 0.05151464 0.20600002 7.4707257e-39
0.038481768 0.051459379 0.20600002 7.5629241e-39
0.039476436 0.051459376 0.20600002 7.9317066e-39
0.040581618 0.051404119 0.20600002 8.3004892e-39
0.036492437 0.052785601 0.20600002 7.4707257e-39
0.03765288 0.052619819 0.20600002 7.5629213e-39
0.038481768 0.052619819 0.20600002 7.6544009e-39
0.039365914 0.052509304 0.20600002 7.8391509e-39
0.036823992 0.053946048 0.20600002 7.2863344e-39
0.03765288 0.05361449 0.20600002 7.3785329e-39
0.038150214 0.05361449 0.20600002 7.3785329e-39
0.030855997 0.054609157 0.20600002 7.1934199e-39
0.031684887 0.054609153 0.20600002 7.1934199e-39
0.032513775 0.054609153 0.20600002 7.1012243e-39
0.033508439 0.054609153 0.206 7.0090287e-39
0.035829324 0.054774933 0.20600002 7.2856156e-39
0.036602955 0.054719675 0.20600002 7.1941388e-39
0.03765288 0.054609153 0.20600002 7.101946e-39
0.038150214 0.054277603 0.20600002 7.1941416e-39
0.030855997 0.0557696 0.20600002 7.1012243e-39
0.031684883 0.0557696 0.20600002 7.0090287e-39
0.032513775 0.055769604 0.20600002 7.1012243e-39
0.033442128 0.055802755 0.20600002 7.1012257e-39
0.035608288 0.055824861 0.20600002 7.1941402e-39
0.036492437 0.055769604 0.20600002 7.3781713e-39
0.037597623 0.055714339 0.20600002 7.1019446e-39
0.030855997 0.056598492 0.20600002 7.1012243e-39
0.031684883 0.056598492 0.20600002 7.0090287e-39
0.032513775 0.056598492 0.20600002 7.1012257e-39
0.033442128 0.056532182 0.20600002 7.1012257e-39
0.034834661 0.056598492 0.20600002 7.1941402e-39
0.035608288 0.056487974 0.20600002 7.3785329e-39
0.036492437 0.056598488 0.20600002 7.6551197e-39
0.037487101 0.056266934 0.20600002 7.2863372e-39
0.030855997 0.057427377 0.20600002 7.0093874e-39
0.031684887 0.057593156 0.20600002 7.0093874e-39
0.032513775 0.057593156 0.20600002 7.1934185e-39
0.033508439 0.057593152 0.206 7.1934185e-39
0.034751773 0.057510264 0.20600002 7.3778112e-39
0.035564084 0.057593156 0.20600002 7.470367e-39
0.036397707 0.057545789 0.206 7.7469552e-39
0.062353753 0.05792471 0.20600002 7.6561987e-39
0.063016862 0.057593156 0.20600002 8.2075747e-39
0.031740144 0.058698338 0.20600002 7.1934199e-39
0.032403257 0.058698338 0.20600002 7.3778112e-39
0.033176884 0.058587819 0.20600002 7.5622025e-39
0.034668885 0.058753595 0.20600002 7.2856156e-39
0.03549777 0.058753595 0.20600002 7.1934199e-39
0.036426127 0.05878675 0.20600002 7.0090287e-39
0.072410934 0.058808859 0.20600002 7.3799748e-39
0.031850662 0.059250932 0.20600002 7.1934199e-39
0.032182217 0.059250932 0.20600002 7.2856156e-39
0.034834661 0.059582487 0.20600002 7.1015844e-39
0.03549777 0.059582487 0.20600002 6.9171918e-39
0.036492437 0.059582487 0.20600002 6.6406063e-39
0.037487101 0.059914041 0.20600002 6.5487694e-39
0.072300412 0.059250932 0.20600002 7.3799748e-39
0.034668881 0.060577154 0.20600002 6.8253563e-39
0.03549777 0.060577154 0.20600002 6.5487694e-39
0.036326662 0.060245596 0.20600002 6.5487694e-39
0.037735768 0.060494266 0.20600002 6.5487694e-39
0.034668885 0.061737593 0.20600002 6.5484107e-39
0.035166215 0.061737597 0.20600002 6.4565738e-39
0.037818659 0.061571818 0.20600002 6.4565738e-39
0.034834661 0.062234931 0.20600002 6.4565738e-39
0.035166215 0.062234931 0.20600002 6.4565738e-39
0.037818659 0.06289804 0.20600002 6.4565738e-39
0.072466187 0.06289804 0.20600002 7.0111895e-39
0.037818659 0.063892707 0.20600002 6.4565738e-39
0.038150214 0.063561149 0.20600002 6.4565738e-39
0.072590522 0.063519709 0.206 7.103025e-39
0.038150214 0.064555816 0.20600002 6.2721825e-39
0.071637303 0.064555816 0.20600002 7.0108293e-39
0.072300412 0.064555816 0.20600002 7.103025e-39
0.036823992 0.066876702 0.20600002 5.9966718e-39
0.017374491 -0.032133415 0.20733334 1.5711088e-38
0.017429821 -0.031901967 0.208 1.5341226e-38
0.017012859 -0.028416943 0.20700002 1.4513977e-38
0.01575595 -0.026880352 0.208 1.3412311e-38
0.016258109 -0.026880352 0.208 1.3320476e-38
0.056598417 0.0077687851 0.208 1.4103357e-38
0.057535779 0.0078022629 0.20799999 1.6130176e-38
0.056598417 0.0086057205 0.208 1.5208955e-38
0.057267964 0.0087731071 0.208 1.668334e-38
0.051409416 0.0096100438 0.208 1.051391e-38
0.052246351 0.0096100438 0.208 1.0329519e-38
0.057267964 0.0092752688 0.208 1.6037973e-38
0.049735542 0.01094914 0.208 9.4997554e-39
0.050572477 0.010446979 0.208 1.023696e-38
0.051633064 0.010246645 0.20733334 1.023732e-38
0.05232833 0.010230171 0.20700002 1.0052929e-38
0.048563834 0.011953463 0.208 9.591951e-39
0.049400769 0.011786075 0.208 9.7763423e-39
0.048452243 0.012511421 0.208 9.7767024e-39
0.049501199 0.012489103 0.20799999 1.0421712e-38
0.052246351 0.012623012 0.208 1.1987219e-38
0.047894284 0.013962109 0.208 9.3153642e-39
0.048396442 0.013627334 0.20799999 9.4997554e-39
0.049568158 0.013627334 0.20799997 9.9603706e-39
0.050572481 0.013627334 0.20799999 1.0236233e-38
0.051409412 0.013627334 0.20799999 1.1524798e-38
0.052413736 0.013627335 0.20799999 1.4287741e-38
0.047671098 0.014743249 0.208 9.3146453e-39
0.048396446 0.014631657 0.208 9.4068409e-39
0.049568158 0.014631656 0.20799999 9.5908664e-39
0.050572477 0.014631657 0.208 1.0695398e-38
0.051409412 0.014631657 0.208 1.3273954e-38
0.052357942 0.014520065 0.208 1.5669209e-38
0.047559507 0.015468593 0.208 9.4986764e-39
0.048396446 0.015468593 0.208 9.5912294e-39
0.049568158 0.015468594 0.20799999 9.9585588e-39
0.050572477 0.015468593 0.208 1.2353093e-38
0.051409416 0.015468593 0.208 1.5300069e-38
0.052246351 0.015468594 0.208 1.6314557e-38
0.046889961 0.016640304 0.208 9.4071997e-39
0.047559511 0.016640304 0.20799999 9.4071983e-39
0.04839645 0.016640304 0.20799999 9.5912252e-39
0.049568154 0.016640304 0.20799997 1.2261618e-38
0.050572474 0.016640304 0.20799999 1.4840903e-38
0.051409412 0.016640304 0.20799999 1.6037974e-38
0.052246351 0.016472917 0.208 1.5576275e-38
0.046889961 0.017644625 0.208 9.3150026e-39
0.047559507 0.017644625 0.208 9.6826991e-39
0.048396446 0.017644625 0.208 1.0879426e-38
0.049568158 0.017644625 0.20799999 1.391859e-38
0.050572477 0.017644625 0.208 1.5392978e-38
0.051242027 0.017309852 0.208 1.6222011e-38
0.066306874 0.0179794 0.208 9.5022792e-39
0.046722576 0.01848156 0.208 9.4068367e-39
0.047559507 0.01848156 0.208 1.0419171e-38
0.048396446 0.01848156 0.208 1.281335e-38
0.049568158 0.018481562 0.20799999 1.5484455e-38
0.050572477 0.01848156 0.208 1.5299695e-38
0.065654919 0.018392708 0.20700002 9.5022792e-39
0.066418462 0.018425765 0.208 9.5022792e-39
0.046722576 0.019653274 0.20799999 1.0234787e-38
0.047559511 0.019653274 0.20799999 1.2720424e-38
0.048396442 0.01965327 0.20799999 1.4839458e-38
0.049456563 0.019541681 0.20799999 1.6591144e-38
0.050237704 0.019318497 0.208 1.5761383e-38
0.059979878 0.019582406 0.20725001 8.4877657e-39
0.046555188 0.020657595 0.20799999 1.1339677e-38
0.047559507 0.020657595 0.208 1.3918579e-38
0.048229057 0.02032282 0.208 1.5116396e-38
0.060280934 0.020657595 0.208 8.6714367e-39
0.045550864 0.021661917 0.208 1.0327344e-38
0.046555188 0.021494528 0.20799999 1.2997731e-38
0.047559507 0.02149453 0.208 1.4840519e-38
0.059991118 0.021557773 0.20700002 8.5792411e-39
0.060280934 0.021327142 0.208 8.6714367e-39
0.045383479 0.022498854 0.208 1.1523704e-38
0.046555188 0.022498852 0.20799999 1.5392626e-38
0.047559511 0.022498852 0.208 1.6498947e-38
0.057825547 0.022557268 0.20700002 8.3026542e-39
0.058632761 0.022611754 0.20750001 8.2104585e-39
0.059491374 0.022390686 0.20700002 8.3948498e-39
0.044658136 0.023224197 0.208 1.143296e-38
0.045532856 0.02340891 0.20766668 1.4287367e-38
0.046523213 0.023271475 0.20785713 1.5484802e-38
0.047224734 0.0231684 0.208 1.6221996e-38
0.042537894 0.024674885 0.208 9.3139194e-39
0.043590043 0.02443576 0.20799997 1.0142946e-38
0.044460554 0.024226027 0.20760003 1.2353095e-38
0.045216091 0.024005337 0.208 1.447103e-38
0.046804179 0.024251943 0.20725001 1.4102233e-38
0.047671098 0.02434011 0.208 1.2074325e-38
0.056492887 0.024556255 0.20700002 8.3941267e-39
0.042370506 0.02551182 0.208 9.7738102e-39
0.043471903 0.025526464 0.20766668 1.3459427e-38
0.047556229 0.02553818 0.20740001 1.0601372e-38
0.056560516 0.02550292 0.20725001 8.3941267e-39
0.042370506 0.02618137 0.208 1.0510284e-38
0.043319035 0.026237166 0.208 1.4103345e-38
0.047894284 0.02618137 0.208 9.1287911e-39
0.056548417 0.026666299 0.20700002 8.2097355e-39
0.042403985 0.027353078 0.20799999 1.2720783e-38
0.043374825 0.027353078 0.20799999 1.5116027e-38
0.047776707 0.027514081 0.20720001 8.1164538e-39
0.048229057 0.027687851 0.208 8.2082907e-39
0.054993644 0.027221574 0.20700002 8.3012122e-39
0.055627435 0.027119938 0.20750001 8.3012122e-39
0.056326304 0.027221574 0.20700002 8.3934079e-39
0.038855378 0.028692175 0.208 1.0695772e-38
0.039190151 0.028692175 0.208 1.0602852e-38
0.041868348 0.028692175 0.208 1.3456878e-38
0.042314712 0.028580582 0.208 1.4010408e-38
0.043374833 0.028524786 0.208 1.530076e-38
0.047830608 0.028720815 0.20700002 7.9327856e-39
0.048776846 0.028648132 0.20720001 8.0249813e-39
0.049544245 0.028645657 0.20766668 8.2093725e-39
0.065988086 0.028887399 0.20700002 8.9473033e-39
0.066306874 0.0283574 0.208 8.7621932e-39
0.021112338 0.029026948 0.208 1.0695775e-38
0.037683666 0.029194336 0.208 9.7752591e-39
0.038002241 0.029220562 0.20700002 1.0328793e-38
0.039668068 0.029220562 0.20700002 1.0141864e-38
0.041533574 0.029194336 0.208 1.3089177e-38
0.042314708 0.029138541 0.208 1.4471731e-38
0.043430626 0.029138541 0.208 1.4563193e-38
0.047830604 0.029220562 0.20700002 7.9327856e-39
0.048830099 0.029220562 0.20700002 8.0249813e-39
0.049329847 0.029220562 0.20700002 8.0249813e-39
0.037851054 0.030031271 0.208 9.130247e-39
0.038855378 0.030533433 0.208 9.2217154e-39
0.039190151 0.03070082 0.208 1.0141138e-38
0.041533571 0.03019866 0.208 1.3917472e-38
0.042203121 0.03019866 0.208 1.4470996e-38
0.062974364 0.031795509 0.20750001 8.7621904e-39
0.042537894 0.032374691 0.208 1.004711e-38
0.043207444 0.032039918 0.208 8.9425795e-39
0.046553474 0.032441158 0.20700002 8.3923233e-39
0.06282302 0.032552212 0.20700002 8.9465816e-39
0.039524928 0.033713788 0.208 1.5384704e-38
0.040397242 0.033422187 0.20775001 1.4555303e-38
0.045998197 0.033884868 0.20700002 8.4848776e-39
0.046331365 0.033884868 0.20700002 8.392682e-39
0.075983025 0.033884868 0.20700002 7.9338744e-39
0.038855378 0.034718111 0.208 1.4554591e-38
0.039190151 0.034048561 0.208 1.5107402e-38
0.045998197 0.0345512 0.20700002 8.4848804e-39
0.038761973 0.035135206 0.20750001 1.381703e-38
0.047664024 0.035883859 0.20700002 8.7632652e-39
0.038855378 0.036391985 0.208 1.1331e-38
0.047330856 0.036217023 0.20700002 8.7625463e-39
0.064488843 0.036550187 0.20700002 7.7480384e-39
0.065321758 0.03655019 0.20700002 7.8405942e-39
0.07664936 0.036550187 0.20700002 9.1316946e-39
0.077426739 0.036772296 0.20700002 9.777064e-39
0.037516281 0.037396304 0.208 1.0504111e-38
0.056326304 0.037549682 0.20700002 8.854386e-39
0.036230799 0.038449612 0.20766668 1.0780343e-38
0.046331365 0.038882341 0.20700002 8.578155e-39
0.035842407 0.039404951 0.208 9.9520399e-39
0.041645166 0.039516542 0.208 8.5767173e-39
0.042370506 0.03957234 0.208 8.7614673e-39
0.045550864 0.039070178 0.208 8.3015682e-39
0.046465013 0.03946244 0.20760003 8.4859594e-39
0.041198798 0.040074497 0.208 8.4841616e-39
0.046997692 0.040548164 0.20700002 8.3015682e-39
0.04288866 0.041436601 0.20700002 8.301208e-39
0.043554988 0.041325551 0.20700002 8.3015682e-39
0.044332374 0.041214492 0.20700002 8.2093725e-39
0.04573803 0.041502971 0.20733334 8.1171797e-39
0.04670376 0.041346695 0.20766668 8.2093739e-39
0.05099567 0.04154766 0.20700002 8.3015682e-39
0.041333891 0.042880319 0.20700002 7.7473154e-39
0.042333387 0.042213988 0.20700002 8.1160979e-39
0.05550446 0.042795237 0.20766668 8.2093739e-39
0.031657733 0.043087468 0.208 1.4093971e-38
0.055460051 0.043317057 0.20750001 8.0246253e-39
0.040864024 0.044426564 0.208 8.1160979e-39
0.045665033 0.044546142 0.20700002 8.1160979e-39
0.046331365 0.044212978 0.20700002 7.7480384e-39
0.041222837 0.045545638 0.20700002 8.2082935e-39
0.045665037 0.045545638 0.20700002 8.0249827e-39
0.047330856 0.045878801 0.20700002 8.3937638e-39
0.054625124 0.045489065 0.20750001 7.4718075e-39
0.055326812 0.045878801 0.20700002 7.4718075e-39
0.037335914 0.046878293 0.20700002 7.8395082e-39
0.038252115 0.046628419 0.20700002 7.7480328e-39
0.039334901 0.046545129 0.20700002 7.7473154e-39
0.040167816 0.046545129 0.20700002 7.839511e-39
0.045665033 0.046545129 0.20700002 8.3015682e-39
0.055594094 0.046769984 0.208 7.3792559e-39
0.022786209 0.047774307 0.208 8.4830769e-39
0.023455758 0.047272146 0.208 8.5741936e-39
0.036669586 0.047544625 0.20700002 7.930985e-39
0.037169334 0.047378041 0.20700002 7.8395096e-39
0.045998197 0.047211461 0.20700002 8.2093725e-39
0.046331365 0.047211461 0.20700002 8.3015682e-39
0.054589771 0.047774307 0.208 7.4714516e-39
0.055259317 0.047774307 0.208 7.5636472e-39
0.025799178 0.048611242 0.208 1.5384342e-38
0.026572086 0.048493989 0.20750001 1.3817023e-38
0.027239624 0.048493989 0.20750001 1.1513595e-38
0.036472626 0.048570968 0.20740001 8.115379e-39
0.03708604 0.04854412 0.20700002 8.0235435e-39
0.038168825 0.04854412 0.20700002 7.6551197e-39
0.054771531 0.048433065 0.20700002 7.4714516e-39
0.055259317 0.048443854 0.208 7.6558428e-39
0.025464404 0.049113404 0.208 1.529179e-38
0.036341321 0.049479991 0.20766668 7.8387921e-39
0.03716933 0.049710196 0.20700002 7.7465965e-39
0.034838088 0.050787274 0.208 7.6543981e-39
0.035674036 0.05047062 0.2078 7.6543995e-39
0.036339138 0.05029026 0.20733333 7.6543995e-39
0.037113804 0.050320998 0.20700002 7.5622053e-39
0.034545533 0.051645253 0.20775001 7.5622025e-39
0.035378568 0.051584251 0.20700002 7.470367e-39
0.036269791 0.051542602 0.20700002 7.3785301e-39
0.03700275 0.051209439 0.20700002 7.4707257e-39
0.033498988 0.052795921 0.208 7.2856156e-39
0.03423642 0.052693743 0.20760003 7.2863344e-39
0.035336923 0.052708674 0.20700002 7.2863344e-39
0.036003254 0.052708678 0.20700002 7.2863344e-39
0.032405075 0.053408325 0.20700002 7.2856156e-39
0.033446878 0.05329356 0.20733334 7.1934199e-39
0.034170851 0.053375006 0.20700002 7.2856156e-39
0.035336927 0.053291716 0.20700002 7.1937801e-39
0.036003254 0.053208422 0.20700002 7.1941388e-39
0.031338949 0.054207917 0.20700002 7.2856156e-39
0.03233844 0.054207917 0.20700002 7.1934199e-39
0.033504516 0.054207917 0.20700002 7.1012243e-39
0.034170851 0.054207917 0.20700002 7.1012243e-39
0.029562069 0.055762682 0.20700002 7.0090287e-39
0.030506035 0.055707157 0.20700002 7.0090287e-39
0.031005783 0.055540577 0.20700002 7.1012243e-39
0.02950654 0.056373484 0.20700002 6.9171918e-39
0.030506033 0.056373484 0.20700002 6.9171932e-39
0.029539857 0.057472926 0.20700002 6.8253549e-39
0.030506035 0.057539564 0.20700002 6.8253563e-39
0.06265644 0.057872728 0.20700002 8.1160979e-39
0.029673124 0.058539059 0.20700002 7.1015802e-39
0.030506035 0.058539063 0.20700002 6.9171932e-39
0.031005783 0.058539059 0.20700002 7.0093888e-39
0.0336711 0.058872223 0.20700002 7.5622025e-39
0.034004267 0.058872223 0.20700002 7.5622025e-39
0.030561561 0.059316441 0.20700002 7.0090287e-39
0.031172365 0.059371971 0.20700002 7.1012243e-39
0.032671608 0.059371971 0.20700002 7.4700068e-39
0.033504516 0.059371971 0.20700002 7.5622025e-39
0.034115326 0.0594275 0.20700002 7.4700068e-39
0.030672617 0.060204882 0.20700002 7.1934199e-39
0.031172365 0.06053805 0.20700002 7.1934185e-39
0.03233844 0.060538054 0.20700002 7.1937787e-39
0.033504516 0.06053805 0.20700002 7.2863344e-39
0.034087557 0.060454756 0.20700002 7.1941388e-39
0.03700275 0.060538046 0.20700002 6.5487694e-39
0.031172365 0.061204378 0.20700002 7.1934171e-39
0.03233844 0.061537538 0.20700002 7.1934199e-39
0.033504516 0.061537541 0.20700002 7.1934199e-39
0.034004267 0.061537541 0.20700002 7.1015844e-39
0.03567009 0.061870705 0.20700002 6.4565738e-39
0.030672617 0.062370453 0.20700002 7.4700068e-39
0.031222561 0.062303502 0.20733334 7.4700068e-39
0.03233844 0.062370453 0.20700002 7.2856156e-39
0.033504516 0.062370453 0.20700002 6.8246374e-39
0.034115326 0.062425982 0.20700002 6.6402462e-39
0.03567009 0.062370453 0.20700002 6.4565738e-39
0.036311097 0.062571332 0.20799999 6.4565738e-39
0.03739604 0.062303502 0.20733334 6.4565738e-39
0.030672617 0.063203365 0.20700002 7.3778112e-39
0.031415049 0.063439727 0.20750001 7.1941388e-39
0.032613162 0.063416734 0.20733334 6.8253549e-39
0.033461086 0.063446686 0.20725001 6.4562136e-39
0.034170851 0.063536525 0.20700002 6.2721811e-39
0.035336927 0.063536525 0.20700002 6.364018e-39
0.036061231 0.063638307 0.20733334 6.3643781e-39
0.037516281 0.063508697 0.208 6.3643781e-39
0.038002241 0.063536532 0.20700002 6.4565738e-39
0.033498988 0.064178243 0.208 6.4565738e-39
0.034170851 0.06420286 0.20700002 6.3636593e-39
0.035170343 0.06420286 0.20700002 6.3636593e-39
0.056933191 0.064178243 0.208 7.4707285e-39
0.038501993 0.069866657 0.20700002 6.1799869e-39
0.037335914 0.070866153 0.20700002 6.2721825e-39
0.038298819 0.070451193 0.20725001 6.2725398e-39
0.039190151 0.070538953 0.208 5.9034e-39
0.038590025 0.07149414 0.20785713 5.9966746e-39
0.039301742 0.071320094 0.208 5.7200877e-39
0.017850002 -0.032055341 0.20900001 1.5433422e-38
0.018186385 -0.032391723 0.20900001 1.5711088e-38
0.017177233 -0.031718954 0.20900001 1.4882406e-38
0.017177233 -0.029027885 0.20900001 1.4790564e-38
0.015495315 -0.026336815 0.20900001 1.2768381e-38
0.047619969 0.0066287909 0.20900001 1.1434785e-38
0.04862912 0.0066287909 0.20900001 1.1434787e-38
0.049133692 0.0066287909 0.20900001 1.1342592e-38
0.046779007 0.0078061339 0.20900001 1.1343668e-38
0.047451772 0.0076379422 0.20900001 1.1159277e-38
0.04862912 0.0076379422 0.20900001 1.1067084e-38
0.049301881 0.0076379417 0.20900001 1.1067084e-38
0.05047923 0.0076379422 0.20900001 1.0790497e-38
0.051572476 0.0077220378 0.20900001 1.0973808e-38
0.052329339 0.0079743257 0.20900001 1.0881611e-38
0.055524986 0.0079743257 0.20900001 1.1157102e-38
0.056197751 0.0078061339 0.20900001 1.253749e-38
0.04644262 0.0088152848 0.20900001 1.1804646e-38
0.047451776 0.0088152848 0.20900001 1.1528059e-38
0.04862912 0.0088152848 0.20900001 1.0790497e-38
0.049301885 0.0088152848 0.20900001 1.0790497e-38
0.05047923 0.0088152857 0.20900001 1.0606106e-38
0.051656574 0.0088152848 0.20900001 1.0698301e-38
0.052329339 0.0088152848 0.20900001 1.0698301e-38
0.053170297 0.0088152848 0.20900001 1.0790494e-38
0.055356793 0.0088152857 0.20900001 1.207868e-38
0.056450039 0.0088993814 0.20900001 1.4656141e-38
0.045769855 0.0094880536 0.20900001 1.0420633e-38
0.04644262 0.0094880527 0.20900001 1.0697221e-38
0.047451776 0.0094880527 0.20900001 1.1158199e-38
0.04862912 0.0094880527 0.20900001 1.0882333e-38
0.049301885 0.0094880527 0.20900001 1.0698301e-38
0.05047923 0.0094880527 0.20900001 1.0606106e-38
0.051656574 0.0093198614 0.20900001 1.0606106e-38
0.052329339 0.0093198614 0.20900001 1.0606106e-38
0.053170297 0.0093198614 0.20900001 1.0698299e-38
0.055356793 0.0094880527 0.20900001 1.327504e-38
0.056534138 0.0094880527 0.20900001 1.5393695e-38
0.045657728 0.010553268 0.20900001 9.4064808e-39
0.04644262 0.010497203 0.20900001 9.1298939e-39
0.047451776 0.010497205 0.20900001 9.3142852e-39
0.04862912 0.010497203 0.20900001 9.9596546e-39
0.049301885 0.010497204 0.20900001 9.8674589e-39
0.050254971 0.010441139 0.20900001 9.9603748e-39
0.055524986 0.010329012 0.20900001 1.548446e-38
0.056534138 0.010329012 0.20900001 1.5668835e-38
0.045601666 0.011338163 0.20900001 9.4986764e-39
0.04644262 0.011338163 0.20900001 9.3142852e-39
0.047451776 0.011338163 0.20900001 9.2224497e-39
0.04862912 0.011338163 0.20900001 9.4075598e-39
0.049133692 0.01100178 0.20900001 9.591951e-39
0.044760704 0.012347315 0.20900001 9.6830677e-39
0.045601666 0.012347315 0.20900001 9.6830677e-39
0.046442624 0.012347315 0.20900001 9.6830677e-39
0.047451772 0.012347314 0.20900001 9.5912322e-39
0.048460927 0.012179123 0.20900001 9.6841467e-39
0.044592515 0.013524658 0.20900001 9.6830677e-39
0.045601666 0.013524659 0.20900001 9.6830677e-39
0.04644262 0.013524659 0.20900001 9.590872e-39
0.047451776 0.013524658 0.20900001 9.4986764e-39
0.053170297 0.013524659 0.20900001 1.4932744e-38
0.044592515 0.014365618 0.20900001 9.6830677e-39
0.045601666 0.014365617 0.20900001 9.6830677e-39
0.04644262 0.014365617 0.20900001 9.590872e-39
0.047283582 0.014365617 0.20900001 9.4986764e-39
0.053170297 0.014365618 0.20900001 1.594579e-38
0.044424322 0.015374769 0.20900001 9.6830677e-39
0.045601666 0.015374769 0.20900001 9.590872e-39
0.046442617 0.015374769 0.20900001 9.590872e-39
0.047115389 0.015374769 0.20900001 9.4986764e-39
0.043751553 0.016552113 0.20900001 9.6830705e-39
0.044424322 0.016552111 0.20900001 9.6830705e-39
0.045601666 0.016552111 0.20900001 9.4986764e-39
0.04644262 0.016552113 0.20900001 9.4068409e-39
0.043751553 0.01722488 0.20900001 9.6830691e-39
0.044424322 0.01722488 0.20900001 9.5908734e-39
0.045601666 0.01722488 0.20900001 9.4986764e-39
0.04644262 0.01722488 0.20900001 9.4064808e-39
0.04358336 0.018486319 0.20900001 9.5908692e-39
0.044424322 0.018402224 0.20900001 9.4990337e-39
0.045601666 0.018402224 0.20900001 9.4068395e-39
0.046274427 0.018318128 0.20900001 9.4071969e-39
0.051488381 0.01806584 0.20900001 1.4470661e-38
0.04341517 0.019579567 0.20900001 1.0235879e-38
0.044424322 0.019579565 0.20900001 9.867096e-39
0.045601666 0.019579567 0.20900001 9.4990323e-39
0.046106238 0.019579567 0.20900001 9.5912266e-39
0.042630274 0.020308398 0.20900001 1.0235879e-38
0.043415166 0.020252334 0.20900001 1.0328074e-38
0.044424322 0.020252334 0.20900001 9.867096e-39
0.045601666 0.020252334 0.20900001 9.6827047e-39
0.046106238 0.020084143 0.20900001 9.7748976e-39
0.048797309 0.020420525 0.20900001 1.5668835e-38
0.059897974 0.020252334 0.20900001 8.5792411e-39
0.041649155 0.021513771 0.20900001 1.0604661e-38
0.042574212 0.021429675 0.20900001 1.0512826e-38
0.04341517 0.021429675 0.20900001 1.0328074e-38
0.044424322 0.021429678 0.20900001 9.774899e-39
0.045568027 0.0213624 0.20900002 9.774536e-39
0.048460927 0.021429678 0.20900001 1.5024546e-38
0.059897974 0.021766061 0.20900001 8.5792411e-39
0.041565061 0.022607021 0.20900001 9.4983135e-39
0.042574212 0.022607019 0.20900001 9.6827047e-39
0.043415166 0.022607021 0.20900001 9.7749004e-39
0.044424322 0.022607021 0.20900001 9.8670904e-39
0.048460927 0.022438828 0.20900001 1.5484796e-38
0.058384247 0.022438828 0.20900001 8.3948498e-39
0.059393398 0.022438828 0.20900001 8.3026542e-39
0.041621123 0.023223722 0.20900001 9.3139222e-39
0.042574212 0.023279786 0.20900001 9.5905091e-39
0.043415166 0.023279786 0.20900001 9.6827047e-39
0.044200063 0.023223722 0.20900001 9.8670904e-39
0.047788158 0.023279786 0.20900001 1.61298e-38
0.041649155 0.024541227 0.20900001 9.3139208e-39
0.042540573 0.024389854 0.20900002 9.4061164e-39
0.043415166 0.024120746 0.20900001 9.5905077e-39
0.047788158 0.024120746 0.20900001 1.3364314e-38
0.041464143 0.025668111 0.20900002 9.1295282e-39
0.056534138 0.025802666 0.20900001 8.2097355e-39
0.04049984 0.026363306 0.20900001 9.0373325e-39
0.041396867 0.02630724 0.20900001 9.3139194e-39
0.048460927 0.02630724 0.20900001 8.6674542e-39
0.056534138 0.02630724 0.20900001 8.2090166e-39
0.039580397 0.02755186 0.20900002 9.4972289e-39
0.040387712 0.027484583 0.20900001 9.128445e-39
0.041396867 0.027484583 0.20900001 9.5894175e-39
0.042406019 0.027484585 0.20900001 1.19836e-38
0.048573058 0.027484583 0.20900001 8.2082907e-39
0.020877456 0.028830118 0.20900001 1.0879087e-38
0.021213839 0.028830118 0.20900001 1.0695775e-38
0.037360258 0.028830118 0.20900001 9.2220881e-39
0.038302135 0.02862829 0.20900002 1.0328074e-38
0.03960282 0.028605863 0.20900001 1.0050041e-38
0.040387712 0.028661925 0.20900001 9.6808929e-39
0.041329589 0.02862829 0.20900002 1.0877974e-38
0.042742401 0.028493736 0.20900001 1.4286626e-38
0.065784693 0.028493736 0.20900001 8.4863252e-39
0.020877456 0.029166503 0.20900001 1.0786891e-38
0.036687493 0.029334694 0.20900001 8.7614673e-39
0.037248131 0.02927863 0.20900001 9.0380542e-39
0.04049984 0.02927863 0.20900001 1.0325168e-38
0.041060481 0.029334694 0.20900001 1.1154203e-38
0.042742401 0.029502887 0.20900001 1.5024171e-38
0.043078784 0.029502887 0.20900001 1.5024171e-38
0.065280117 0.029502887 0.20900001 8.9473033e-39
0.036687493 0.030512037 0.20900001 9.1295282e-39
0.037360258 0.030512037 0.20900001 8.8529413e-39
0.03820122 0.030680228 0.20900001 8.576353e-39
0.039714947 0.030848421 0.20900001 1.0417725e-38
0.040387712 0.030512037 0.20900001 1.1522238e-38
0.04126231 0.030646592 0.20900002 1.327284e-38
0.042742401 0.030343845 0.20900001 1.4194767e-38
0.043415166 0.030343845 0.20900001 1.2903679e-38
0.036575366 0.031745445 0.20900001 9.2217266e-39
0.037360258 0.031689383 0.20900001 9.0373339e-39
0.038369413 0.031689379 0.20900001 9.3121061e-39
0.039546758 0.031689383 0.20900001 1.1797027e-38
0.040387712 0.031689383 0.20900001 1.373201e-38
0.041329589 0.031723022 0.20900002 1.4377364e-38
0.062589042 0.031857572 0.20900001 8.9455026e-39
0.036519304 0.032362148 0.20900001 9.0373353e-39
0.037360258 0.032362148 0.20900001 9.2213637e-39
0.038369413 0.032362152 0.20900001 1.0509551e-38
0.039546758 0.032362148 0.20900001 1.3177417e-38
0.040387712 0.032362148 0.20900001 1.4559602e-38
0.041396867 0.032362152 0.20900001 1.4191175e-38
0.042406019 0.032362148 0.20900001 1.1520042e-38
0.062925428 0.032530341 0.20900001 8.6699947e-39
0.035454083 0.033651616 0.20900001 1.0327713e-38
0.036519304 0.033539489 0.20900001 1.0603932e-38
0.037360258 0.033539493 0.20900001 1.1154933e-38
0.038369413 0.033539493 0.20900001 1.3085597e-38
0.039513119 0.033472218 0.20900002 1.5201748e-38
0.040387712 0.033203106 0.20900001 1.5110264e-38
0.041396867 0.033203106 0.20900001 1.3175246e-38
0.042406019 0.033203106 0.20900001 1.0136428e-38
0.076717168 0.033539493 0.20900001 8.1182657e-39
0.033884291 0.034660771 0.20900001 9.7748976e-39
0.034669191 0.03454864 0.20900001 1.0142958e-38
0.035341956 0.03454864 0.20900001 1.0419184e-38
0.036519304 0.03454864 0.20900001 1.1891417e-38
0.037360258 0.03454864 0.20900001 1.2994507e-38
0.038302135 0.034481365 0.20900002 1.4096859e-38
0.032482695 0.035557795 0.20900001 9.4983135e-39
0.033660039 0.035389606 0.20900001 9.5901462e-39
0.034669191 0.035389602 0.20900001 1.0049324e-38
0.035341959 0.035389598 0.20900001 1.0509935e-38
0.036519304 0.035389602 0.20900001 1.2165467e-38
0.037360258 0.035389602 0.20900001 1.3638056e-38
0.03820122 0.035389602 0.20900001 1.4556393e-38
0.0087676393 0.036903329 0.20900001 1.0510302e-38
0.0091040228 0.036903329 0.20900001 1.0510305e-38
0.03069986 0.036768775 0.20900002 9.6816257e-39
0.031809926 0.036566943 0.20900001 9.5897902e-39
0.032482695 0.036566943 0.20900001 9.5897888e-39
0.033660036 0.036566943 0.20900001 1.0050043e-38
0.034669191 0.036566947 0.20900001 1.0970536e-38
0.035341956 0.036566943 0.20900001 1.1522618e-38
0.036519304 0.036566947 0.20900001 1.271681e-38
0.03729298 0.036566943 0.20900002 1.2623523e-38
0.038285315 0.036651045 0.20900001 1.1884873e-38
0.0084312558 0.037576094 0.20900001 1.0233715e-38
0.009272215 0.037576094 0.20900001 1.0141519e-38
0.010113174 0.037912481 0.20900001 1.0049324e-38
0.02973556 0.037688222 0.20900001 9.4061179e-39
0.030632585 0.037576098 0.20900001 9.4061179e-39
0.031809926 0.037576098 0.20900001 9.7738214e-39
0.032482695 0.037576094 0.20900001 9.8656541e-39
0.033660039 0.037576098 0.20900001 1.0877987e-38
0.034669191 0.037576094 0.20900001 1.2534594e-38
0.035341956 0.037576098 0.20900001 1.2902642e-38
0.036519304 0.037576094 0.20900001 1.2162901e-38
0.037360258 0.037239712 0.20900001 1.1333496e-38
0.0084312558 0.038248863 0.20900001 1.0049324e-38
0.009272215 0.038248863 0.20900001 9.957128e-39
0.028950665 0.038417056 0.20900001 9.129531e-39
0.029623434 0.038248863 0.20900001 9.2217266e-39
0.030632583 0.038417056 0.20900001 9.0373353e-39
0.031809926 0.038417056 0.20900001 9.4968715e-39
0.032482695 0.038417056 0.20900001 1.0233708e-38
0.033660036 0.038417056 0.20900001 1.198215e-38
0.034669191 0.038417056 0.20900001 1.2993747e-38
0.035341959 0.03841706 0.20900001 1.280791e-38
0.036351111 0.038248863 0.20900001 1.216182e-38
0.027773321 0.039930783 0.20900001 8.8529441e-39
0.028782474 0.039594401 0.20900001 8.9451397e-39
0.029623434 0.039930783 0.20900001 8.9451397e-39
0.030632585 0.039594401 0.20900001 9.0369738e-39
0.031809926 0.039594401 0.20900001 1.1060936e-38
0.032482695 0.039594401 0.20900001 1.29945e-38
0.033660039 0.039594397 0.20900001 1.4466719e-38
0.034669191 0.039594397 0.20900001 1.30827e-38
0.035245847 0.039546344 0.20900001 1.188488e-38
0.041060481 0.039930783 0.20900001 8.3919659e-39
0.045601666 0.039594401 0.20900001 8.2093725e-39
0.046106238 0.039930783 0.20900001 8.3015682e-39
0.027773321 0.040603548 0.20900001 9.1288121e-39
0.028782472 0.040603548 0.20900001 8.8522252e-39
0.029623432 0.040603548 0.20900001 9.2206434e-39
0.030632585 0.040603548 0.20900001 1.0417013e-38
0.031809926 0.040603552 0.20900001 1.3914287e-38
0.032482695 0.040603552 0.20900001 1.5203207e-38
0.033592761 0.040536277 0.20900002 1.5109921e-38
0.046779007 0.040267166 0.20900001 8.3937638e-39
0.027672406 0.04147815 0.20900002 9.2206462e-39
0.028782472 0.04144451 0.20900001 9.2206448e-39
0.029623432 0.04144451 0.20900001 1.0232983e-38
0.030632585 0.041444514 0.20900001 1.2902311e-38
0.031809926 0.04144451 0.20900001 1.529504e-38
0.032482695 0.04144451 0.20900001 1.5846763e-38
0.033323653 0.041276317 0.20900001 1.5293235e-38
0.04644262 0.041612703 0.20900001 8.2093725e-39
0.026932362 0.042790048 0.20900001 9.0362535e-39
0.027605131 0.042621851 0.20900001 9.1284492e-39
0.028782472 0.042621855 0.20900001 9.9571196e-39
0.029623434 0.042621851 0.20900001 1.2809388e-38
0.030632585 0.042621851 0.20900001 1.4926621e-38
0.031809926 0.042621851 0.20900001 1.5201035e-38
0.032314502 0.042621851 0.20900001 1.4185804e-38
0.022727568 0.043967389 0.20900001 9.3139194e-39
0.026932362 0.043631002 0.20900001 9.0362535e-39
0.027605131 0.043631002 0.20900001 9.6801754e-39
0.028782472 0.043631002 0.20900001 1.2717557e-38
0.029623432 0.043631006 0.20900001 1.4742229e-38
0.030632585 0.043631002 0.20900001 1.5477982e-38
0.031641737 0.043967389 0.20900001 1.2896148e-38
0.026932362 0.044303771 0.20900001 9.0362507e-39
0.027605131 0.044471964 0.20900001 1.1243884e-38
0.028782472 0.044471964 0.20900001 1.4925545e-38
0.029511305 0.044415902 0.20900001 1.5662372e-38
0.030632585 0.044303771 0.20900001 1.4647501e-38
0.031641737 0.044471964 0.20900001 1.1698346e-38
0.039714947 0.044303771 0.20900001 8.2082935e-39
0.026932362 0.045985691 0.20900001 1.3360404e-38
0.027605131 0.045649305 0.20900001 1.4464574e-38
0.028698377 0.04556521 0.20900001 1.6029354e-38
0.040724099 0.045312922 0.20900001 8.1160979e-39
0.047115389 0.045312922 0.20900001 8.2079376e-39
0.0551886 0.045985691 0.20900001 7.4718075e-39
0.022895759 0.046994843 0.20900001 8.5752726e-39
0.026708106 0.046770588 0.20900001 1.437238e-38
0.027605131 0.046658456 0.20900001 1.5476546e-38
0.028782472 0.046658456 0.20900001 1.4370555e-38
0.02928705 0.046994843 0.20900001 1.133209e-38
0.038537607 0.046322074 0.20900001 8.1160965e-39
0.054852217 0.046658456 0.20900001 7.3796133e-39
0.0551886 0.046322074 0.20900001 7.4718075e-39
0.025811085 0.04755548 0.20900001 1.3911399e-38
0.02659598 0.047499415 0.20900001 1.5108129e-38
0.027605129 0.047499418 0.20900001 1.4738976e-38
0.028726408 0.047443356 0.20900001 1.1790899e-38
0.054852217 0.047499418 0.20900001 7.3792559e-39
0.0551886 0.047667608 0.20900001 7.3792559e-39
0.022559375 0.048003994 0.20900001 8.6674682e-39
0.0234564 0.048228249 0.20900001 8.9422488e-39
0.024644954 0.048407651 0.20900002 1.2807588e-38
0.025698958 0.048228249 0.20900001 1.4831903e-38
0.02659598 0.048003994 0.20900001 1.5291431e-38
0.027605131 0.048172183 0.20900001 1.3172021e-38
0.023568526 0.049013145 0.20900001 1.115024e-38
0.024577677 0.049147695 0.20900002 1.428018e-38
0.025586829 0.049013145 0.20900001 1.5384707e-38
0.025923213 0.050022297 0.20900001 1.2803605e-38
0.026259597 0.050022297 0.20900001 1.1973845e-38
0.035510149 0.050190486 0.20900001 7.7465965e-39
0.036687493 0.061459344 0.20900001 6.5487694e-39
0.037360258 0.061459344 0.20900001 6.5487694e-39
0.037023876 0.063141264 0.20900001 6.4565738e-39
0.036687493 0.064150415 0.20900001 6.4565738e-39
0.017428419 -0.030349752 0.21000001 1.5437015e-38
0.018273402 -0.030180756 0.21000001 1.4515782e-38
0.017428419 -0.02950477 0.21000001 1.5158267e-38
0.015738454 -0.026293833 0.21000001 1.2401037e-38
0.046664838 0.0049705422 0.21000001 1.1434785e-38
0.047340825 0.0049705422 0.21000001 1.1618457e-38
0.048185807 0.0048015453 0.21000001 1.1434425e-38
0.049411029 0.0046747979 0.21000002 1.1066002e-38
0.050382763 0.0046325489 0.21000002 1.1066002e-38
0.051171418 0.0048578777 0.20999999 1.1066002e-38
0.05207273 0.0049705422 0.21000001 1.1342589e-38
0.044974871 0.0059845215 0.21000001 1.1342589e-38
0.045650858 0.0058155251 0.21000001 1.1250393e-38
0.04649584 0.0058155251 0.21000001 1.152698e-38
0.047340825 0.0058155251 0.21000001 1.1619176e-38
0.048185807 0.0058155251 0.21000001 1.1342589e-38
0.04936878 0.0058155246 0.21000002 1.1158198e-38
0.050382763 0.0058155255 0.21000001 1.1066002e-38
0.051227748 0.0058155255 0.21000001 1.1066002e-38
0.052185398 0.0058718571 0.20999999 1.1250393e-38
0.043960892 0.006660508 0.21000001 1.1434785e-38
0.044805873 0.0064915111 0.21000001 1.1067081e-38
0.045650858 0.0064915111 0.21000001 1.1067081e-38
0.04649584 0.0064915111 0.21000001 1.1159277e-38
0.047228158 0.0064351787 0.20999999 1.1435143e-38
0.048185807 0.0063225147 0.21000001 1.1342589e-38
0.049453277 0.0064070132 0.21000001 1.1158198e-38
0.050382763 0.0064915111 0.21000001 1.0973808e-38
0.051227748 0.0064915116 0.21000001 1.1066002e-38
0.05207273 0.0063225147 0.21000001 1.1158198e-38
0.043791898 0.0075054904 0.21000001 1.1250393e-38
0.044805869 0.0075054909 0.21000001 1.1343669e-38
0.045650855 0.0075054904 0.21000001 1.1343668e-38
0.04643951 0.007449158 0.20999999 1.1343668e-38
0.0436229 0.0083504748 0.21000002 1.0789055e-38
0.044805873 0.0083504748 0.21000001 1.1158558e-38
0.045650858 0.0083504748 0.21000001 1.152734e-38
0.046326842 0.008012481 0.21000001 1.1620255e-38
0.042946909 0.0093644531 0.20999999 1.0143686e-38
0.0436229 0.0093644541 0.21000002 1.005185e-38
0.044805869 0.0093644531 0.21000002 1.0420633e-38
0.045481861 0.0092799552 0.21000001 1.0789415e-38
0.042946909 0.010547429 0.21000001 9.8674589e-39
0.0436229 0.01054743 0.21000002 9.6830677e-39
0.044805869 0.010547429 0.21000001 9.6830677e-39
0.045312863 0.010378433 0.21000001 9.6830677e-39
0.042608917 0.011392413 0.21000001 9.9592958e-39
0.043622896 0.011392414 0.21000002 9.6830677e-39
0.044805873 0.011392413 0.21000001 9.6830677e-39
0.041797731 0.012473991 0.21000001 9.7752633e-39
0.042608917 0.012406393 0.21000002 9.6830677e-39
0.043622896 0.012406392 0.21000002 9.6834264e-39
0.044636875 0.012406393 0.20999999 9.6834264e-39
0.052748717 0.012406393 0.21000001 1.1065634e-38
0.053086713 0.012744386 0.21000001 1.3367241e-38
0.04091895 0.01358937 0.21000001 1.0051131e-38
0.041763932 0.01358937 0.21000001 9.8667401e-39
0.042608917 0.01358937 0.21000001 9.7752633e-39
0.0436229 0.01358937 0.21000002 9.7752633e-39
0.040749952 0.014434353 0.21000001 1.0235523e-38
0.041763932 0.014434353 0.21000001 9.9592958e-39
0.042608917 0.014434353 0.21000001 9.9592958e-39
0.043622896 0.014434353 0.21000002 9.6830677e-39
0.040580958 0.015448334 0.21000002 1.0235523e-38
0.041763932 0.015448332 0.21000002 1.0235881e-38
0.042608917 0.015448333 0.21000002 1.0143686e-38
0.043453902 0.015448332 0.21000002 9.8674589e-39
0.039904971 0.016800305 0.21000001 1.0235879e-38
0.040580958 0.016631309 0.21000002 1.0235879e-38
0.041763932 0.016631309 0.21000001 1.0143683e-38
0.042608917 0.016631309 0.21000001 9.8674575e-39
0.043284904 0.016631309 0.21000001 9.7752633e-39
0.039679643 0.017588956 0.20999999 1.0051487e-38
0.040580958 0.017476292 0.21000002 1.0051487e-38
0.041763935 0.017476292 0.21000001 1.0143683e-38
0.042608917 0.017476292 0.21000001 9.8674575e-39
0.043284904 0.017476292 0.21000001 9.6830677e-39
0.05207273 0.017814286 0.21000001 1.4746884e-38
0.038806491 0.018574771 0.21000001 9.867096e-39
0.039566979 0.018490272 0.21000002 9.867096e-39
0.040580958 0.018490272 0.21000002 1.0051487e-38
0.041763932 0.018490272 0.21000002 1.0143683e-38
0.042608917 0.018490272 0.21000002 9.8674547e-39
0.043284904 0.018321276 0.21000001 9.6830635e-39
0.032807112 0.019842245 0.21000001 1.0419191e-38
0.033145104 0.019842245 0.21000001 1.0419191e-38
0.038552996 0.019673247 0.21000002 1.0144043e-38
0.039566979 0.019673247 0.21000001 9.7752633e-39
0.040580958 0.019673247 0.21000002 9.6827047e-39
0.041763932 0.019673247 0.21000001 9.6827047e-39
0.042608917 0.019673247 0.21000001 9.9592916e-39
0.032807112 0.020180238 0.21000001 1.0419191e-38
0.033145104 0.020180238 0.21000001 1.0419191e-38
0.037426353 0.020405568 0.20999999 1.0051487e-38
0.038552996 0.020349236 0.21000002 1.0051487e-38
0.039566979 0.020349234 0.21000001 9.8674575e-39
0.040580958 0.020349234 0.21000002 9.5905105e-39
0.041763935 0.020349234 0.21000001 9.6827047e-39
0.042270925 0.020180238 0.21000001 9.9592916e-39
0.059846576 0.020518232 0.21000001 8.6714367e-39
0.036863033 0.021701209 0.21000001 9.6816257e-39
0.037370022 0.02153221 0.21000002 9.6823446e-39
0.038552999 0.021532213 0.21000002 9.5905091e-39
0.039566975 0.02153221 0.21000002 9.5905091e-39
0.040580954 0.021532213 0.21000002 1.005113e-38
0.041594937 0.021363214 0.21000001 1.0604661e-38
0.058832597 0.021870205 0.21000001 8.4870426e-39
0.059576184 0.021599809 0.21000001 8.4870454e-39
0.060184572 0.021363214 0.21000001 8.5792411e-39
0.036525041 0.022715189 0.21000001 9.6816257e-39
0.037370019 0.022715187 0.21000001 9.4050389e-39
0.038552996 0.022715187 0.21000002 9.4061179e-39
0.039566979 0.022715187 0.21000001 9.3139222e-39
0.040580954 0.022715187 0.21000002 9.2217266e-39
0.036637705 0.02333484 0.20999999 9.4972317e-39
0.037370022 0.023391174 0.21000001 9.2206448e-39
0.038552999 0.023391174 0.21000002 9.3135607e-39
0.039454315 0.02333484 0.20999999 9.3139222e-39
0.040665455 0.023306675 0.21000001 9.2217266e-39
0.041594937 0.02356017 0.21000001 9.3139222e-39
0.048354805 0.023391174 0.21000001 1.5852867e-38
0.036863033 0.024574151 0.20999999 9.2210077e-39
0.037370022 0.024574148 0.21000002 9.2210077e-39
0.038456429 0.024525866 0.21000002 9.405399e-39
0.041594937 0.024405153 0.21000001 9.3139222e-39
0.048354805 0.024236158 0.21000001 1.2626417e-38
0.036863033 0.025757127 0.21000001 9.0373353e-39
0.037370022 0.025757127 0.21000001 9.0373353e-39
0.038552996 0.025757127 0.21000002 9.0369738e-39
0.039228983 0.025926122 0.21000001 9.0362535e-39
0.040749952 0.025757127 0.21000001 9.3128404e-39
0.056128651 0.025926122 0.21000001 8.3934079e-39
0.036863033 0.026433112 0.21000001 9.0373367e-39
0.037370019 0.02643311 0.21000001 8.9454998e-39
0.038552999 0.026433112 0.21000002 9.0376941e-39
0.039566979 0.026433112 0.21000001 8.66855e-39
0.040242963 0.026264116 0.21000001 8.9451369e-39
0.055790659 0.026433112 0.21000001 8.3012122e-39
0.056128651 0.026433112 0.21000001 8.3934079e-39
0.035736386 0.027841417 0.20999999 8.8536629e-39
0.036525041 0.027616089 0.21000002 8.9462229e-39
0.037370022 0.027616089 0.21000002 9.4075598e-39
0.038552996 0.027616087 0.21000002 9.5908692e-39
0.039228983 0.027278095 0.21000001 9.4983107e-39
0.049368784 0.027841417 0.20999999 8.3008479e-39
0.033821091 0.02896806 0.21000001 1.0050405e-38
0.034384415 0.028855396 0.20999999 9.5894273e-39
0.035511058 0.028799063 0.21000002 9.129531e-39
0.036525041 0.028799064 0.21000001 8.8536629e-39
0.037370019 0.028630067 0.21000001 9.1302512e-39
0.065930456 0.02896806 0.21000001 8.762912e-39
0.032553617 0.029559551 0.21000001 1.0511385e-38
0.033483095 0.029475052 0.21000001 1.0695775e-38
