# .PCD v0.7 - Point Cloud Data file format
VERSION 0.7
FIELDS x y z rgb
SIZE 4 4 4 4
TYPE F F F F
COUNT 1 1 1 1
WIDTH 1008
HEIGHT 1
VIEWPOINT 0 0 0 1 0 0 0
POINTS 1008
DATA ascii
0.018503925 0.033686329 0.19800001 8.8518623e-39
0.019778643 0.033367649 0.19800001 9.2206448e-39
0.020352267 0.033303913 0.19800001 9.1284492e-39
0.021372041 0.033367649 0.19800001 9.0362535e-39
0.022646757 0.033367649 0.19800001 9.0362535e-39
0.023762137 0.033367649 0.19800001 8.5759956e-39
0.024319824 0.03328798 0.19800001 8.3919645e-39
0.025355533 0.033048972 0.19800001 8.2075747e-39
0.018543761 0.034602534 0.19800001 9.0362535e-39
0.019619303 0.034536142 0.19800001 9.4050374e-39
0.020352267 0.034642369 0.19800001 9.405036e-39
0.021411875 0.034602534 0.19800001 8.9440593e-39
0.022646757 0.034536142 0.19800001 8.667471e-39
0.023762135 0.034536142 0.19800001 8.4841602e-39
0.024319826 0.034562699 0.19800001 8.3919659e-39
0.049256489 0.034642369 0.19800001 7.4700068e-39
0.018503925 0.035439063 0.19800001 9.0362549e-39
0.019619303 0.035439067 0.19800001 9.2206476e-39
0.020416003 0.035439067 0.19800001 9.3128432e-39
0.021372041 0.035439063 0.19800001 8.9440607e-39
0.022646757 0.035439063 0.19800001 8.4830826e-39
0.023709022 0.035385951 0.19800001 8.4834427e-39
0.018503925 0.036554448 0.19800001 8.8518623e-39
0.019619303 0.036554445 0.19800001 8.8518623e-39
0.020416003 0.036554445 0.19800001 8.9440579e-39
0.021332204 0.036514614 0.19800001 8.8518637e-39
0.022583021 0.036363237 0.19800001 8.2994102e-39
0.018503925 0.037669819 0.19800001 8.4834385e-39
0.019619303 0.037669823 0.19800001 8.4834399e-39
0.020416003 0.037669823 0.19800001 8.2994074e-39
0.021053361 0.037669823 0.19800001 8.2994074e-39
0.030932421 0.037829161 0.19800001 8.3919659e-39
0.018503927 0.038307179 0.19800001 8.2072131e-39
0.019619303 0.038307182 0.19800001 8.2079306e-39
0.020416003 0.038307179 0.19800001 8.2075719e-39
0.021053361 0.038147841 0.19800001 8.2075719e-39
0.030295063 0.038466521 0.19800001 8.2075719e-39
0.045910351 0.038147841 0.19800001 7.5622025e-39
0.018543759 0.039382719 0.19800001 8.1146574e-39
0.019587433 0.039358821 0.19800001 8.0231806e-39
0.020097323 0.039103877 0.19800001 8.0231806e-39
0.029870158 0.03963501 0.19800001 7.8387893e-39
0.030295063 0.039103877 0.19800001 8.2075719e-39
0.018822605 0.040378597 0.19800001 7.930985e-39
0.028701665 0.040697277 0.19800001 7.7465965e-39
0.029020345 0.040537938 0.19800001 7.7465951e-39
0.015954491 0.041334633 0.19800001 8.2064901e-39
0.016698075 0.041547086 0.19800001 8.1142944e-39
0.017229209 0.041334633 0.19800001 8.1142944e-39
0.025514873 0.041971993 0.19800001 8.5763544e-39
0.026789589 0.041971993 0.19800001 8.3919631e-39
0.027267609 0.041971993 0.19800001 8.2064957e-39
0.028382987 0.041122179 0.19800001 7.6543981e-39
0.024558833 0.042290673 0.19800001 8.5763572e-39
0.025514871 0.042290673 0.19800001 8.7607456e-39
0.026152231 0.042290673 0.19800001 8.5763544e-39
0.022965437 0.046433505 0.19800001 8.3898051e-39
0.023602795 0.046752181 0.19800001 8.5741964e-39
0.021372041 0.047708221 0.19800001 7.6522373e-39
0.022726428 0.047548883 0.19800001 7.9288256e-39
0.021531381 0.048345581 0.19800001 7.468925e-39
0.02254053 0.04823935 0.19800001 7.7455119e-39
0.021690719 0.049620297 0.19800001 7.7455119e-39
0.022455549 0.049684037 0.19800001 7.7455119e-39
0.021690719 0.050735675 0.19800001 7.468925e-39
0.022487417 0.050735675 0.19800001 7.6533163e-39
0.021690719 0.051373035 0.19800001 7.2845338e-39
0.022487417 0.051373035 0.19800001 7.3770881e-39
0.022328079 0.052169733 0.19800001 7.1923381e-39
0.017725138 -0.021018017 0.2 5.9912796e-39
0.015471851 -0.020696118 0.2 4.8860082e-39
0.016342266 -0.020430049 0.19950001 5.5317406e-39
0.017498525 -0.020458363 0.19925001 6.3611411e-39
0.0033470111 -0.019301224 0.2 8.1016827e-39
0.015471851 -0.019408524 0.2 6.9146778e-39
0.014593769 -0.018991193 0.19900002 6.9154009e-39
0.015394491 -0.018991193 0.19900002 7.4685747e-39
0.017636513 -0.018350616 0.19900002 1.0785452e-38
0.014113335 -0.017389748 0.19900002 9.9571336e-39
0.015394491 -0.017069461 0.19900002 1.0694699e-38
0.016488981 -0.017632402 0.19933335 1.0601781e-38
0.017403241 -0.017799033 0.2 1.1154235e-38
0.023841208 -0.016189542 0.2 1.0324471e-38
0.024522724 -0.016108593 0.19900002 1.041811e-38
0.025003158 -0.016108593 0.19900002 1.1340068e-38
0.023841208 -0.015706694 0.2 1.0601421e-38
0.024576105 -0.015574779 0.19900002 9.7727396e-39
0.025216684 -0.015574779 0.19900002 1.1432262e-38
0.031729225 -0.015628161 0.19900002 1.1894321e-38
0.032330796 -0.015567521 0.19925001 1.2170908e-38
0.021909818 -0.014258152 0.2 1.272264e-38
0.022634089 -0.014338626 0.2 1.272264e-38
0.023688607 -0.014501412 0.1998 1.2446051e-38
0.024522722 -0.014507149 0.19900002 1.1062035e-38
0.025536971 -0.014507149 0.19900002 9.7727396e-39
0.026391076 -0.014293623 0.19900002 1.0973804e-38
0.031729225 -0.014507149 0.19900002 1.1526261e-38
0.032209653 -0.014507149 0.19900002 1.1802847e-38
0.03328491 -0.014415639 0.19900002 1.2079791e-38
0.021695219 -0.013399755 0.2 1.2446413e-38
0.022553615 -0.013453406 0.2 1.2446413e-38
0.023561858 -0.013386139 0.19900002 1.2353854e-38
0.024522722 -0.013386139 0.19900002 1.1985432e-38
0.025536971 -0.013386138 0.19900002 9.4035969e-39
0.026444457 -0.013386139 0.19900002 9.1280918e-39
0.02756547 -0.013386138 0.19900002 1.0696857e-38
0.028526336 -0.013386139 0.19900002 1.0604661e-38
0.029327057 -0.013386139 0.19900002 1.0512109e-38
0.03044807 -0.013225994 0.19900002 1.0880892e-38
0.031515699 -0.013332757 0.19900002 1.1157479e-38
0.032209657 -0.013386139 0.19900002 1.1434066e-38
0.033490811 -0.013386138 0.19900002 1.1710651e-38
0.020863649 -0.012407237 0.2 1.2169827e-38
0.021587918 -0.012541361 0.2 1.2354219e-38
0.022553615 -0.01254136 0.20000002 1.2446413e-38
0.023561858 -0.012745561 0.19900002 1.226202e-38
0.024522724 -0.012745561 0.19900002 1.2077628e-38
0.025536975 -0.012745562 0.19900002 1.1063477e-38
0.026444457 -0.012745561 0.19900002 8.1132196e-39
0.027565466 -0.012745562 0.19900002 9.5897888e-39
0.028526336 -0.012745561 0.19900002 1.0512104e-38
0.029327057 -0.012745561 0.19900002 1.0604661e-38
0.030448066 -0.012745562 0.19900002 1.0881249e-38
0.031408936 -0.012745561 0.19900002 1.1157836e-38
0.032209657 -0.012745561 0.19900002 1.1434064e-38
0.033490814 -0.012745561 0.19900002 1.1618456e-38
0.034718588 -0.01269218 0.19900002 1.1065639e-38
0.019978428 -0.011361066 0.2 1.1432264e-38
0.020783173 -0.011522016 0.2 1.1893242e-38
0.021587919 -0.011522016 0.2 1.2169827e-38
0.022553613 -0.011522015 0.2 1.207763e-38
0.023561858 -0.01162455 0.19900002 1.2446413e-38
0.024522722 -0.01162455 0.19900002 1.2630803e-38
0.025536975 -0.01162455 0.19900002 1.2538246e-38
0.026444457 -0.01162455 0.19900002 1.1340065e-38
0.02756547 -0.01162455 0.19900002 8.7593093e-39
0.028526336 -0.01162455 0.19900002 8.8518651e-39
0.029327057 -0.01162455 0.19900002 9.4972317e-39
0.030448066 -0.01162455 0.19900002 9.9582098e-39
0.031408936 -0.01162455 0.19900002 1.060286e-38
0.032209653 -0.01162455 0.19900002 1.1432621e-38
0.033490818 -0.01162455 0.19900002 1.1709208e-38
0.034771968 -0.01162455 0.19900002 1.0695775e-38
0.0352524 -0.011464406 0.19900002 1.0603579e-38
0.0013083211 -0.010234423 0.2 1.3459123e-38
0.019978428 -0.010395371 0.2 1.1432261e-38
0.020783173 -0.010395371 0.2 1.1524457e-38
0.021587918 -0.010395371 0.2 1.1801043e-38
0.022553615 -0.010395372 0.20000002 1.1708848e-38
0.023581458 -0.010351789 0.19916667 1.1985435e-38
0.024522722 -0.010343395 0.19900002 1.2262022e-38
0.025536971 -0.010343394 0.19900002 1.1985433e-38
0.026444457 -0.010343395 0.19900002 1.1340062e-38
0.027565468 -0.010343394 0.19900002 1.0419907e-38
0.028526336 -0.010343395 0.19900002 9.8670932e-39
0.029327055 -0.010343395 0.19900002 9.6823446e-39
0.03044807 -0.010343394 0.19900002 9.8663771e-39
0.031408936 -0.010343395 0.19900002 9.5897902e-39
0.032209653 -0.010343395 0.19900002 9.9589315e-39
0.033490811 -0.010343394 0.19900002 1.1064918e-38
0.034718588 -0.010556921 0.19900002 1.0695778e-38
0.00098149071 -0.009062239 0.19900002 1.3366927e-38
0.00141344 -0.0093071973 0.19966668 1.3459123e-38
0.019978428 -0.0094296765 0.2 1.1432261e-38
0.020783173 -0.0094296765 0.2 1.1432261e-38
0.021587919 -0.0094296765 0.2 1.1432261e-38
0.022553613 -0.0094296755 0.2 1.1340065e-38
0.023620656 -0.0094061019 0.19950001 1.124787e-38
0.024522724 -0.0093825283 0.19900002 1.1155674e-38
0.025536971 -0.0093825283 0.19900002 1.0786891e-38
0.026444457 -0.0093825283 0.19900002 1.0418109e-38
0.02756547 -0.0093825283 0.19900002 1.0051486e-38
0.028526336 -0.0093825283 0.19900002 1.0144042e-38
0.029327057 -0.0093825283 0.19900002 1.0328433e-38
0.03044807 -0.0093825283 0.19900002 1.0512465e-38
0.031408936 -0.0093825283 0.19900002 1.0235879e-38
0.032209657 -0.0093825283 0.19900002 1.0051487e-38
0.033490814 -0.0093825283 0.19900002 1.0788692e-38
0.00098149071 -0.008581806 0.19900002 1.327545e-38
0.0014676349 -0.0086139487 0.19975001 1.3459483e-38
0.019978428 -0.0086249309 0.2 1.1432261e-38
0.020783173 -0.0086249309 0.2 1.1340065e-38
0.021587919 -0.0086249309 0.2 1.1340065e-38
0.022553613 -0.0086249309 0.2 1.124787e-38
0.023620656 -0.008603368 0.19950001 1.0971283e-38
0.024522724 -0.0084216604 0.19900002 1.06025e-38
0.025536971 -0.0084216623 0.19900002 1.0049326e-38
0.026444456 -0.0084216623 0.19900002 9.9571322e-39
0.02756547 -0.0084216613 0.19900002 9.6819859e-39
0.028526336 -0.0084216623 0.19900002 9.9600105e-39
0.029327057 -0.0084216604 0.19900002 1.0144405e-38
0.03044807 -0.0084216613 0.19900002 1.060538e-38
0.031408936 -0.0084216623 0.19900002 1.0604661e-38
0.032209653 -0.0084216623 0.19900002 1.0327715e-38
0.033330664 -0.0084216623 0.19900002 1.0604662e-38
-0.010923817 -0.0071763885 0.2 1.4565106e-38
0.0013083211 -0.0078201853 0.2 1.3275811e-38
0.0055666086 -0.0073283669 0.19975001 1.2722637e-38
0.0061367969 -0.0074982867 0.2 1.2722637e-38
0.019978428 -0.0078201853 0.2 1.1064557e-38
0.020783173 -0.0074982867 0.2 1.0972362e-38
0.021587918 -0.0074982867 0.2 1.1064197e-38
0.022553615 -0.0074982867 0.20000002 1.1064199e-38
0.023680257 -0.0074982867 0.2 1.078761e-38
0.024472855 -0.0073096212 0.19925001 1.0511384e-38
0.025536971 -0.0073006507 0.19900002 1.0050408e-38
0.026444457 -0.0073006507 0.19900002 9.866017e-39
0.02756547 -0.0073006507 0.19900002 9.5897902e-39
0.028526336 -0.0073006507 0.19900002 1.0051129e-38
0.029327057 -0.0073006507 0.19900002 1.0235521e-38
0.03044807 -0.0073006507 0.19900002 1.0235523e-38
0.031408936 -0.0073006507 0.19900002 1.0604305e-38
0.032209657 -0.0073006507 0.19900002 1.0788696e-38
0.033266611 -0.0073326798 0.19900002 1.0604305e-38
0.020783173 -0.0065325913 0.2 1.1064557e-38
0.021587919 -0.0065325918 0.2 1.0972362e-38
0.022553615 -0.0065325913 0.2 1.1064557e-38
0.023680259 -0.0065325918 0.2 1.078797e-38
0.024422986 -0.0065162601 0.19950001 1.0511384e-38
0.025536971 -0.0064999289 0.19900002 1.0142602e-38
0.026391076 -0.006606692 0.19900002 9.9582126e-39
0.027725611 -0.0064999289 0.19900002 9.7738214e-39
0.028526336 -0.0064999289 0.19900002 1.0142964e-38
0.029327057 -0.0064999284 0.19900002 1.0327357e-38
0.030448066 -0.0064999289 0.19900002 1.0050411e-38
0.031408936 -0.0064999289 0.19900002 1.0143327e-38
0.032209657 -0.0064999289 0.19900002 1.0604305e-38
0.033010378 -0.0068202177 0.19900002 1.0880892e-38
0.020944124 -0.0055668969 0.2 1.1341144e-38
0.021587918 -0.0055668969 0.2 1.1248949e-38
0.022553615 -0.0055668969 0.20000002 1.1064557e-38
0.023680257 -0.0055668969 0.2 1.078797e-38
0.024422986 -0.0055529797 0.19950001 1.0511384e-38
0.025536971 -0.0055390624 0.19900002 1.0234798e-38
0.026444457 -0.0055390629 0.19900002 1.0050408e-38
0.027565468 -0.0055390629 0.19900002 9.7738214e-39
0.028526336 -0.0055390629 0.19900002 1.005005e-38
0.029327057 -0.005539062 0.19900002 1.0326638e-38
0.030448066 -0.0055390629 0.19900002 9.9578553e-39
0.031344879 -0.0056031202 0.19900002 9.7734654e-39
0.032049514 -0.0058593513 0.19900002 9.9589357e-39
0.00066452444 -0.004601202 0.2 1.2907028e-38
0.0013083211 -0.0042793034 0.2 1.2907028e-38
0.020944122 -0.0044402527 0.2 1.1248949e-38
0.021587919 -0.0044402527 0.2 1.1341144e-38
0.022553615 -0.0044402531 0.2 1.0972365e-38
0.023680259 -0.0044402527 0.2 1.0695778e-38
0.024422986 -0.0044291522 0.19950001 1.0419191e-38
0.025536971 -0.0044180513 0.19900002 1.0326995e-38
0.026444457 -0.0044180513 0.19900002 1.0051127e-38
0.027565466 -0.0044180513 0.19900002 9.6827047e-39
0.028526336 -0.0044180518 0.19900002 1.0051487e-38
0.029327057 -0.0044180518 0.19900002 9.9589315e-39
0.03044807 -0.0044180513 0.19900002 9.9589315e-39
0.019978428 -0.0033136085 0.2 1.1064557e-38
0.020783173 -0.0036355068 0.2 1.1064557e-38
0.021587919 -0.0036355071 0.2 1.1064557e-38
0.022553615 -0.0036355068 0.2 1.0880168e-38
0.023680259 -0.0036355068 0.2 1.0695776e-38
0.024422986 -0.0036264178 0.19950001 1.0419191e-38
0.025536975 -0.0036173293 0.19900002 1.0326995e-38
0.026444457 -0.0036173291 0.19900002 1.0235158e-38
0.02756547 -0.0036173288 0.19900002 9.7749004e-39
0.028526336 -0.0036173291 0.19900002 1.0143326e-38
0.029327057 -0.0036173291 0.19900002 1.0327718e-38
0.030287921 -0.0036173291 0.19900002 9.9589357e-39
-0.015430394 -0.0023479136 0.2 1.4104128e-38
-0.014786596 -0.0023479136 0.2 1.3827541e-38
0.019763829 -0.0025625126 0.2 1.1156034e-38
0.020783173 -0.0026698119 0.2 1.1156753e-38
0.021587918 -0.0026698119 0.2 1.0880168e-38
0.022553615 -0.0026698117 0.20000002 1.0695778e-38
0.02368026 -0.0026698122 0.2 1.0603582e-38
0.024485005 -0.0026698119 0.2 1.0603582e-38
0.025536971 -0.0026564631 0.19900002 1.0419191e-38
0.026444457 -0.0026564633 0.19900002 1.0419191e-38
0.027565468 -0.0026564631 0.19900002 9.9582126e-39
0.028526336 -0.0026564628 0.19900002 9.9582126e-39
0.029327057 -0.0026564628 0.19900002 1.0328076e-38
0.03020785 -0.0026564631 0.19900002 1.0328074e-38
-0.015591342 -0.0013822187 0.2 1.3827541e-38
-0.014657837 -0.0013822188 0.2 1.3919737e-38
0.019592149 -0.0013500289 0.20000002 1.124787e-38
0.020783173 -0.0013822188 0.2 1.124787e-38
0.021587918 -0.0013822188 0.2 1.1063839e-38
0.022553613 -0.0013822188 0.20000002 1.0695775e-38
0.02368026 -0.0013822187 0.2 1.0603581e-38
0.024485005 -0.0013822188 0.2 1.0695776e-38
0.025578851 -0.0013776113 0.19933335 1.0695776e-38
0.026444457 -0.0013753077 0.19900002 1.0603581e-38
0.027565466 -0.0013753077 0.19900002 9.9585728e-39
0.028526336 -0.0013753077 0.19900002 1.02348e-38
0.029327055 -0.0013753077 0.19900002 1.0419191e-38
0.030287921 -0.0013753077 0.19900002 1.0326995e-38
-0.015430394 -0.00041652375 0.2 1.364315e-38
-0.014786596 -0.00041652375 0.2 1.3735345e-38
0.018261636 -0.00020192486 0.2 1.1524457e-38
0.01949558 -0.00025557459 0.20000002 1.1063478e-38
0.020783173 -0.00025557459 0.2 1.106384e-38
0.021587919 -0.00025557459 0.2 1.10642e-38
0.022553615 -0.00025557459 0.2 1.0787972e-38
0.023680259 -0.00025557459 0.2 1.0603581e-38
0.024485005 -0.00025557459 0.2 1.0603581e-38
0.025578855 -0.00025472266 0.19933335 1.0695778e-38
0.026444457 -0.0002542967 0.19900002 1.0512105e-38
0.027565466 -0.0002542967 0.19900002 1.0235879e-38
0.028526336 -0.0002542967 0.19900002 1.0235879e-38
0.029327057 -0.0002542967 0.19900002 1.0512465e-38
0.030287923 -0.0002542967 0.19900002 1.0419551e-38
0.017564189 0.00054917124 0.2 1.1524457e-38
0.018207986 0.00038822208 0.2 1.1616652e-38
0.01949558 0.00038822205 0.20000002 1.1155674e-38
0.020783173 0.00038822208 0.2 1.0972003e-38
0.021587919 0.00038822208 0.2 1.0880169e-38
0.022553615 0.00038822205 0.2 1.0787973e-38
0.023680259 0.00038822208 0.2 1.0511386e-38
0.024485005 0.00038822208 0.2 1.0419191e-38
0.025536969 0.00038628094 0.19900002 1.0603582e-38
0.026444457 0.00038628094 0.19900002 1.0512105e-38
0.027565466 0.00038628094 0.19900002 1.0328074e-38
0.028526336 0.00038628094 0.19900002 1.0235879e-38
0.029327057 0.00038628094 0.19900002 1.0328074e-38
0.03023454 0.00033289948 0.19900002 1.0328074e-38
0.036533557 0.00054642535 0.19900002 1.0420633e-38
0.016501924 0.0017080052 0.2 1.124787e-38
0.017564191 0.0015148661 0.2 1.1340065e-38
0.01824606 0.0015133355 0.19983333 1.1432261e-38
0.019495578 0.0015148661 0.20000003 1.1155674e-38
0.020783173 0.0015148661 0.2 1.0971644e-38
0.021587918 0.0015148661 0.2 1.0787615e-38
0.022553615 0.0015148662 0.20000002 1.0695778e-38
0.02368026 0.0015148661 0.2 1.0511386e-38
0.024422986 0.0015110791 0.19950001 1.0511386e-38
0.025536971 0.0015072918 0.19900002 1.0326995e-38
0.026444457 0.0015072919 0.19900002 1.0511386e-38
0.027565466 0.0015072918 0.19900002 1.0327715e-38
0.028526336 0.0015072917 0.19900002 1.0328074e-38
0.029327057 0.0015072919 0.19900002 1.0235879e-38
0.030127779 0.001187003 0.19900002 1.042027e-38
0.0352524 0.0015072918 0.19900002 9.9592916e-39
0.015364551 0.00269516 0.2 1.1340065e-38
0.016437545 0.0026415102 0.2 1.124787e-38
0.01764271 0.0026068399 0.1998 1.124787e-38
0.018047037 0.0028024595 0.2 1.124787e-38
0.019564558 0.0026645029 0.20000002 1.0971283e-38
0.020783173 0.0026415102 0.2 1.0602502e-38
0.021587919 0.0026415102 0.2 1.0694699e-38
0.022553613 0.0026415102 0.2 1.0695778e-38
0.023680259 0.0026415102 0.2 1.0603582e-38
0.024472855 0.0026314033 0.19925001 1.0419191e-38
0.025536975 0.0026283029 0.19900002 1.0326995e-38
0.026444457 0.0026283027 0.19900002 1.0050408e-38
0.027565466 0.0026283024 0.19900002 1.0142604e-38
0.028526336 0.0026283027 0.19900002 1.0419191e-38
0.029327057 0.0026283027 0.19900002 1.0419191e-38
0.039416157 0.0027884471 0.19900002 1.0144402e-38
0.014720754 0.0033389565 0.2 1.1340065e-38
0.015310901 0.003285307 0.2 1.124787e-38
0.016437545 0.0032853072 0.2 1.124787e-38
0.017564189 0.0032853072 0.2 1.124787e-38
0.018207986 0.003285307 0.2 1.1155674e-38
0.01949558 0.0032853072 0.20000002 1.0971283e-38
0.020783173 0.003285307 0.2 1.0510305e-38
0.021587919 0.003285307 0.2 1.06025e-38
0.022553615 0.0032853072 0.2 1.1063839e-38
0.023680259 0.003285307 0.2 1.0695776e-38
0.024522724 0.0032688805 0.19900002 1.0326995e-38
0.025536969 0.0032688805 0.19900002 1.02348e-38
0.026444457 0.0032688805 0.19900002 1.0050408e-38
0.02756547 0.0032688805 0.19900002 1.02348e-38
0.028526336 0.0032688803 0.19900002 1.0419191e-38
0.029166913 0.0031087359 0.19900002 1.0419191e-38
0.039736446 0.0034290249 0.19900002 1.0236597e-38
0.040377025 0.0034290249 0.19900002 1.0236241e-38
0.013862358 0.0045729005 0.2 1.124787e-38
0.014667105 0.0044119512 0.2 1.124787e-38
0.015310902 0.0044119512 0.2 1.1155674e-38
0.016437545 0.0044119512 0.20000002 1.0971283e-38
0.017564191 0.0044119512 0.2 1.124787e-38
0.018207986 0.0044119512 0.2 1.1063478e-38
0.01949558 0.0044119512 0.20000003 1.0695775e-38
0.020783173 0.0044119512 0.2 1.078797e-38
0.021587918 0.0044119512 0.2 1.1248949e-38
0.022553615 0.0044119512 0.20000002 1.1617011e-38
0.023680257 0.0044119512 0.2 1.1064557e-38
0.024522722 0.0043898914 0.19900002 1.0326995e-38
0.025536971 0.0043898914 0.19900002 1.0142604e-38
0.026444457 0.0043898914 0.19900002 1.0511386e-38
0.027565466 0.0043898914 0.19900002 1.0880169e-38
0.028206047 0.0042297468 0.19900002 1.0787973e-38
0.039736446 0.0040696026 0.19900002 1.0236241e-38
0.040537171 0.0040696026 0.19900002 1.0236241e-38
0.013862358 0.0053776465 0.2 1.124787e-38
0.014667104 0.0053776465 0.2 1.1063478e-38
0.015310901 0.0053776465 0.2 1.0971283e-38
0.016437545 0.0053776465 0.2 1.0786891e-38
0.017564189 0.0053776465 0.2 1.0971283e-38
0.018207986 0.0053776465 0.2 1.0971283e-38
0.01949558 0.0053776465 0.20000002 1.0786891e-38
0.020783173 0.0053776465 0.2 1.0879806e-38
0.021587919 0.0053776465 0.2 1.0972363e-38
0.022553613 0.0053776465 0.2 1.1432981e-38
0.023601057 0.0055732466 0.19933335 1.1064557e-38
0.024522724 0.0055642836 0.19900002 1.0327354e-38
0.025536975 0.0055642836 0.19900002 1.0327714e-38
0.026444457 0.0055642836 0.19900002 1.0696497e-38
0.027565468 0.005510902 0.19900002 1.1341506e-38
0.013701409 0.0064506414 0.2 1.1155674e-38
0.014667104 0.0064506405 0.2 1.0879087e-38
0.015310902 0.0064506414 0.2 1.0694696e-38
0.016437545 0.006450641 0.20000002 1.0879087e-38
0.017564191 0.0064506405 0.2 1.1155674e-38
0.018207986 0.0064506405 0.2 1.0971283e-38
0.01949558 0.0064506405 0.20000003 1.060286e-38
0.020783173 0.0064506414 0.2 1.0695418e-38
0.021587918 0.0064506414 0.2 1.0695418e-38
0.022513378 0.0063835792 0.20000002 1.0695776e-38
0.023465771 0.0066959709 0.19900002 1.0603579e-38
0.024522722 0.0066319131 0.19900002 1.0419188e-38
0.025536971 0.0066319131 0.19900002 1.0235518e-38
0.026444457 0.0066319131 0.19900002 1.0328074e-38
0.02750141 0.0066959709 0.19900002 1.0787973e-38
0.013540459 0.0076309335 0.20000002 1.1155674e-38
0.014667104 0.0076309345 0.2 1.0971283e-38
0.015310902 0.0076309345 0.2 1.0786891e-38
0.016437545 0.0076309345 0.20000002 1.0971283e-38
0.017564191 0.0076309345 0.2 1.1340065e-38
0.018207986 0.0076309345 0.2 1.1063478e-38
0.019495578 0.0076309345 0.20000003 1.0510665e-38
0.020783173 0.0076309345 0.2 1.0419191e-38
0.021605322 0.0076176799 0.19966668 1.0419191e-38
0.022459373 0.0075988709 0.19916667 1.0511386e-38
0.023401711 0.00759278 0.19900002 1.0419191e-38
0.024522724 0.0075927791 0.19900002 1.0326995e-38
0.025536971 0.00759278 0.19900002 1.0142604e-38
0.026444457 0.0075927791 0.19900002 1.0050408e-38
0.027525432 0.0075527434 0.19900002 1.0326995e-38
0.059380826 0.0078063062 0.19900002 9.0420185e-39
0.013540461 0.0087575791 0.2 1.0879087e-38
0.014667104 0.0087575782 0.2 1.124787e-38
0.015310901 0.0087575782 0.2 1.1063478e-38
0.016437545 0.0087575791 0.2 1.0879087e-38
0.017564189 0.0087575782 0.2 1.1340065e-38
0.018207986 0.0087575782 0.2 1.1155674e-38
0.019495578 0.0087575791 0.20000002 1.0510305e-38
0.020731214 0.0087352823 0.19950001 1.0418831e-38
0.021640122 0.0087137911 0.19900002 1.0419191e-38
0.022440847 0.0087137911 0.19900002 1.0326995e-38
0.023401713 0.0087137911 0.19900002 1.0326995e-38
0.024522724 0.0087137911 0.19900002 1.02348e-38
0.025536971 0.0087137902 0.19900002 1.0050408e-38
0.026444457 0.0087137911 0.19900002 9.9582126e-39
0.027405323 0.0085536465 0.19900002 9.9582126e-39
0.049914975 0.0085966298 0.2 9.8685379e-39
0.059274063 0.0085536465 0.19900002 8.9498242e-39
0.012574764 0.0095623247 0.2 1.1155674e-38
0.013540459 0.0095623247 0.2 1.0971283e-38
0.014667104 0.0095623247 0.2 1.1155674e-38
0.015310901 0.0095623247 0.2 1.1063478e-38
0.016437545 0.0095623247 0.2 1.0786891e-38
0.017564189 0.0095623247 0.2 1.1063478e-38
0.018207986 0.0095623247 0.2 1.0879087e-38
0.019426601 0.0095163388 0.20000002 1.0325913e-38
0.020583171 0.0095785707 0.19900002 9.7727396e-39
0.021640124 0.0095145134 0.19900002 9.9578497e-39
0.022440847 0.0095145134 0.19900002 1.0050045e-38
0.023401713 0.0095145134 0.19900002 1.0142601e-38
0.024522722 0.0095145134 0.19900002 1.0050408e-38
0.025536969 0.0095145134 0.19900002 1.0050408e-38
0.026284313 0.0095145125 0.19900002 9.9582126e-39
0.012574765 0.01052802 0.2 1.124787e-38
0.013540459 0.010528019 0.20000002 1.1063478e-38
0.014667105 0.01052802 0.2 1.0971283e-38
0.015310901 0.01052802 0.2 1.0879087e-38
0.016437545 0.010528019 0.20000002 1.06025e-38
0.017564191 0.01052802 0.2 1.06025e-38
0.018207986 0.01052802 0.2 1.06025e-38
0.019359298 0.010521991 0.1998889 1.0325913e-38
0.020519113 0.010475379 0.19900002 9.8649352e-39
0.021640122 0.010475378 0.19900002 9.4961527e-39
0.022440845 0.010475378 0.19900002 9.5883497e-39
0.023401713 0.010475378 0.19900002 1.0141522e-38
0.024522724 0.010475378 0.19900002 1.0050048e-38
0.025536971 0.010475378 0.19900002 9.9582126e-39
0.026364386 0.010555451 0.19900002 9.9582126e-39
0.049345113 0.010475378 0.19900002 9.2235245e-39
0.012574764 0.011654664 0.2 1.124787e-38
0.013540459 0.011654663 0.2 1.0971283e-38
0.014667104 0.011654664 0.2 1.0694696e-38
0.015310901 0.011654664 0.2 1.0694696e-38
0.016437545 0.011654665 0.2 1.06025e-38
0.017564189 0.011654664 0.2 1.0418109e-38
0.018207986 0.011654664 0.2 1.0418109e-38
0.019408634 0.01163524 0.19966668 1.0694697e-38
0.020519113 0.01159639 0.19900002 1.0971283e-38
0.021640124 0.01159639 0.19900002 1.078761e-38
0.022440847 0.01159639 0.19900002 1.0695056e-38
0.023401713 0.01159639 0.19900002 1.0786891e-38
0.02446934 0.011543008 0.19900002 1.0234076e-38
0.025643734 0.011516318 0.19900002 9.9582112e-39
0.026444457 0.01159639 0.19900002 9.9582126e-39
0.027405322 0.01159639 0.19900002 9.7738214e-39
0.048224099 0.01159639 0.19900002 9.2231685e-39
0.012574764 0.012459409 0.2 1.0879087e-38
0.013540459 0.012459409 0.2 1.0786891e-38
0.014667104 0.012459409 0.2 1.06025e-38
0.015310901 0.012459409 0.2 1.06025e-38
0.016437545 0.012459409 0.2 1.0694696e-38
0.017564189 0.012459409 0.2 1.0418109e-38
0.018207986 0.012459409 0.2 1.0325913e-38
0.019376408 0.012417879 0.19933335 1.0694697e-38
0.020519113 0.012397113 0.19900002 1.106348e-38
0.021640122 0.012397112 0.19900002 1.1340784e-38
0.022440847 0.012397112 0.19900002 1.124823e-38
0.023337655 0.012333056 0.19900002 1.124787e-38
0.026444457 0.012397112 0.19900002 9.9578553e-39
0.027405323 0.012397112 0.19900002 9.7738228e-39
0.047581714 0.012545407 0.19966668 9.1313316e-39
0.012446004 0.013360724 0.2 1.0879087e-38
0.013540459 0.013425103 0.20000002 1.0694696e-38
0.014667105 0.013425104 0.2 1.0510305e-38
0.015310902 0.013425104 0.2 1.0510305e-38
0.016437545 0.013425103 0.20000002 1.0694696e-38
0.017564191 0.013425104 0.2 1.0510305e-38
0.018495312 0.013387632 0.19944447 1.0233718e-38
0.019558247 0.013357978 0.19900002 1.0418469e-38
0.020519113 0.013357979 0.19900002 1.060286e-38
0.021640122 0.013357978 0.19900002 1.0787252e-38
0.022440845 0.013357978 0.19900002 1.0971283e-38
0.023209538 0.013422037 0.19900002 1.0879087e-38
0.025964024 0.013678268 0.19900002 9.7738214e-39
0.026444457 0.013357978 0.19900002 9.7738228e-39
0.027405322 0.013357979 0.19900002 9.4979561e-39
0.045569345 0.013425104 0.2 8.2090166e-39
0.046374094 0.013103206 0.2 8.6699947e-39
0.047103088 0.01303769 0.19900002 9.2235245e-39
0.013540459 0.014551748 0.2 1.0694696e-38
0.014667104 0.014551749 0.2 1.0510305e-38
0.015310901 0.014551749 0.2 1.06025e-38
0.016517315 0.014609987 0.19985715 1.0694696e-38
0.017665697 0.014663298 0.19933334 1.0418109e-38
0.018757524 0.014639135 0.19900002 1.0233718e-38
0.019558247 0.014639135 0.19900002 1.0141882e-38
0.020519113 0.014639135 0.19900002 9.9582126e-39
0.021640124 0.014639135 0.19900002 1.0326995e-38
0.022440845 0.014639135 0.19900002 1.041811e-38
0.023401713 0.014639135 0.19900002 1.0233718e-38
0.024522724 0.014799279 0.19900002 9.6805439e-39
0.025552224 0.01468489 0.19900002 9.7727396e-39
0.026412431 0.014575076 0.19900002 9.77382e-39
0.027245179 0.014318845 0.19900002 9.4983135e-39
0.013540459 0.015195545 0.2 1.06025e-38
0.014667104 0.015195545 0.2 1.06025e-38
0.015310901 0.015195545 0.2 1.0694696e-38
0.016516374 0.015330364 0.19966668 1.0786891e-38
0.017636513 0.015600001 0.19900002 1.0418109e-38
0.018757524 0.015600001 0.19900002 1.0233718e-38
0.019558247 0.015600001 0.19900002 1.0141882e-38
0.020519113 0.0156 0.19900002 9.9582112e-39
0.021640124 0.0156 0.19900002 1.0050407e-38
0.022120558 0.015279712 0.19900002 1.0142604e-38
0.023481784 0.015439857 0.19900002 1.0049685e-38
0.024522722 0.015600001 0.19900002 9.6809041e-39
0.025323447 0.015600001 0.19900002 9.6809041e-39
0.013540459 0.016322188 0.20000002 1.0786891e-38
0.014667105 0.016322188 0.2 1.0510305e-38
0.015310901 0.01632219 0.2 1.06025e-38
0.016435884 0.01632122 0.19950001 1.0694696e-38
0.017636513 0.016400723 0.19900002 1.0325913e-38
0.018757524 0.016400723 0.19900002 1.0141522e-38
0.019558247 0.016400723 0.19900002 1.0141522e-38
0.020519113 0.016400725 0.19900002 1.0049326e-38
0.021640124 0.016400723 0.19900002 1.0049326e-38
0.022334084 0.016454104 0.19900002 9.9582098e-39
0.023401713 0.016400723 0.19900002 9.8660142e-39
0.024522722 0.016400723 0.19900002 1.0050405e-38
0.025323447 0.016400723 0.19900002 1.0234797e-38
0.013540459 0.017609783 0.20000002 1.0694696e-38
0.014667105 0.017609783 0.2 1.0510305e-38
0.015310902 0.017609783 0.2 1.0418109e-38
0.016480027 0.01754112 0.19922224 1.0141522e-38
0.017636513 0.017521732 0.19900002 1.0049329e-38
0.018757524 0.017521733 0.19900002 9.9571322e-39
0.019558247 0.017521733 0.19900002 9.9571308e-39
0.020519115 0.017521732 0.19900002 9.9571308e-39
0.021640122 0.017521733 0.19900002 9.8649352e-39
0.022440845 0.017521733 0.19900002 9.8652953e-39
0.023401713 0.017521732 0.19900002 9.7738186e-39
0.024522722 0.017521733 0.19900002 9.8660142e-39
0.025536975 0.017521732 0.19900002 1.0326273e-38
0.030608213 0.017201444 0.19900002 9.866017e-39
0.012574764 0.018575478 0.2 1.06025e-38
0.013540459 0.018575478 0.2 1.0510305e-38
0.014667104 0.018575478 0.2 1.0510305e-38
0.015310901 0.018575478 0.2 1.0325913e-38
0.016462121 0.018482599 0.19900002 1.0049326e-38
0.017636513 0.018482599 0.19900002 1.0049326e-38
0.018757524 0.018482599 0.19900002 1.0049328e-38
0.019558247 0.018482599 0.19900002 1.0141522e-38
0.020519113 0.018482599 0.19900002 1.0325913e-38
0.021640122 0.018482599 0.19900002 1.0233718e-38
0.022440847 0.018482599 0.19900002 9.8652953e-39
0.023401713 0.018482599 0.19900002 9.5894273e-39
0.024522724 0.018482599 0.19900002 9.8652953e-39
0.025451561 0.018418543 0.19900002 9.8649352e-39
0.0019521179 0.019219274 0.2 1.1892876e-38
0.012413815 0.019380223 0.2 1.06025e-38
0.013540459 0.019380223 0.2 1.0510305e-38
0.014667104 0.019380223 0.2 1.06025e-38
0.015310901 0.019380223 0.2 1.0418109e-38
0.016488979 0.019315625 0.19933335 9.9571308e-39
0.017636513 0.019283323 0.19900002 9.9571308e-39
0.018757524 0.019283323 0.19900002 1.0049326e-38
0.019558247 0.019283323 0.19900002 1.0141522e-38
0.020519113 0.019283323 0.19900002 1.0325913e-38
0.021640124 0.019283323 0.19900002 1.0418109e-38
0.022440847 0.019283323 0.19900002 1.0049326e-38
0.023401713 0.019283323 0.19900002 9.588707e-39
0.024522722 0.019283323 0.19900002 9.6812628e-39
0.025451561 0.019251293 0.19900002 9.8649352e-39
0.011770018 0.020506868 0.2 1.0325913e-38
0.012413815 0.020345919 0.2 1.0325913e-38
0.013540459 0.020506868 0.20000002 1.0418109e-38
0.014667104 0.020506868 0.2 1.0510305e-38
0.015310902 0.020506868 0.2 1.0510305e-38
0.016498111 0.020449728 0.19944446 9.9571322e-39
0.017636513 0.020404333 0.19900002 9.7723794e-39
0.018757524 0.020404333 0.19900002 9.8645751e-39
0.019558247 0.020404333 0.19900002 9.9571308e-39
0.020519113 0.020404333 0.19900002 9.8649352e-39
0.021640122 0.020404333 0.19900002 9.7727396e-39
0.022376789 0.020340275 0.19900002 9.6805439e-39
0.023401713 0.020404331 0.19900002 9.4961527e-39
0.024522724 0.020404333 0.19900002 9.5887084e-39
0.025536971 0.020404331 0.19900002 9.4961527e-39
0.010965272 0.021472562 0.2 1.0233718e-38
0.013701409 0.021472562 0.2 1.0233718e-38
0.014667104 0.021472562 0.2 1.0418109e-38
0.015310901 0.021472562 0.2 1.0418109e-38
0.016462121 0.021365201 0.19900002 1.0141522e-38
0.017636513 0.021365201 0.19900002 1.0325553e-38
0.018757524 0.021365199 0.19900002 1.0049687e-38
0.019558247 0.021365199 0.19900002 9.8652953e-39
0.020519113 0.021365201 0.19900002 9.6805439e-39
0.02158674 0.021258436 0.19900002 9.4961527e-39
0.024522724 0.021365199 0.19900002 9.4046759e-39
0.025323445 0.021365199 0.19900002 9.3124803e-39
0.010965272 0.022116359 0.2 1.0233718e-38
0.011716369 0.02233096 0.2 1.0050047e-38
0.012413815 0.022438258 0.2 9.9582098e-39
0.013540459 0.022277309 0.2 9.9582098e-39
0.014667104 0.022277309 0.2 1.0050045e-38
0.015473123 0.02246996 0.19933335 1.0050045e-38
0.016462119 0.022432826 0.19900002 1.0050047e-38
0.017636513 0.022432828 0.19900002 1.0695057e-38
0.018757524 0.022432828 0.19900002 1.0695415e-38
0.019558247 0.022432828 0.19900002 1.0326272e-38
0.020519113 0.02243283 0.19900002 9.7727396e-39
0.021560051 0.022566283 0.19900002 9.403957e-39
0.023441749 0.022486212 0.19900002 9.4965128e-39
0.024522722 0.022432828 0.19900002 9.4046759e-39
0.025216684 0.022112539 0.19900002 9.3124803e-39
0.011930968 0.023082053 0.2 1.0141522e-38
0.012473581 0.023478745 0.19985715 1.0049326e-38
0.013410862 0.023257377 0.19966668 1.0049326e-38
0.014564832 0.023272021 0.19933335 9.8660142e-39
0.015554636 0.023607222 0.19900002 9.6816229e-39
0.016462121 0.023607222 0.19900002 9.7738186e-39
0.017636513 0.023607222 0.19900002 9.9574938e-39
0.018757524 0.023607222 0.19900002 1.0510306e-38
0.019558247 0.023607222 0.19900002 1.0141522e-38
0.020519115 0.023607222 0.19900002 9.7727396e-39
0.021640122 0.023607222 0.19900002 9.403957e-39
0.022440845 0.023607222 0.19900002 9.3124817e-39
0.023310201 0.023561466 0.19900002 9.4046773e-39
0.024362579 0.023286933 0.19900002 9.405036e-39
0.012542522 0.024307918 0.19950001 1.0049326e-38
0.013152468 0.024888378 0.19900002 9.9571308e-39
0.014593769 0.024888378 0.19900002 9.9571308e-39
0.015608016 0.024674853 0.19900002 9.6805439e-39
0.016462121 0.024728233 0.19900002 9.4968729e-39
0.017636513 0.024728233 0.19900002 9.8652967e-39
0.018757524 0.024728235 0.19900002 9.8649366e-39
0.019558247 0.024728233 0.19900002 9.8649366e-39
0.020519113 0.024728233 0.19900002 9.5883483e-39
0.021640124 0.024728235 0.19900002 9.403957e-39
0.022440847 0.024728233 0.19900002 9.3117614e-39
0.023188187 0.024674853 0.19900002 9.4961527e-39
0.054469731 0.024888378 0.19900002 7.5640031e-39
0.013604839 0.02559286 0.2 9.8649352e-39
0.014648569 0.025544694 0.19975001 9.8649352e-39
0.015424791 0.025387775 0.19940001 9.6805439e-39
0.016462121 0.02536881 0.19900002 9.5883483e-39
0.017636513 0.02536881 0.19900002 9.7727396e-39
0.018757524 0.02536881 0.19900002 9.8649366e-39
0.019558247 0.02536881 0.19900002 1.0049328e-38
0.020519113 0.02536881 0.19900002 9.7727396e-39
0.021640122 0.02536881 0.19900002 9.4961541e-39
0.022440847 0.02536881 0.19900002 9.3117628e-39
0.023081424 0.02536881 0.19900002 9.3117614e-39
0.054469731 0.02536881 0.19900002 7.4718075e-39
0.013701409 0.026622936 0.2 9.6805439e-39
0.014654747 0.02660048 0.19983333 9.5883483e-39
0.015554636 0.026489822 0.19900002 9.7727396e-39
0.016462121 0.02648982 0.19900002 9.6805439e-39
0.017636513 0.026489822 0.19900002 9.5883483e-39
0.018757524 0.026489822 0.19900002 9.6805453e-39
0.019558247 0.026489822 0.19900002 9.9571322e-39
0.020519113 0.026489822 0.19900002 9.9571322e-39
0.021640124 0.026489822 0.19900002 9.5883497e-39
0.022376789 0.026425764 0.19900002 9.4039584e-39
0.010482425 0.027749578 0.2 9.6805439e-39
0.012574764 0.027910527 0.2 9.6805439e-39
0.013540459 0.027749578 0.2 9.403957e-39
0.014593769 0.027610831 0.19900002 9.3124803e-39
0.015554635 0.027610831 0.19900002 9.7727396e-39
0.016462119 0.027610833 0.19900002 9.8649352e-39
0.017636513 0.027610829 0.19900002 9.8649352e-39
0.018757524 0.027610831 0.19900002 9.588707e-39
0.019558247 0.027610833 0.19900002 9.6805439e-39
0.020519113 0.027610833 0.19900002 9.588707e-39
0.021640124 0.027610831 0.19900002 9.2206448e-39
0.022120558 0.027450688 0.19900002 9.2206448e-39
0.012574764 0.028393375 0.2 9.6805439e-39
0.013476079 0.028361183 0.2 9.2199245e-39
0.014497682 0.028283438 0.19900002 9.0362535e-39
0.015554635 0.02825141 0.19900002 9.772741e-39
0.016462119 0.02825141 0.19900002 9.9571308e-39
0.017636513 0.02825141 0.19900002 9.8649352e-39
0.018757524 0.02825141 0.19900002 9.4972317e-39
0.019558247 0.02825141 0.19900002 9.3128404e-39
0.020519113 0.02825141 0.19900002 9.3128404e-39
0.021479979 0.028091265 0.19900002 9.2206448e-39
0.010965272 0.029680967 0.2 9.4961527e-39
0.011770018 0.029680967 0.2 9.4961527e-39
0.012413815 0.02952002 0.2 9.4961527e-39
0.013500222 0.029560257 0.20000002 9.2199259e-39
0.014525136 0.029326664 0.19900002 9.0362535e-39
0.015554636 0.029372422 0.19900002 9.8656583e-39
0.016462121 0.02937242 0.19900002 1.0325915e-38
0.017636513 0.02937242 0.19900002 9.9571308e-39
0.018757524 0.029052131 0.19900002 9.4972317e-39
0.019451484 0.029158896 0.19900002 9.4046759e-39
0.020305587 0.029158896 0.19900002 9.1280904e-39
0.010804323 0.030646663 0.2 9.3121216e-39
0.011770018 0.030646663 0.2 9.4043172e-39
0.012413815 0.030646663 0.2 9.4043172e-39
0.013540459 0.030646665 0.2 9.3124803e-39
0.014593769 0.030653575 0.19900002 9.3128418e-39
0.015554636 0.030653575 0.19900002 1.0511386e-38
0.016462121 0.030653575 0.19900002 1.0603582e-38
0.017636513 0.030653575 0.19900002 9.9574924e-39
-0.00062306901 0.031451408 0.2 9.7727312e-39
0.00018167689 0.031451408 0.2 9.8649296e-39
0.010643374 0.03129046 0.2 9.1280904e-39
0.011770018 0.03129046 0.2 9.2206448e-39
0.012413815 0.03129046 0.2 9.3128404e-39
0.013540459 0.03129046 0.2 9.2206448e-39
0.014593769 0.031614441 0.19900002 9.2206448e-39
0.015554635 0.031614441 0.19900002 9.9582112e-39
0.016462119 0.031614441 0.19900002 1.0510666e-38
0.017636513 0.031614441 0.19900002 9.864938e-39
-0.00068714755 0.032319985 0.1998 9.7720109e-39
2.0675889e-05 0.032175113 0.19950001 9.6805355e-39
0.0029178131 0.032739002 0.2 9.4957897e-39
0.0094630793 0.032524403 0.2 9.0351731e-39
0.010643374 0.032417104 0.20000002 8.9436978e-39
0.011770018 0.032417104 0.2 9.0362521e-39
0.012413815 0.032417104 0.2 9.1284492e-39
0.013540459 0.032417104 0.20000002 9.2206448e-39
0.014593769 0.032415166 0.19900002 9.1284492e-39
0.015554635 0.032415166 0.19900002 9.5894273e-39
0.016462119 0.032415163 0.19900002 9.7738186e-39
0.017636513 0.032415166 0.19900002 9.5883497e-39
0.0022683311 0.033459485 0.19950001 9.5879854e-39
0.0087119834 0.033704698 0.2 9.3117586e-39
0.0093557797 0.033543751 0.2 9.219563e-39
0.010643374 0.033543751 0.2 9.1273674e-39
0.011770018 0.033543751 0.2 9.2199231e-39
0.012413815 0.033543751 0.2 9.3117586e-39
0.013476079 0.03351156 0.2 9.3117586e-39
0.014473661 0.033576209 0.19900002 9.1273688e-39
0.015554636 0.033536177 0.19900002 9.1273688e-39
0.016462121 0.033536173 0.19900002 9.4039556e-39
0.017636513 0.033536173 0.19900002 9.3117614e-39
0.024682868 0.033696316 0.19900002 8.3919659e-39
0.025003158 0.033536173 0.19900002 8.2997703e-39
0.0019521179 0.034026597 0.2 9.5879854e-39
0.0077462886 0.034992289 0.2 8.9429761e-39
0.0084544644 0.034541629 0.2 9.1273674e-39
0.0093557807 0.034455791 0.20000002 9.3117586e-39
0.010643374 0.034455791 0.20000002 9.1273674e-39
0.011770018 0.034455795 0.2 9.219563e-39
0.012413815 0.034455791 0.2 9.219563e-39
0.01337951 0.034455791 0.2 9.2195644e-39
0.014433625 0.034497041 0.19900002 9.0351731e-39
0.015554635 0.034497041 0.19900002 9.0351731e-39
0.016462119 0.034497041 0.19900002 9.2195658e-39
0.017572455 0.034432985 0.19900002 9.3117614e-39
0.024682868 0.034176752 0.19900002 8.3919659e-39
0.0251288 0.034026597 0.2 8.3919659e-39
0.049131587 0.034603804 0.19900002 7.3778112e-39
0.0062977457 0.035636086 0.2 8.9429761e-39
0.0074243904 0.035475135 0.2 8.9429789e-39
0.0083900858 0.035475135 0.2 8.9429789e-39
0.0093557797 0.035475135 0.2 9.1273702e-39
0.010643374 0.035475139 0.2 9.1273702e-39
0.011770018 0.035475135 0.2 8.9429789e-39
0.012413815 0.035475135 0.2 8.9429789e-39
0.01337951 0.035475135 0.2 9.2195658e-39
0.014433625 0.035297763 0.19900002 9.3117614e-39
0.015554635 0.035297766 0.19900002 9.6805439e-39
0.016462121 0.035297766 0.19900002 9.8649338e-39
0.017476369 0.035297766 0.19900002 9.3124789e-39
0.049024824 0.03513762 0.19900002 7.2856156e-39
0.0056002997 0.036709081 0.2 8.9429761e-39
0.0062977462 0.036601782 0.2 8.9429775e-39
0.0074243899 0.036601786 0.20000002 8.9429761e-39
0.0083900858 0.036601782 0.2 8.8511434e-39
0.0093097938 0.036509812 0.20000002 8.8511434e-39
0.010683611 0.036561545 0.20000002 9.0358948e-39
0.011770018 0.036601782 0.2 8.9436978e-39
0.012413815 0.036601782 0.2 9.0358948e-39
0.013448489 0.036647767 0.20000002 9.2206448e-39
0.014473661 0.036378738 0.19900002 1.0234438e-38
0.015554636 0.036418777 0.19900002 1.0603579e-38
0.016462121 0.036418773 0.19900002 1.0050405e-38
0.017476369 0.03641877 0.19900002 9.5890686e-39
0.030768357 0.036418773 0.19900002 8.0231834e-39
0.0058148983 0.037567478 0.2 8.942616e-39
0.0062977457 0.037567478 0.2 8.9429761e-39
0.0074243904 0.037567478 0.2 8.8507819e-39
0.0082827862 0.037460178 0.2 8.7589464e-39
0.010857972 0.037674777 0.2 8.8518623e-39
0.011770018 0.037567478 0.2 8.8518623e-39
0.012413815 0.037567478 0.2 8.9440579e-39
0.013540459 0.037567478 0.2 9.2206448e-39
0.014593769 0.037379641 0.19900002 9.5894273e-39
0.015554635 0.037379641 0.19900002 1.0141522e-38
0.016462119 0.037379641 0.19900002 9.957491e-39
0.017476369 0.037379641 0.19900002 9.2202847e-39
0.021693505 0.037486404 0.19900002 8.5752768e-39
0.022120558 0.037059352 0.19900002 8.5752782e-39
0.030768357 0.03769993 0.19900002 8.2075747e-39
0.0058148983 0.038533177 0.2 8.8507805e-39
0.0062977462 0.038533174 0.2 8.8507805e-39
0.0074243899 0.038533174 0.20000002 8.9429775e-39
0.0080681872 0.038533174 0.2 8.7593065e-39
0.010804323 0.038533177 0.2 8.6674696e-39
0.011760344 0.038501065 0.19983333 8.667471e-39
0.012333341 0.038613647 0.2 8.7596666e-39
0.013733598 0.038533174 0.2 9.0362535e-39
0.014593769 0.038340509 0.19900002 9.2206448e-39
0.015554636 0.038340509 0.19900002 9.2206448e-39
0.016462119 0.038340509 0.19900002 9.0362535e-39
0.017476369 0.038340509 0.19900002 8.667471e-39
0.021479979 0.03802022 0.19900002 8.2075719e-39
0.029957278 0.038855072 0.2 8.5763572e-39
0.030448068 0.038340509 0.19900002 8.2075747e-39
0.0062977457 0.039498866 0.2 8.8507805e-39
0.0073600104 0.039627623 0.2 8.9429761e-39
0.010965272 0.039659813 0.2 8.5752726e-39
0.011770018 0.039659813 0.2 8.5752726e-39
0.012413815 0.039659813 0.2 8.6674682e-39
0.01339816 0.03971624 0.1998 8.6674696e-39
0.014433624 0.039621666 0.19900002 8.667471e-39
0.015554636 0.039621662 0.19900002 9.0362535e-39
0.016462121 0.039621662 0.19900002 8.8518623e-39
0.017545002 0.03966742 0.19900002 8.4830797e-39
0.029327057 0.039781809 0.19900002 7.8387921e-39
0.030127779 0.039301373 0.19900002 8.2997675e-39
0.0077462886 0.040464561 0.2 8.8507805e-39
0.011770018 0.040464561 0.2 8.5752726e-39
0.012413815 0.040464561 0.2 8.4830769e-39
0.013293803 0.040622674 0.1992 8.4830769e-39
0.014433625 0.040742677 0.19900002 8.4830797e-39
0.015554635 0.040742673 0.19900002 8.5752754e-39
0.016462119 0.040742677 0.19900002 8.4830797e-39
0.017636513 0.040742677 0.19900002 8.2064929e-39
0.018597379 0.040742673 0.19900002 7.9306248e-39
0.028669683 0.04078646 0.2 7.8387921e-39
0.011930968 0.041430261 0.2 8.4830769e-39
0.012413815 0.041430261 0.2 8.4830769e-39
0.013449321 0.041540541 0.19960001 8.4830769e-39
0.014497682 0.041351222 0.19900002 8.3908841e-39
0.015554635 0.041383252 0.19900002 8.2064915e-39
0.016462121 0.041223109 0.19900002 8.2986885e-39
0.017636513 0.041223109 0.19900002 8.1142972e-39
0.018597379 0.041383252 0.19900002 7.8387893e-39
0.025643734 0.041543394 0.19900002 8.2997675e-39
0.027553851 0.041487232 0.19950001 7.8387893e-39
0.028347785 0.041108359 0.2 7.8387921e-39
0.010965272 0.042717852 0.2 8.6674682e-39
0.011770018 0.042556904 0.2 8.3908813e-39
0.012413815 0.042556904 0.2 8.3908813e-39
0.013540459 0.042556901 0.2 8.2986857e-39
0.014588741 0.042432595 0.19966668 8.2986871e-39
0.015554635 0.042183973 0.19900002 8.2064929e-39
0.016035069 0.042183973 0.19900002 8.1142972e-39
0.026284313 0.042183973 0.19900002 8.4841587e-39
0.010804323 0.04303975 0.2 8.8518595e-39
0.011770018 0.043361645 0.2 8.5752726e-39
0.012413815 0.043361649 0.2 8.4830769e-39
0.013476079 0.043297268 0.2 8.2986857e-39
0.012413815 0.044005442 0.2 8.5752726e-39
0.021800268 0.047949173 0.19900002 7.6522373e-39
0.022875512 0.047224429 0.2 8.2054139e-39
0.018137271 -0.021123106 0.20100001 6.2678665e-39
0.0039029259 -0.020152584 0.20100001 8.4621836e-39
0.013769914 -0.020314336 0.20100001 5.1625979e-39
0.015387454 -0.020314336 0.20100001 5.2547936e-39
0.018460779 -0.02047609 0.20099999 7.2834576e-39
0.019431302 -0.020152584 0.20100001 9.0348144e-39
0.020401826 -0.020152584 0.20100001 1.0878e-38
0.0037950899 -0.019289896 0.20100002 7.4573965e-39
0.013769914 -0.019343814 0.20100001 6.638091e-39
0.01441693 -0.019505568 0.20100001 6.545538e-39
0.0152257 -0.019505568 0.20100001 6.8224822e-39
0.018784286 -0.019505568 0.20100001 9.5869092e-39
0.019593056 -0.019343814 0.20100001 1.06007e-38
0.020240072 -0.019343814 0.20100001 1.1522293e-38
0.021307649 -0.019311463 0.20100001 1.2075821e-38
0.0035794179 -0.018858552 0.20100002 7.6453905e-39
0.01360816 -0.018696798 0.20100001 7.9291899e-39
0.01867645 -0.01864288 0.20100002 1.0508864e-38
0.019593056 -0.018696798 0.20100001 1.1246429e-38
0.020240072 -0.018696798 0.20100001 1.1707403e-38
0.02137235 -0.018696798 0.20099999 1.2536799e-38
0.022235038 -0.01864288 0.20100002 1.2075821e-38
0.0013148627 -0.017888028 0.20100001 1.1428287e-38
0.015872715 -0.017241012 0.20100001 1.0694699e-38
0.016681485 -0.017402766 0.20100001 1.0694336e-38
0.017328501 -0.017402766 0.20100001 1.1155314e-38
0.018460779 -0.01756452 0.20099999 1.1615929e-38
0.019593056 -0.01756452 0.20099999 1.1983993e-38
0.020240072 -0.01756452 0.20099999 1.2353133e-38
0.021372352 -0.01756452 0.20099999 1.2814108e-38
0.022342874 -0.01756452 0.20099999 1.2629715e-38
0.01441693 -0.016593996 0.20100001 1.0879087e-38
0.015613909 -0.016464595 0.20100001 1.1063478e-38
0.016681485 -0.016432242 0.20100001 1.1063478e-38
0.017328501 -0.016432242 0.20100001 1.1524457e-38
0.018460779 -0.016432241 0.20099999 1.1985435e-38
0.019593056 -0.016432242 0.20100001 1.2077269e-38
0.020240072 -0.016432242 0.20100001 1.2538247e-38
0.02137235 -0.016432242 0.20099999 1.2722637e-38
0.022019366 -0.016432242 0.20100001 1.2999224e-38
0.015710961 -0.015785227 0.20100001 1.1432261e-38
0.016681485 -0.015785227 0.20100001 1.1340067e-38
0.017328501 -0.015785227 0.20100001 1.1708849e-38
0.018460779 -0.015785227 0.20099999 1.2169466e-38
0.019593056 -0.015785228 0.20100001 1.2353857e-38
0.020240072 -0.015785227 0.20100001 1.2538248e-38
0.02137235 -0.015785227 0.20099999 1.2814832e-38
0.022235038 -0.015731309 0.20100002 1.2999224e-38
0.023313398 -0.015623474 0.20100001 1.2814832e-38
0.015641639 -0.014606735 0.20099999 1.1708848e-38
0.016681485 -0.01465295 0.20099999 1.1708851e-38
0.017328501 -0.01465295 0.20099999 1.1801046e-38
0.018460779 -0.014652949 0.20099999 1.2262023e-38
0.019593056 -0.01465295 0.20099999 1.2169826e-38
0.020240072 -0.01465295 0.20099999 1.2446413e-38
0.021331912 -0.014693389 0.20099999 1.2630803e-38
0.022472275 -0.014847055 0.20100001 1.2907028e-38
0.023313398 -0.014976458 0.20100001 1.2814832e-38
0.014470848 -0.013143246 0.20100002 1.1893242e-38
0.015549208 -0.013358919 0.20099999 1.1985437e-38
0.016681485 -0.013358918 0.20099999 1.1708851e-38
0.017328501 -0.01335892 0.20099999 1.1801046e-38
0.018460779 -0.013358919 0.20099999 1.2169829e-38
0.019593056 -0.013358918 0.20099999 1.1708849e-38
0.020240072 -0.01335892 0.20099999 1.1893239e-38
0.021156678 -0.01357459 0.20100002 1.2446413e-38
0.013931668 -0.012388395 0.20100001 1.1985437e-38
0.01441693 -0.012388395 0.20100001 1.1893242e-38
0.015549208 -0.012388396 0.20099999 1.1893242e-38
0.016681485 -0.012388395 0.20100001 1.1708851e-38
0.017328501 -0.012388395 0.20100001 1.1708851e-38
0.018460779 -0.012388396 0.20099999 1.2077633e-38
0.019593056 -0.012388395 0.20100001 1.1616655e-38
0.020186154 -0.01249623 0.20100002 1.1708851e-38
0.0016383706 -0.011417872 0.20100001 1.3643514e-38
0.012961145 -0.011417872 0.20100001 1.1893239e-38
0.013769914 -0.011579626 0.20100001 1.207763e-38
0.01441693 -0.011579625 0.20100001 1.1985435e-38
0.015549208 -0.011579625 0.20099999 1.1616654e-38
0.016681485 -0.011579625 0.20100001 1.1432264e-38
0.017328501 -0.011579625 0.20100001 1.1708851e-38
0.018460779 -0.011579625 0.20099999 1.1893242e-38
0.019593056 -0.011579625 0.20100001 1.1708851e-38
0.020078318 -0.011741379 0.20100001 1.1524459e-38
0.00099135493 -0.010770856 0.20100001 1.3551673e-38
0.0017462065 -0.01066302 0.20100002 1.3643513e-38
0.012831743 -0.010382647 0.20100001 1.2077628e-38
0.013769913 -0.010447348 0.20099999 1.1985433e-38
0.014416929 -0.010447348 0.20099999 1.1893239e-38
0.015549208 -0.010447348 0.20099999 1.1524457e-38
0.016681485 -0.010447348 0.20099999 1.1340065e-38
0.017328501 -0.010447348 0.20099999 1.1524457e-38
0.018460779 -0.010447349 0.20099999 1.1708848e-38
0.019593056 -0.010447348 0.20099999 1.1616652e-38
0.012637638 -0.0094768247 0.20099999 1.1708846e-38
0.013769914 -0.0094768247 0.20100001 1.1893238e-38
0.01441693 -0.0094768247 0.20100001 1.1985433e-38
0.015549208 -0.0094768247 0.20099999 1.1616652e-38
0.016681485 -0.0094768247 0.20100001 1.1432261e-38
0.017328501 -0.0094768247 0.20100001 1.1708848e-38
0.018460779 -0.0094768247 0.20099999 1.1708848e-38
