# .PCD v0.7 - Point Cloud Data file format
VERSION 0.7
FIELDS x y z rgb
SIZE 4 4 4 4
TYPE F F F F
COUNT 1 1 1 1
WIDTH 995
HEIGHT 1
VIEWPOINT 0 0 0 1 0 0 0
POINTS 995
DATA ascii
0.018477136 0.070413224 0.18800001 8.3944883e-39
0.019687474 0.070413224 0.18800001 8.302294e-39
0.02074652 0.070413224 0.18800001 8.1182629e-39
0.021351688 0.070413224 0.18800001 8.2104585e-39
0.022108151 0.070110634 0.18800001 8.3948498e-39
0.016699452 0.071472272 0.18799999 8.3019311e-39
0.017569384 0.071421839 0.18800001 8.3019311e-39
0.018390683 0.071364209 0.18799999 8.3015724e-39
0.015653014 0.072733037 0.18800001 8.854386e-39
0.016661629 0.072531313 0.18799999 8.2090166e-39
0.017569384 0.072380021 0.18800001 8.3012122e-39
0.018174551 0.07222873 0.18800001 8.3012122e-39
0.013534923 0.073741652 0.18800001 8.854386e-39
0.014392246 0.073741652 0.18800001 8.9465816e-39
0.015375645 0.073514715 0.18800001 8.854386e-39
0.016510338 0.073439069 0.18800001 8.0246253e-39
0.012728032 0.074447684 0.18800001 8.7621904e-39
0.013419653 0.074390046 0.18799999 8.7621904e-39
0.014240954 0.074044235 0.18800001 8.9465816e-39
0.011820278 0.075405866 0.18800001 8.7621904e-39
0.012576738 0.075405866 0.18800001 8.7621904e-39
0.012425447 0.076162323 0.18800001 8.7621904e-39
0.0069789262 0.077675253 0.18800001 9.591228e-39
0.0072815111 0.077675253 0.18800001 9.4990323e-39
0.010156063 0.077675253 0.18800001 8.8536629e-39
0.048234329 0.052840319 0.18900001 7.6580106e-39
0.046622101 0.053631224 0.18900001 7.6587323e-39
0.047534686 0.053509545 0.18900001 7.5661765e-39
0.048386425 0.053448707 0.18900001 7.3814251e-39
0.049603205 0.053448707 0.18900001 7.8424047e-39
0.051428366 0.053144515 0.18900001 8.30338e-39
0.052036755 0.053448707 0.18900001 8.3955757e-39
0.044431906 0.05496968 0.18900001 7.5665339e-39
0.045445886 0.054766882 0.18900001 7.4743396e-39
0.046561267 0.05466548 0.18900001 7.3821454e-39
0.047473848 0.054361291 0.18900001 7.474341e-39
0.042606741 0.05588226 0.18900001 7.7502063e-39
0.043671422 0.055730164 0.18900001 7.6587295e-39
0.04427981 0.055730164 0.18900001 7.3821426e-39
0.045040295 0.055578064 0.18900001 7.5665339e-39
0.046561264 0.055578064 0.18900001 7.3821426e-39
0.040578783 0.056389254 0.18900001 7.4736194e-39
0.041389968 0.056338549 0.18900001 7.4736194e-39
0.042545903 0.056308132 0.18900001 7.7502063e-39
0.043519322 0.056186453 0.18900001 7.6587295e-39
0.037435446 0.057707421 0.18900001 7.7494832e-39
0.038408864 0.057585746 0.18900001 7.6569316e-39
0.039602831 0.057441257 0.18900001 7.564736e-39
0.040416546 0.057342391 0.18900001 7.6572918e-39
0.041313916 0.057175085 0.18900001 7.4736208e-39
0.0346977 0.058924198 0.18900001 7.5661709e-39
0.035671122 0.058802523 0.18900001 7.7494832e-39
0.036674961 0.058620006 0.18900001 7.8416788e-39
0.037283346 0.058620006 0.18900001 7.8416788e-39
0.038348023 0.058620002 0.18900001 7.7494846e-39
0.039488755 0.058391862 0.18900001 7.564736e-39
0.033785116 0.059836779 0.18900001 7.6580106e-39
0.034393504 0.059532586 0.18900001 7.565815e-39
0.035610285 0.059532586 0.18900001 7.5650947e-39
0.036674961 0.059532586 0.18900001 7.7491273e-39
0.037283346 0.059532586 0.18900001 7.7494874e-39
0.038145229 0.059431192 0.18900001 7.6572918e-39
0.052340947 0.059228394 0.18900001 8.5799669e-39
0.032872535 0.060597263 0.18900001 7.8413215e-39
0.033480924 0.060445163 0.18900001 7.565815e-39
0.034393504 0.060445163 0.18900001 7.4736194e-39
0.035610281 0.060445171 0.18900001 7.3814237e-39
0.036644541 0.060384326 0.18900001 7.565815e-39
0.037283346 0.060293071 0.18900001 7.565815e-39
0.038043831 0.060140975 0.18900001 7.565815e-39
0.031655759 0.061966136 0.18900001 7.9338744e-39
0.032606363 0.061699964 0.18900001 7.8416788e-39
0.033420078 0.061601102 0.18900001 7.5658122e-39
0.034393504 0.061357751 0.18900001 7.3817797e-39
0.030438984 0.06287872 0.18900001 7.6569316e-39
0.031412404 0.062757045 0.18900001 7.9335143e-39
0.032492295 0.062650576 0.18900001 8.1182657e-39
0.029678497 0.063487105 0.18900001 7.7494832e-39
0.030286886 0.063335009 0.18900001 7.9338744e-39
0.031290729 0.063304588 0.18900001 7.9331556e-39
0.024963493 0.064703882 0.18900001 8.486328e-39
0.025723977 0.064551786 0.18900001 8.1182657e-39
0.02648446 0.064551786 0.18900001 8.1182657e-39
0.027397042 0.064551786 0.18900001 7.9338744e-39
0.028613819 0.064399689 0.18900001 7.8416788e-39
0.029678499 0.064399689 0.18900001 7.288505e-39
0.030256469 0.064338848 0.18900001 8.0257099e-39
0.03104737 0.064095497 0.18900001 8.1175454e-39
0.023290426 0.065920658 0.18900001 8.4863252e-39
0.024548681 0.065644115 0.189 8.3019367e-39
0.025723977 0.06546437 0.18900001 8.1182657e-39
0.026383063 0.065413676 0.18900001 8.1182657e-39
0.027397044 0.065312274 0.18900001 7.9338744e-39
0.028309627 0.065312274 0.18900001 7.8416788e-39
0.021769457 0.066833243 0.18900001 8.5785208e-39
0.022732737 0.066630445 0.18900001 8.4863252e-39
0.023290426 0.06652905 0.18900001 8.4863252e-39
0.024152309 0.066427648 0.18900001 8.2097397e-39
0.020704776 0.067289531 0.18900001 8.1179028e-39
0.021617359 0.067289531 0.18900001 8.2100984e-39
0.022682037 0.067289531 0.18900001 8.2100984e-39
0.023290426 0.067289531 0.18900001 8.2100984e-39
0.02405091 0.067137435 0.18900001 8.3019339e-39
0.017814934 0.068962596 0.18900001 8.6707136e-39
0.018778214 0.068861194 0.18900001 8.3019339e-39
0.019548841 0.068719245 0.18900001 8.3941295e-39
0.020400584 0.068506308 0.18900001 8.2097383e-39
0.021617355 0.068506308 0.18900001 8.1175426e-39
0.022660311 0.06844113 0.18900001 8.3019339e-39
0.023239726 0.068151414 0.18900001 8.3019339e-39
0.014620897 0.069875181 0.18900001 9.0387773e-39
0.015736274 0.069773786 0.18900001 8.9473005e-39
0.016293965 0.069723085 0.18900001 8.8551049e-39
0.01751074 0.069723085 0.18900001 8.6707136e-39
0.018727515 0.069723085 0.18900001 8.3941295e-39
0.019488001 0.069723085 0.18900001 8.3941295e-39
0.020400582 0.069570988 0.18900001 8.302294e-39
0.021617359 0.069570988 0.18900001 8.0260673e-39
0.01348017 0.070407517 0.18900001 9.0394961e-39
0.014620897 0.070331469 0.18900001 8.8547461e-39
0.015685577 0.070331469 0.18900001 8.7629092e-39
0.016293965 0.070331469 0.18900001 8.5792383e-39
0.017419482 0.070240214 0.18900001 8.578518e-39
0.01097057 0.071548246 0.18900001 9.1309729e-39
0.011761473 0.071456984 0.18900001 9.131333e-39
0.012491539 0.07139615 0.18900001 8.9469404e-39
0.013404123 0.07139615 0.18900001 8.8547447e-39
0.014620898 0.07139615 0.18900001 8.7629092e-39
0.015685575 0.07139615 0.18900001 8.8547447e-39
0.016243266 0.07119336 0.18900001 8.6707136e-39
0.010632577 0.072680525 0.18900001 9.0376983e-39
0.011731055 0.072612919 0.18900001 8.9465816e-39
0.01249154 0.072612919 0.18900001 8.854386e-39
0.013404123 0.072612919 0.18900001 8.7621904e-39
0.014620896 0.072612919 0.18900001 8.854386e-39
0.015655156 0.072552085 0.18900001 8.854386e-39
0.0094496002 0.073221311 0.18900001 9.2220895e-39
0.010514278 0.073525511 0.18900001 8.8540259e-39
0.011731055 0.073525503 0.18900001 8.854386e-39
0.012491539 0.073525503 0.18900001 8.854386e-39
0.013404123 0.073525511 0.18900001 8.7621904e-39
0.014560059 0.073464669 0.18900001 8.854386e-39
0.010869172 0.07423529 0.18900001 8.6699947e-39
0.011731055 0.074285991 0.18900001 8.7621904e-39
0.012390141 0.07423529 0.18900001 8.7621904e-39
0.011731055 0.075198576 0.18900001 8.7621904e-39
0.012187346 0.075198576 0.18900001 8.7621904e-39
0.0065597575 0.077480026 0.18900001 9.6834236e-39
0.0074723391 0.077480026 0.18900001 9.4990323e-39
0.044666994 0.052508295 0.19000001 7.7509279e-39
0.043647651 0.053629577 0.19000001 7.5665367e-39
0.044666998 0.053425703 0.19000003 7.6587323e-39
0.045737308 0.053425703 0.19000001 7.5665367e-39
0.046272464 0.053425703 0.19000001 7.5665367e-39
0.041914765 0.054954723 0.19000001 7.5665367e-39
0.042628307 0.054852787 0.19000001 7.5665367e-39
0.04344378 0.054648913 0.19000003 7.474341e-39
0.044666998 0.054648913 0.19000003 7.5665367e-39
0.045686338 0.054445047 0.19000001 7.474341e-39
0.040768001 0.055719227 0.19000001 7.6572918e-39
0.04176186 0.055566326 0.19000001 7.565815e-39
0.042526372 0.055566326 0.19000001 7.6580106e-39
0.043367334 0.055413425 0.19000001 7.5665339e-39
0.044361193 0.055260524 0.19000001 7.5665339e-39
0.037939318 0.05678954 0.19000001 8.0257141e-39
0.038754795 0.056687605 0.19000001 7.6569316e-39
0.039346013 0.0565449 0.19000001 7.6572918e-39
0.040385749 0.056352679 0.19000003 7.7491273e-39
0.04176186 0.056177933 0.19000001 7.565815e-39
0.034881286 0.057706952 0.19000001 8.0260701e-39
0.03549289 0.057706952 0.19000001 7.8416788e-39
0.036471464 0.057584632 0.19000001 7.8413215e-39
0.037633512 0.057554051 0.19000001 7.7491273e-39
0.038703829 0.057401147 0.19000001 7.6569316e-39
0.039162531 0.057401147 0.19000001 7.7491273e-39
0.033619847 0.058700811 0.19000003 7.8423977e-39
0.034728386 0.058522422 0.19000001 7.8420376e-39
0.035431731 0.058440875 0.19000001 7.7498433e-39
0.036333852 0.058165655 0.19000001 7.8416788e-39
0.037327711 0.058012754 0.19000001 7.7494832e-39
0.031670347 0.059541773 0.19000001 7.9349534e-39
0.032281958 0.059388869 0.19000001 7.7505636e-39
0.033439644 0.059367027 0.19000003 7.7505636e-39
0.034575481 0.059235968 0.19000001 7.5661709e-39
0.02943798 0.060642667 0.19000001 8.0260701e-39
0.030638263 0.060497411 0.19000003 8.1182657e-39
0.031670347 0.060459178 0.19000001 8.1182657e-39
0.032281954 0.060459185 0.19000001 7.9335185e-39
0.033148397 0.060255315 0.19000001 7.841683e-39
0.026777495 0.061835296 0.19000001 8.3026556e-39
0.027694905 0.061835296 0.19000001 8.1182643e-39
0.028459413 0.061682399 0.19000001 8.0260701e-39
0.029376822 0.061682396 0.19000003 7.7491245e-39
0.030600037 0.061682396 0.19000003 8.0257127e-39
0.031670347 0.061682399 0.19000001 8.0260701e-39
0.032230988 0.061478525 0.19000001 7.9338744e-39
0.025401378 0.06290561 0.19000001 8.302657e-39
0.026471691 0.062599808 0.19000003 8.302657e-39
0.027694903 0.062599808 0.19000001 8.0260701e-39
0.028459411 0.062599808 0.19000001 8.0257113e-39
0.029376822 0.062599808 0.19000001 7.657289e-39
0.030600036 0.062599808 0.19000001 7.6569302e-39
0.031517446 0.062294003 0.19000001 8.0260701e-39
0.02371946 0.063823022 0.19000001 8.3948526e-39
0.024483968 0.063670114 0.19000001 8.1182657e-39
0.025248477 0.063517213 0.19000001 8.0260701e-39
0.026471689 0.063517213 0.19000004 8.302657e-39
0.027694903 0.063517213 0.19000001 8.0260701e-39
0.028459413 0.063517213 0.19000001 7.9338758e-39
0.029333133 0.06342984 0.19000003 7.8413215e-39
0.030294232 0.063211411 0.19000001 7.8413229e-39
0.022547213 0.064638495 0.19000001 9.2238902e-39
0.023566557 0.064587526 0.19000001 8.5785222e-39
0.024483968 0.064587526 0.19000001 8.3022968e-39
0.025197508 0.064536564 0.19000001 8.3022968e-39
0.026471689 0.064434625 0.19000001 8.2104613e-39
0.027694903 0.064434625 0.19000001 8.0260701e-39
0.018597251 0.06588719 0.19000001 8.5792411e-39
0.019629337 0.065619618 0.19000003 8.5788809e-39
0.020661423 0.0655559 0.19000001 8.6707164e-39
0.021425933 0.0655559 0.19000001 8.9473033e-39
0.022343341 0.0655559 0.19000003 8.9473033e-39
0.023528332 0.065504946 0.19000003 8.4863252e-39
0.024483968 0.065046236 0.19000001 8.3941323e-39
0.01683888 0.066575252 0.19000001 8.5785208e-39
0.017552422 0.066473313 0.19000001 8.762912e-39
0.018469833 0.066422351 0.19000001 8.6714367e-39
0.019591112 0.066422351 0.19000001 8.4866853e-39
0.020661425 0.066422351 0.19000001 8.4863252e-39
0.021425933 0.066422351 0.19000001 8.6707164e-39
0.022282183 0.066391774 0.19000001 8.762912e-39
0.016620448 0.067536347 0.19000003 8.8551063e-39
0.017450487 0.067492664 0.19000001 8.6707164e-39
0.018469833 0.067492664 0.19000003 8.762912e-39
0.019591112 0.067492656 0.19000003 8.5788809e-39
0.020584973 0.067416213 0.19000001 8.302294e-39
0.021120129 0.067186855 0.19000001 8.4863252e-39
0.015386314 0.06863942 0.19000001 9.3153642e-39
0.016533077 0.06856297 0.19000001 9.0394961e-39
0.017450487 0.06856297 0.19000001 8.7629092e-39
0.018469831 0.06856297 0.19000001 8.6707136e-39
0.019387243 0.068512 0.19000001 8.6707164e-39
0.011640223 0.069939084 0.19000001 9.4079157e-39
0.012557632 0.069939084 0.19000001 9.4075584e-39
0.013627945 0.069939084 0.19000001 9.3153642e-39
0.014453614 0.069510959 0.19000001 9.2231685e-39
0.015271638 0.069365703 0.19000003 9.2231685e-39
0.016533077 0.06917458 0.19000001 8.9469418e-39
0.017348552 0.069123618 0.19000001 8.7629092e-39
0.018214997 0.069021679 0.19000001 8.6707136e-39
0.011517901 0.070428371 0.19000001 9.2238846e-39
0.012557632 0.070397794 0.19000001 9.2238874e-39
0.013576977 0.070346825 0.19000001 9.1316918e-39
0.010569911 0.071544558 0.19000001 9.2235273e-39
0.011334419 0.071284622 0.19000001 9.1316918e-39
0.012404731 0.071162298 0.19000001 8.9473005e-39
0.0098054018 0.072997123 0.19000001 9.2220895e-39
0.010315075 0.072283581 0.19000001 9.2224483e-39
0.0072060721 0.076666765 0.19000001 9.4990323e-39
0.0058299568 0.07758417 0.19000001 9.7756192e-39
0.0066454322 0.077482231 0.19000001 9.6834236e-39
0.0072060721 0.077431269 0.19000001 9.591228e-39
0.046991307 -0.013069781 0.192 1.350847e-38
0.047609355 -0.013224293 0.192 1.3601025e-38
0.046991307 -0.012606247 0.192 1.3599585e-38
0.047609355 -0.012606248 0.19200002 1.369358e-38
0.049308978 0.048734695 0.192 8.2119033e-39
0.048768189 0.049661763 0.192 8.1189888e-39
0.049308974 0.049661759 0.19200002 8.0271519e-39
0.050351933 0.049700391 0.19200002 8.1193475e-39
0.051317621 0.049970787 0.192 7.9345975e-39
0.049360484 0.050691839 0.19199999 8.1189888e-39
0.050390553 0.050743341 0.19200002 7.8424019e-39
0.051317621 0.050588831 0.192 7.9345975e-39
0.038956724 0.051515896 0.192 8.1197076e-39
0.042647723 0.051657468 0.19100003 7.7509251e-39
0.043057606 0.051555 0.19100001 7.9353164e-39
0.050236046 0.051206876 0.192 8.0267931e-39
0.037473418 0.052628379 0.192 8.3026612e-39
0.0385447 0.052442968 0.19200002 7.9349563e-39
0.039265748 0.052442968 0.19199999 8.027512e-39
0.040598303 0.052784655 0.19100001 7.8424019e-39
0.041520543 0.052630946 0.19100001 7.7502077e-39
0.042442776 0.052477237 0.191 7.7505664e-39
0.043452851 0.052521158 0.191 7.7509279e-39
0.044287257 0.052784655 0.19100001 7.7509279e-39
0.034836426 0.053885069 0.19199999 8.0267931e-39
0.035619281 0.053679056 0.192 8.1189888e-39
0.036330033 0.053576041 0.19200002 8.1189888e-39
0.037411615 0.053576041 0.19200002 8.1189888e-39
0.0385447 0.053576045 0.19200002 7.9345975e-39
0.039633159 0.053594738 0.19185717 7.7502063e-39
0.040463138 0.053492133 0.19133334 7.658012e-39
0.041366838 0.053553186 0.19100001 7.4739809e-39
0.042442784 0.053553183 0.191 7.5665367e-39
0.043487981 0.053522445 0.19100001 7.6587323e-39
0.034630414 0.054606121 0.19200002 8.0260743e-39
0.035557479 0.054606121 0.192 8.1182699e-39
0.036330037 0.054606117 0.192 8.1189888e-39
0.037411612 0.054606121 0.19200002 8.2115403e-39
0.038489394 0.054684475 0.19155556 7.7502063e-39
0.039664634 0.054558083 0.19111112 7.7502063e-39
0.040598303 0.054526657 0.191 7.5658164e-39
0.041366834 0.054526657 0.191 7.3821454e-39
0.042404354 0.054475423 0.191 7.5665367e-39
0.043057606 0.054014307 0.19100001 7.5665367e-39
0.032312743 0.05584221 0.192 8.6714395e-39
0.033438466 0.055621482 0.19200002 8.1179084e-39
0.034630414 0.055533193 0.19200002 7.9335185e-39
0.035557479 0.055533189 0.19200002 8.0257141e-39
0.036429562 0.055494241 0.1917143 8.1179098e-39
0.037429266 0.055349551 0.19150001 8.3026598e-39
0.038446411 0.055397663 0.191 7.7502063e-39
0.039676066 0.055397663 0.191 7.7502063e-39
0.040598303 0.055397663 0.19100001 7.6580106e-39
0.041366838 0.055243958 0.19100001 7.3814251e-39
0.030767631 0.056769278 0.192 8.6714395e-39
0.031746201 0.05666627 0.19199999 8.3948526e-39
0.032312743 0.056614764 0.192 8.2104613e-39
0.033394322 0.056614768 0.19200002 8.0260715e-39
0.034604646 0.056638516 0.19185714 7.9335185e-39
0.035624512 0.056563161 0.19119999 8.0257141e-39
0.03675564 0.056473613 0.191 8.0257141e-39
0.037524171 0.056473613 0.191 8.1179098e-39
0.038407981 0.056435183 0.191 7.8413229e-39
0.03959921 0.056243051 0.19100001 7.7491273e-39
0.029686052 0.057696346 0.192 8.4870482e-39
0.030613119 0.057387322 0.19200002 8.5792439e-39
0.031694695 0.057387322 0.192 8.302301e-39
0.032432787 0.057450511 0.19180003 8.0257141e-39
0.033444177 0.057390317 0.19162501 8.0257141e-39
0.034301348 0.057332337 0.19120002 8.0257141e-39
0.035525993 0.057395846 0.191 7.9335185e-39
0.036755644 0.057088435 0.19100001 7.9335185e-39
0.037524171 0.057088435 0.19100001 8.0257141e-39
0.027522897 0.058623414 0.19199999 8.2111816e-39
0.028449964 0.058468901 0.192 8.3030185e-39
0.02951733 0.058426846 0.19181819 8.3026584e-39
0.030584132 0.058426846 0.19181819 8.3952113e-39
0.031551752 0.058452711 0.19144446 8.117907e-39
0.032552324 0.058345065 0.19118184 8.0257113e-39
0.033527806 0.05816438 0.19100001 8.0260701e-39
0.034296338 0.058010675 0.19100001 8.0260701e-39
0.022578536 0.059859503 0.192 9.1316946e-39
0.023505604 0.059704993 0.19200002 8.762912e-39
0.02458718 0.059704989 0.192 9.223893e-39
0.025536319 0.059638772 0.19200002 8.8551105e-39
0.026445314 0.059626654 0.19175 8.3941323e-39
0.027504047 0.059497017 0.19133331 8.3022968e-39
0.028580246 0.059492052 0.19118184 8.0267903e-39
0.029596981 0.059503991 0.19114287 8.118986e-39
0.030453676 0.059547741 0.191 7.9349548e-39
0.031331997 0.059459906 0.191 7.9349534e-39
0.032451861 0.059240326 0.19100001 7.7505622e-39
0.021651469 0.060632057 0.192 9.0394989e-39
0.022424024 0.060477547 0.192 9.0394989e-39
0.023505604 0.060477544 0.19200002 8.8551077e-39
0.024544498 0.060577493 0.19166668 8.8551077e-39
0.025491301 0.060507145 0.19144446 8.5788823e-39
0.02645731 0.060623683 0.19100001 8.1175496e-39
0.027482018 0.060623687 0.191 8.3022982e-39
0.028609199 0.060623687 0.191 8.0260701e-39
0.029685143 0.060469978 0.19100001 8.302657e-39
0.030146264 0.060469978 0.19100001 8.1182657e-39
0.0179432 0.061404616 0.192 9.3160858e-39
0.018252222 0.061404616 0.192 9.3160858e-39
0.019488312 0.061250106 0.192 9.2238902e-39
0.020415379 0.061250106 0.19200002 9.2238902e-39
0.021548459 0.061250106 0.19200002 8.9473033e-39
0.022487564 0.061399948 0.19166666 8.9473033e-39
0.023492299 0.061293345 0.19133334 8.762912e-39
0.024459124 0.061392218 0.19100001 8.6710766e-39
0.025535069 0.061392218 0.191 8.4870454e-39
0.026457308 0.061392218 0.19100001 8.302657e-39
0.027482018 0.061392218 0.191 8.2104613e-39
0.028455492 0.061084803 0.19100001 8.2104613e-39
0.012998841 0.062949724 0.192 9.8685379e-39
0.017737186 0.0625377 0.19200002 9.0394975e-39
0.018561244 0.06248619 0.19200002 8.8551077e-39
0.019355875 0.062552407 0.19200002 9.0394989e-39
0.020432001 0.062458873 0.19191666 8.9473033e-39
0.021508165 0.06229575 0.19141667 8.6707164e-39
0.022614645 0.062314454 0.191 8.8551077e-39
0.023485649 0.062314451 0.191 8.5792411e-39
0.024459124 0.062314454 0.191 8.6710766e-39
0.025496645 0.062276028 0.191 8.4870454e-39
0.026149895 0.062160745 0.19100001 8.4870468e-39
0.016604101 0.063773789 0.19199999 9.0398577e-39
0.017634178 0.063722283 0.19200002 8.9476634e-39
0.018561244 0.063722283 0.192 8.7632722e-39
0.019420108 0.063654728 0.19133334 8.5788809e-39
0.020411519 0.063544117 0.191 8.5792411e-39
0.021538703 0.063544102 0.191 8.6710766e-39
0.022614645 0.063544102 0.191 9.1316946e-39
0.023485648 0.063544109 0.191 8.6710766e-39
0.024459124 0.063390397 0.19100001 8.302657e-39
0.025227657 0.063236691 0.19100001 8.1182657e-39
0.016459892 0.064556636 0.192 9.1320519e-39
0.017634176 0.064494826 0.19200002 8.9480236e-39
0.018536108 0.064517938 0.19128571 8.6714367e-39
0.019386809 0.064620048 0.19100001 8.8558279e-39
0.020411521 0.064620055 0.191 8.7636323e-39
0.021538699 0.064620055 0.191 8.8551077e-39
0.022563411 0.064568818 0.19100003 9.3160858e-39
0.023075765 0.064466342 0.19100001 9.2238902e-39
0.011762751 0.065421902 0.192 9.4990323e-39
0.0120089 0.065081172 0.19100001 9.4990323e-39
0.013925908 0.065730929 0.192 9.5001113e-39
0.014646961 0.065627925 0.19199999 9.316083e-39
0.015347412 0.065483704 0.192 9.2238902e-39
0.016403776 0.065307789 0.19166666 9.1316946e-39
0.017434012 0.065251 0.19150001 8.7636323e-39
0.018464571 0.065234877 0.191 8.6714367e-39
0.019284338 0.06518364 0.19100003 8.8558279e-39
0.020411521 0.065081172 0.19100003 8.9473033e-39
0.021538703 0.065081172 0.19100003 8.9473033e-39
0.012998841 0.066967018 0.192 1.0512465e-38
0.013655514 0.066696621 0.19200002 1.0144402e-38
0.014669656 0.066681311 0.19162501 9.3153642e-39
0.015515594 0.066507727 0.19112499 8.762912e-39
0.016368575 0.066422604 0.191 8.762912e-39
0.017357886 0.066249341 0.19100001 8.6710766e-39
0.018310864 0.066003412 0.19100001 8.6714367e-39
0.012689818 0.067739569 0.192 1.0696857e-38
0.013555082 0.067708671 0.192 9.867096e-39
0.014468203 0.06769418 0.191 9.1306156e-39
0.015544148 0.06769418 0.19100001 8.6707164e-39
0.016005268 0.06769418 0.19100001 8.762912e-39
0.012689818 0.068357617 0.192 1.0512824e-38
0.013479093 0.068440117 0.1918 9.4068381e-39
0.014468203 0.068462707 0.191 9.0387759e-39
0.015492912 0.068360239 0.19100003 9.0391374e-39
0.012998841 0.069130175 0.192 9.590872e-39
0.013380201 0.069348559 0.19114287 9.2231685e-39
0.014263261 0.069180004 0.19100003 9.2231685e-39
0.010369364 0.070819549 0.19100003 9.3157201e-39
0.01108666 0.070460901 0.19100001 9.4079157e-39
0.002337567 0.071602352 0.192 1.0143683e-38
0.0032131306 0.071705364 0.19199999 1.0143683e-38
0.0041698697 0.071690544 0.19100001 9.592307e-39
0.0095866919 0.071740083 0.19175002 9.1313288e-39
0.010164422 0.071690544 0.19100001 9.2231685e-39
0.0016268153 0.072591223 0.192 1.0328433e-38
0.0023375668 0.072529413 0.19200002 1.042027e-38
0.0032646339 0.072529413 0.19200002 1.0051847e-38
0.0040161633 0.072151668 0.19100001 9.6845026e-39
0.0089815492 0.072838441 0.192 9.4990323e-39
0.0095171463 0.072439805 0.19160001 9.3146411e-39
0.00094696588 0.073456489 0.192 1.0236595e-38
0.0016680183 0.073559493 0.19199999 1.032879e-38
0.002337567 0.073610999 0.192 1.0420626e-38
0.003357341 0.073641904 0.192 9.959649e-39
0.0095495963 0.073073909 0.19100001 9.3146425e-39
0.00094696588 0.075001597 0.192 1.032879e-38
0.0015032062 0.07537242 0.192 1.0328433e-38
0.0021830557 0.075619645 0.192 1.0328074e-38
0.00072623562 0.076546721 0.19200002 9.6830621e-39
0.0015650108 0.076546706 0.19200002 9.9592916e-39
0.0023066648 0.076608516 0.192 1.0051846e-38
0.0031101229 0.076855734 0.192 1.0235879e-38
0.00094696588 0.077473775 0.192 9.6834236e-39
0.0015650108 0.077628285 0.192 1.0052205e-38
0.0022860633 0.077576779 0.19199999 1.0144402e-38
0.033878881 0.05178421 0.193 8.2111844e-39
0.034375895 0.051535703 0.193 8.1193489e-39
0.035369914 0.05165996 0.193 7.8431208e-39
0.036363937 0.05178421 0.193 8.1197076e-39
0.037917096 0.05178421 0.193 7.7509251e-39
0.038383044 0.051628895 0.193 7.7509251e-39
0.03279167 0.052716106 0.193 8.2111844e-39
0.033723567 0.052560791 0.193 8.1189888e-39
0.03434483 0.052560791 0.193 8.1189888e-39
0.035432041 0.052560791 0.193 8.0271533e-39
0.03667457 0.052560791 0.193 8.1193475e-39
0.037606463 0.052405473 0.193 8.2111844e-39
0.031471483 0.053803321 0.193 8.1182699e-39
0.032636352 0.053440914 0.19299999 8.3030213e-39
0.033723567 0.053440914 0.193 8.1189888e-39
0.034344833 0.053440914 0.193 8.1189888e-39
0.035369914 0.053150993 0.193 8.1189888e-39
0.036519252 0.05302674 0.193 8.027512e-39
0.029685352 0.054579899 0.193 8.3955757e-39
0.03046193 0.05442458 0.193 8.0267931e-39
0.031393826 0.054424584 0.193 8.0264344e-39
0.032636356 0.05442458 0.193 8.6710836e-39
0.033723567 0.054424584 0.193 8.2108257e-39
0.034189515 0.054269265 0.193 8.1189888e-39
0.027666245 0.05566711 0.193 8.3952127e-39
0.028442822 0.05566711 0.193 8.4874084e-39
0.029530035 0.055511795 0.19299999 8.5792439e-39
0.03046193 0.055511799 0.193 8.5792439e-39
0.031393826 0.055511795 0.19299999 8.6714395e-39
0.032597527 0.05547297 0.19299999 8.7636351e-39
0.033671796 0.055304706 0.193 8.210104e-39
0.024559924 0.056754321 0.193 9.4075598e-39
0.025491821 0.056754321 0.193 8.9473033e-39
0.026579032 0.056443691 0.193 8.5788837e-39
0.027459154 0.056443691 0.193 8.3948526e-39
0.028442822 0.056443691 0.193 8.4870482e-39
0.029530035 0.056443688 0.193 8.5792439e-39
0.030461932 0.056443691 0.193 8.8558307e-39
0.031331699 0.056381565 0.193 8.5792439e-39
0.02362803 0.057841532 0.193 8.9473033e-39
0.02440461 0.057479128 0.193 9.0391402e-39
0.025491821 0.057479128 0.19299999 8.762912e-39
0.026579032 0.057479128 0.193 8.6707164e-39
0.027459154 0.057479128 0.19299999 8.3948526e-39
0.028442822 0.057479128 0.193 8.3948554e-39
0.029485658 0.057331208 0.19299999 8.4870496e-39
0.030151298 0.057064954 0.193 8.7636351e-39
0.020832341 0.058928743 0.193 9.3160858e-39
0.021531263 0.058851086 0.193 9.2238902e-39
0.02257188 0.058680236 0.193 9.1316946e-39
0.023524486 0.05861811 0.19299999 8.7629134e-39
0.024404608 0.05861811 0.193 8.7629148e-39
0.025491821 0.058618113 0.19299999 8.8551105e-39
0.026579032 0.05861811 0.193 8.5785236e-39
0.027459154 0.058462799 0.193 8.2108229e-39
0.028442822 0.05830748 0.193 8.30338e-39
0.0185026 0.059860639 0.193 9.3160858e-39
0.019667473 0.059782982 0.193 9.2238902e-39
0.02052171 0.059705324 0.193 9.3160858e-39
0.021453606 0.059705328 0.193 9.2238902e-39
0.022540817 0.059705324 0.193 9.2238902e-39
0.023524486 0.059550006 0.193 8.7629134e-39
0.024404608 0.05955001 0.193 8.9473061e-39
0.025336504 0.05955001 0.193 8.9473061e-39
0.017415389 0.060792536 0.193 9.5004743e-39
0.018347286 0.060481906 0.193 9.3160858e-39
0.019589813 0.060481906 0.193 9.2238902e-39
0.02052171 0.060481906 0.193 9.3160858e-39
0.021391477 0.060419779 0.193 9.2238902e-39
0.0223855 0.060171273 0.193 9.2238902e-39
0.016794126 0.061724432 0.193 9.5926699e-39
0.017291138 0.061475925 0.193 9.4082787e-39
0.018391659 0.061325047 0.19299999 9.3160844e-39
0.019465562 0.061289549 0.193 9.2238902e-39
0.02052171 0.061103169 0.193 9.3160858e-39
0.016669875 0.062718451 0.193 9.4082801e-39
0.017104758 0.062656328 0.193 9.3160858e-39
0.019279182 0.062345695 0.193 9.2238902e-39
0.016587039 0.063484676 0.193 9.1316946e-39
0.0084070647 0.064520121 0.193 9.6841467e-39
0.0093389601 0.064520121 0.193 9.4997554e-39
0.0074751684 0.065607332 0.193 1.0144046e-38
0.0084070638 0.065452009 0.19299999 9.6841467e-39
0.0093389601 0.065452009 0.193 9.4075598e-39
0.011202752 0.065762646 0.193 9.591228e-39
0.013687807 0.065296695 0.193 9.591951e-39
0.0074751684 0.066073276 0.193 1.0236597e-38
0.008484723 0.066228591 0.193 9.5915895e-39
0.0093389601 0.066383913 0.193 9.222807e-39
0.0071645365 0.070732757 0.193 9.8678149e-39
0.00043417813 0.075702868 0.193 1.0235877e-38
-0.00029062969 0.076634765 0.193 1.0328071e-38
0.00033063415 0.076168813 0.193 1.0051486e-38
0.029995283 0.051740281 0.19400001 8.3955757e-39
0.030307524 0.051740281 0.19400001 8.3955757e-39
0.032493211 0.051740281 0.19400001 8.2111844e-39
0.033429939 0.051740278 0.19400001 8.0267931e-39
0.034366664 0.051428039 0.19400001 8.30338e-39
0.028642235 0.052885164 0.19400001 8.30338e-39
0.029526921 0.052637976 0.19400001 8.3955757e-39
0.030463645 0.052572925 0.19400001 8.4877713e-39
0.031556487 0.052572925 0.19400001 8.30338e-39
0.032430761 0.052489661 0.19400001 8.1189888e-39
0.033221778 0.052260682 0.19400001 8.0267931e-39
0.027809592 0.053925972 0.19400001 8.3955757e-39
0.028590197 0.05361373 0.19400001 8.2111844e-39
0.029474882 0.053613734 0.19400001 8.3955757e-39
0.030463643 0.05361373 0.19400001 8.3955757e-39
0.03149404 0.053551279 0.19400001 8.11863e-39
0.025780022 0.054862697 0.19400001 9.592314e-39
0.026404507 0.054862697 0.19400001 9.0398591e-39
0.02760143 0.054654539 0.19400001 8.2115445e-39
0.028590197 0.054550458 0.19400001 8.2115445e-39
0.029415408 0.054461244 0.19400001 8.3959344e-39
0.030463643 0.054238215 0.19400001 8.30338e-39
0.022189246 0.055799421 0.19400001 9.4082843e-39
0.024749625 0.055674523 0.19400001 1.0329519e-38
0.025780022 0.055643298 0.19400001 9.5919538e-39
0.026404506 0.055643298 0.19400001 9.1313358e-39
0.027419291 0.055565238 0.19400001 8.3033772e-39
0.028590195 0.055487178 0.19400001 8.3955757e-39
0.021877006 0.056267783 0.19400001 9.4082843e-39
0.022501487 0.056267783 0.19400001 9.6848711e-39
0.023438213 0.056267783 0.19400001 1.0145488e-38
0.024687178 0.056267783 0.19400001 1.0237323e-38
0.025780022 0.056267783 0.19400001 9.4079213e-39
0.026404507 0.056111664 0.19400001 8.8554678e-39
0.02718511 0.056111664 0.19400001 8.4870482e-39
0.021668844 0.057464708 0.19400001 9.0395017e-39
0.022501489 0.05736063 0.19400001 9.6848697e-39
0.023399182 0.057321593 0.19400001 9.8689009e-39
0.024374936 0.057048388 0.19400001 9.591951e-39
0.019379074 0.058765717 0.19400001 9.1316946e-39
0.020360405 0.058698807 0.19400001 9.3160858e-39
0.021525735 0.058570568 0.19400001 9.1316946e-39
0.022397406 0.058401432 0.19400001 9.1316946e-39
0.019379074 0.059546318 0.19400001 9.2238902e-39
0.020159677 0.059234075 0.19400001 9.3160858e-39
0.016568901 0.060326919 0.19400001 9.5004757e-39
0.017443176 0.060295694 0.19400001 9.5004757e-39
0.01641278 0.061419759 0.19400001 9.5004743e-39
0.017193384 0.061263643 0.19400001 9.4082787e-39
0.01188528 0.062980972 0.19400001 9.6841467e-39
0.015944418 0.062564649 0.19400001 9.4082787e-39
0.01625666 0.062356491 0.19400001 9.4082787e-39
0.01188528 0.063293211 0.19400001 1.005185e-38
0.012197522 0.063917696 0.19400001 9.6841467e-39
0.015944418 0.063293211 0.19400001 9.4082787e-39
0.0075138998 0.064750344 0.19400001 9.8685379e-39
0.0093873488 0.064542182 0.19400001 9.591951e-39
0.010285043 0.064581208 0.19400001 9.7763423e-39
0.011260797 0.064854421 0.19400001 1.0328437e-38
0.006577176 0.065478906 0.19400001 1.0236241e-38
0.007305739 0.065582983 0.19400001 1.0144046e-38
0.010324073 0.065635026 0.19400001 9.4997554e-39
0.011364877 0.065687068 0.19400001 9.6834278e-39
0.013134246 0.065791145 0.19400001 9.4075598e-39
0.0072016586 0.066103384 0.19400001 1.0328437e-38
0.010246012 0.066181444 0.19400001 9.2235259e-39
0.0092312284 0.067508474 0.19400001 8.9455026e-39
0.010136728 0.067414805 0.19400001 9.3142838e-39
0.0092312275 0.068601318 0.19400001 9.7752633e-39
0.010167952 0.068601318 0.19400001 9.9596546e-39
0.0093873488 0.069225803 0.19400001 1.005185e-38
0.010011831 0.069225803 0.19400001 1.0144046e-38
0.027952941 0.052948534 0.19500001 8.3955757e-39
0.028371409 0.052530069 0.19500001 8.4877713e-39
0.029208345 0.052320834 0.19500001 8.30338e-39
0.027952941 0.053419307 0.19500001 8.3955757e-39
0.022774402 0.054831639 0.19500001 8.8551077e-39
0.023559028 0.054674715 0.19500001 9.2238916e-39
0.025651367 0.054727022 0.19500001 9.6848697e-39
0.026540611 0.054674711 0.19500001 9.0395017e-39
0.021675922 0.055459343 0.19500001 9.0395003e-39
0.025128283 0.055145491 0.19500001 1.0237323e-38
0.019478966 0.056400891 0.19500001 8.8551105e-39
0.020577446 0.056400891 0.19500001 8.7629148e-39
0.021362072 0.056212582 0.19500001 9.3160886e-39
0.018537413 0.057342447 0.19500001 9.3160858e-39
0.019478967 0.057499375 0.19500001 9.1316946e-39
0.020577446 0.057499368 0.19500002 8.762912e-39
0.02117376 0.057279676 0.19500001 8.5785236e-39
0.019400503 0.05867631 0.19500001 9.1316946e-39
0.02042052 0.058597848 0.19500001 9.3160858e-39
0.019165115 0.059382476 0.19500001 9.1316946e-39
0.010691141 0.06063788 0.19500001 1.0144046e-38
0.011423459 0.060480952 0.19500002 1.0236603e-38
0.012529409 0.060570624 0.19500002 9.9610937e-39
0.01364134 0.060543723 0.19500001 9.7770626e-39
0.0141435 0.06063788 0.19500001 9.7770612e-39
0.016340457 0.06063788 0.19500001 9.5004757e-39
0.010691141 0.061579432 0.19500001 1.005221e-38
0.01142346 0.061579432 0.19500001 9.7756234e-39
0.012574245 0.061579432 0.19500001 9.6845054e-39
0.013672724 0.061579432 0.19500001 9.5004743e-39
0.0141435 0.061422508 0.19500001 9.5004743e-39
0.010691141 0.062520981 0.19500001 9.8685379e-39
0.011358074 0.062403295 0.19500002 9.6841467e-39
0.012574245 0.062050208 0.19500001 9.591951e-39
0.013515799 0.062050208 0.19500001 9.5004743e-39
0.01555583 0.062207133 0.19500001 9.4082787e-39
0.010691141 0.063305609 0.19500001 9.9607336e-39
0.011214226 0.06341023 0.19500001 9.9607336e-39
0.0067366189 0.064686552 0.19500001 1.0144046e-38
0.0075526317 0.064717941 0.19500001 9.8685379e-39
0.010691141 0.064561017 0.19500001 1.0052929e-38
0.011423459 0.064561009 0.19500002 1.005257e-38
0.012652708 0.064639479 0.19500001 9.591951e-39
0.0064018443 0.065397955 0.19500001 1.0144046e-38
0.011946544 0.065502569 0.19500001 9.9596546e-39
0.012678863 0.065607183 0.19500001 9.4997554e-39
0.006611079 0.066130273 0.19500001 1.0236241e-38
0.011946544 0.066130273 0.19500001 9.6830677e-39
0.01241732 0.066130273 0.19500001 9.590872e-39
0.027675675 0.052378833 0.19600002 8.4877713e-39
0.02841175 0.052273683 0.19600001 8.4877713e-39
0.020367511 0.053535525 0.19599999 9.2231713e-39
0.02147162 0.053693254 0.19599999 9.3157257e-39
0.02257573 0.053535525 0.19599999 8.762912e-39
0.023469537 0.053535525 0.19599999 8.7629134e-39
0.024310762 0.053535525 0.19600002 9.0395017e-39
0.027465368 0.053377796 0.19600001 8.4877713e-39
0.019894319 0.054797366 0.19600001 8.8543916e-39
0.020367511 0.054639637 0.19600001 8.9465858e-39
0.021471621 0.054639637 0.19599999 9.1313358e-39
0.022575732 0.054639637 0.19600001 8.762912e-39
0.023364384 0.054560773 0.19600001 8.9473047e-39
0.018790208 0.055428289 0.19600001 9.499761e-39
0.019736588 0.05527056 0.19600001 8.9465872e-39
0.020367511 0.055270556 0.19600001 9.3153684e-39
0.02140853 0.055239014 0.19600001 9.0394989e-39
0.022418002 0.055112828 0.19600001 8.8551077e-39
0.017607233 0.056374669 0.19600001 9.6841495e-39
0.018593045 0.056335237 0.19599999 9.3160886e-39
0.019736588 0.05621694 0.19600001 8.7629148e-39
0.020367511 0.05621694 0.19600001 9.0395017e-39
0.02115616 0.056059208 0.19600001 9.5004799e-39
0.017686097 0.057321049 0.19600001 9.5919538e-39
0.01842217 0.057426203 0.19600002 9.3160858e-39
0.010115046 0.061737496 0.19600001 1.0328437e-38
0.0097995857 0.062526152 0.19600001 1.0145125e-38
0.010193911 0.062447287 0.19600001 1.0052929e-38
0.0063295215 0.063945718 0.19600001 1.0236241e-38
0.010115046 0.063472524 0.19600001 1.0052929e-38
0.005593447 0.064786948 0.19600002 1.0328437e-38
0.0063295215 0.06473437 0.19600001 1.0328437e-38
0.0055408701 0.065365285 0.19600001 1.0328437e-38
0.012480999 0.065365292 0.19600001 9.591951e-39
0.0045268903 0.066424333 0.19599999 1.0144046e-38
0.0053831399 0.066469401 0.19600002 1.005185e-38
0.01263873 0.066153944 0.19600001 9.4075598e-39
0.0047522192 0.067415781 0.19600001 9.9592916e-39
0.01936168 0.050637972 0.19700001 9.9607364e-39
0.02189824 0.05190625 0.19700001 9.5004771e-39
0.022426689 0.05169487 0.19700001 9.131696e-39
0.023404323 0.051747717 0.19700001 8.5796054e-39
0.024593335 0.05190625 0.19700001 8.6721626e-39
0.025227474 0.05190625 0.19700001 8.7643582e-39
0.016666587 0.052857459 0.19700001 1.0420636e-38
0.019520216 0.052698925 0.19700001 1.0421715e-38
0.020675257 0.05263098 0.19700001 9.5919538e-39
0.021739706 0.052540388 0.19700001 9.500117e-39
0.022373846 0.052540392 0.19700001 9.1316946e-39
0.023483589 0.052540388 0.19700001 8.4870496e-39
0.024593333 0.052540392 0.19700001 8.5796082e-39
0.025227472 0.052381855 0.19700001 8.5799669e-39
0.026337219 0.052540388 0.19700001 8.4877713e-39
0.027605498 0.052857459 0.19700001 8.4877713e-39
0.015873913 0.0534916 0.19700001 1.0236244e-38
0.016349517 0.0534916 0.19700001 1.0697222e-38
0.019520216 0.053650133 0.19700001 1.0512831e-38
0.02094703 0.0534916 0.19700001 9.315367e-39
0.021739705 0.0534916 0.19700001 9.4079227e-39
0.026971359 0.053650133 0.19700001 8.579604e-39
0.019520216 0.054442808 0.19700001 9.5915937e-39
0.014922703 0.055711087 0.19700001 9.6830705e-39
0.015556842 0.055552553 0.19700001 1.0697222e-38
0.016190981 0.055711087 0.19700001 1.1158201e-38
0.019150302 0.055182636 0.19700001 9.407564e-39
0.014922703 0.056503765 0.19700001 9.4075626e-39
0.015556842 0.056662295 0.19700001 9.9603762e-39
0.016190981 0.056503765 0.19700001 1.0512831e-38
0.015556842 0.057613507 0.19700001 9.5919538e-39
0.013020282 0.059198856 0.19700001 1.032844e-38
0.0036667208 0.066808529 0.19700001 1.0512465e-38
0.0038252557 0.067125604 0.19700001 1.0512465e-38
0.0044593955 0.067759745 0.19700001 9.9592916e-39
0.014998452 0.053444453 0.19800001 9.7752661e-39
0.015635811 0.053444456 0.19800001 1.0051853e-38
0.0092622228 0.055993885 0.19800001 1.0051853e-38
0.0086248638 0.056790583 0.19800001 1.0697222e-38
0.0092622228 0.056790583 0.19800001 9.9607364e-39
0.014361094 0.056631245 0.19800001 9.5919538e-39
0.0084655238 0.057587281 0.19800001 1.0420634e-38
0.0092622228 0.057587281 0.19800001 1.0052572e-38
0.0084655238 0.058224641 0.19800001 1.0420634e-38
0.0094215628 0.058224641 0.19800001 1.032844e-38
0.049914975 -0.0071763885 0.2 1.0107308e-38
0.050397821 -0.0071763885 0.2 1.0108387e-38
0.048949279 -0.0062106932 0.2 1.0199143e-38
0.049593076 -0.0065325918 0.2 1.0107308e-38
0.050397821 -0.0068544899 0.2 1.0108027e-38
0.016387912 0.05273078 0.19940001 9.8685421e-39
0.01552704 0.053055391 0.19933335 9.8685407e-39
0.016462121 0.05307379 0.19900002 1.0052213e-38
0.0089887129 0.05595639 0.19900002 1.032844e-38
0.0097894352 0.055796243 0.19900002 9.9596574e-39
0.010482425 0.055754732 0.2 1.0144049e-38
0.011337499 0.055849627 0.19900002 1.0420636e-38
0.008508279 0.056757115 0.19900002 1.0512831e-38
0.0097360536 0.056810495 0.19900002 9.6841495e-39
0.010482425 0.056559473 0.2 1.0052572e-38
0.011230735 0.056596968 0.19900002 1.0145128e-38
0.0077075572 0.057557836 0.19900002 9.7752661e-39
0.0083481343 0.057237547 0.19900002 1.0420636e-38
0.0097894352 0.057397693 0.19900002 9.7763451e-39
0.01040195 0.057444699 0.2 9.9607364e-39
0.0097894352 0.058198411 0.19900002 1.0236244e-38
0.049679287 -0.007374024 0.20100001 1.029062e-38
0.050649814 -0.007535778 0.20100001 1.0200222e-38
0.05129683 -0.007374024 0.20100001 9.7403233e-39
0.048547011 -0.0062417472 0.20100001 9.9225566e-39
0.049194027 -0.0068887626 0.20100001 1.0474651e-38
0.05129683 -0.0065652546 0.20100001 9.5562936e-39
-0.00030267652 0.063797697 0.20100001 1.1156756e-38
-0.00030267652 0.064768218 0.20100001 1.1341147e-38
0.00034433921 0.064606465 0.20100001 1.1248951e-38
0.049547147 -0.0075732693 0.20200001 1.0198783e-38
0.052039713 -0.0074107107 0.20200001 9.8321602e-39
0.052039713 -0.0069230348 0.20200001 9.5562922e-39
-0.0012795344 0.063627422 0.20200001 1.1341147e-38
-0.00062929973 0.063789979 0.20200001 1.1156756e-38
-0.0016046518 0.064602777 0.20200001 1.1433343e-38
-0.00062929973 0.064602777 0.20200001 1.1248951e-38
-0.0014420932 0.065253012 0.20200001 1.1433343e-38
-0.00052092731 0.065469749 0.20200001 1.1341147e-38
0.050990429 -0.01283839 0.20300001 1.3694656e-38
0.049030066 -0.0069573075 0.20300001 1.0198064e-38
0.012436659 0.044992253 0.20300001 1.0419917e-38
0.013416839 0.044992253 0.20300001 1.0973809e-38
0.012436659 0.045645706 0.20300001 1.014333e-38
0.013351494 0.045580361 0.20300002 1.1249676e-38
0.01439702 0.045645706 0.20300001 1.1065645e-38
0.013090113 0.04629916 0.20300001 1.1157482e-38
-0.0012858687 0.064269133 0.20300001 1.1341147e-38
-0.0012858687 0.065576032 0.20300001 1.1341147e-38
0.05156995 -0.012901633 0.20400001 1.2867416e-38
0.049599931 -0.0076482524 0.20400001 1.0198064e-38
0.012169586 0.045870561 0.20400001 1.014333e-38
0.011430829 0.046527233 0.20400001 9.590156e-39
0.012388478 0.046636675 0.20400001 1.014333e-38
0.0136471 0.04660932 0.20400001 1.1710653e-38
0.014139605 0.046363063 0.20400001 1.1709574e-38
0.011512914 0.047512244 0.20400001 9.8674617e-39
0.012563591 0.04764358 0.20400003 1.1341872e-38
0.013154595 0.047512244 0.20400001 1.1802848e-38
0.011512914 0.048168916 0.20400001 1.0881614e-38
0.012169586 0.048168916 0.20400001 1.1709574e-38
0.042254314 -0.014614605 0.20500001 1.341663e-38
0.041924369 -0.013789741 0.20500001 1.2679428e-38
0.042584259 -0.013624768 0.20500003 1.3324436e-38
0.04324415 -0.013294822 0.20500001 1.4244237e-38
0.051822741 -0.013294822 0.20500001 1.342059e-38
0.05215269 -0.013294822 0.20500001 1.2867416e-38
0.042694241 -0.012744914 0.205 1.32326e-38
0.05215269 -0.012964876 0.20500001 1.2498634e-38
0.04951312 -0.0080156894 0.20500001 1.0197343e-38
0.010579512 0.047415201 0.20500001 1.0051134e-38
0.011239404 0.047415201 0.20500001 9.5908748e-39
0.01156935 0.048075095 0.205 1.032844e-38
0.049754649 -0.016343672 0.20600002 1.3966927e-38
0.050086204 -0.016675228 0.20600002 1.4152397e-38
0.04262621 -0.015017451 0.20600002 1.4061639e-38
0.05174398 -0.015017451 0.20600002 1.4340748e-38
0.052572869 -0.015017451 0.20600002 1.2409672e-38
0.042460434 -0.014685896 0.20600002 1.3600661e-38
0.043455098 -0.014022785 0.20600002 1.4337867e-38
0.05174398 -0.014354341 0.20600002 1.4155638e-38
0.052517612 -0.014243823 0.20600002 1.3052886e-38
0.053070202 -0.014685896 0.20600002 1.1857217e-38
0.042128876 -0.013193898 0.20600002 1.2587234e-38
0.043620877 -0.013276787 0.20600002 1.3783616e-38
0.05174398 -0.01369123 0.20600002 1.4247474e-38
0.05265576 -0.013442565 0.20600002 1.2499357e-38
0.053070202 -0.013525452 0.20600002 1.2130574e-38
0.042294651 -0.012199231 0.20600002 1.2864178e-38
0.043455098 -0.012365009 0.20600002 1.3047128e-38
0.052738648 -0.012365009 0.20600002 1.1854706e-38
0.043786652 -0.010707232 0.20600002 1.2128053e-38
0.044118207 -0.010541455 0.20600002 1.2218451e-38
0.055722646 -0.0077232351 0.20600002 1.0384621e-38
0.047447916 -0.018287811 0.208 1.4707363e-38
0.048613273 -0.018216221 0.20750001 1.396764e-38
0.049448594 -0.018299915 0.20750001 1.3783969e-38
0.050495923 -0.018088834 0.20700002 1.4892113e-38
0.047671098 -0.017618261 0.208 1.4522977e-38
0.048613142 -0.017464319 0.20750003 1.3875809e-38
0.049496427 -0.017422505 0.20700002 1.3783973e-38
0.050595872 -0.017489139 0.20700002 1.4431142e-38
0.048721485 -0.016693123 0.20725001 1.3875093e-38
0.049440902 -0.01664512 0.20700002 1.3874731e-38
0.041198798 -0.0158328 0.208 1.2864895e-38
0.043695617 -0.015250542 0.20766668 1.3508109e-38
0.051576801 -0.015163251 0.208 1.3415555e-38
0.041578066 -0.014359421 0.20766668 1.3510265e-38
0.043777097 -0.014535077 0.20700002 1.3969445e-38
0.051662002 -0.014757186 0.20700002 1.3418792e-38
0.053725794 -0.014441845 0.20725001 1.2498995e-38
0.041583765 -0.013507819 0.20700002 1.3602103e-38
0.04399921 -0.013757693 0.20700002 1.3600302e-38
0.044606842 -0.013289969 0.20750001 1.3230083e-38
0.053660985 -0.013757693 0.20700002 1.2590832e-38
0.041667055 -0.012258451 0.20700002 1.3324799e-38
0.043736357 -0.012222394 0.20733334 1.2863456e-38
0.053327821 -0.012091869 0.20700002 1.2131293e-38
0.041667055 -0.011758704 0.20700002 1.3140407e-38
0.042416677 -0.011425538 0.20700002 1.24032e-38
0.043876991 -0.011145961 0.208 1.2034779e-38
0.052661493 -0.011425539 0.20700002 1.1761429e-38
0.053494405 -0.011425538 0.20700002 1.194834e-38
0.042768806 -0.010785198 0.20750001 1.2127334e-38
0.043618381 -0.010412222 0.20783333 1.1667435e-38
0.044211768 -0.010141638 0.208 1.1851466e-38
0.052661493 -0.010759209 0.20700002 1.1669596e-38
0.053438876 -0.010648154 0.20700002 1.2039097e-38
0.043876991 -0.0094720889 0.208 1.1667075e-38
0.053327821 -0.0080938917 0.20700002 9.9236398e-39
0.043542217 -0.0077982182 0.208 1.1115699e-38
0.049233381 -0.0071286694 0.208 1.0566128e-38
0.053660985 -0.0074275616 0.20700002 9.7406849e-39
0.039524928 -0.0051200241 0.208 1.2499354e-38
0.040194474 -0.0051200241 0.208 1.194618e-38
0.039524928 -0.0046178629 0.208 1.2774142e-38
0.040194474 -0.0046178629 0.208 1.2681587e-38
0.042691838 -0.0012125574 0.20766668 1.1672826e-38
0.043270163 -0.0014340519 0.20750001 1.1306201e-38
0.042768806 -0.0004321434 0.20750001 1.1122169e-38
0.047115389 -0.018263606 0.20900001 1.535453e-38
0.050311036 -0.018599989 0.20900001 1.4612293e-38
0.047283582 -0.017590839 0.20900001 1.5540006e-38
0.048797309 -0.016581686 0.20900001 1.4059122e-38
0.041060481 -0.015908919 0.20900001 1.3414832e-38
0.042406019 -0.015236151 0.20900001 1.3695735e-38
0.043415166 -0.015572536 0.20900001 1.3970162e-38
0.044424322 -0.015236151 0.20900001 1.4153839e-38
0.040724099 -0.014227001 0.20900001 1.3969804e-38
0.041228674 -0.013722425 0.20900001 1.4062359e-38
0.044760704 -0.013890617 0.20900001 1.3414476e-38
0.044592515 -0.012376891 0.20900001 1.2863097e-38
0.04173325 -0.011199548 0.20900001 1.2588308e-38
0.043751553 -0.011199548 0.20900001 1.1942583e-38
0.044760704 -0.010190397 0.20900001 1.1942583e-38
0.043751553 -0.0093494374 0.20900001 1.1390848e-38
0.044256128 -0.0093494374 0.20900001 1.1574879e-38
0.044087935 -0.0088448618 0.20900001 1.1390488e-38
0.049470078 -0.0081720939 0.20900001 1.047393e-38
0.042742401 -0.0078357104 0.20900001 1.2038011e-38
0.043347888 -0.0074320496 0.20900002 1.1668873e-38
0.044200063 -0.007275071 0.20900001 1.1022785e-38
0.049470078 -0.0078357104 0.20900001 1.047393e-38
0.043751553 -0.0064901747 0.20900001 1.1299374e-38
0.044200063 -0.0063780472 0.20900001 1.1389769e-38
0.039714947 -0.0058174073 0.20900001 1.1854703e-38
0.04049984 -0.0055931513 0.20900001 1.1577398e-38
0.041172609 -0.0053688958 0.20900001 1.2036216e-38
0.039714947 -0.0041354885 0.20900001 1.2865618e-38
0.04049984 -0.004471872 0.20900001 1.2772698e-38
0.041060481 -0.0048082559 0.20900001 1.2496113e-38
0.04005133 -0.0034627211 0.20900001 1.2865971e-38
0.042490117 -0.0015285144 0.20900001 1.2131645e-38
0.042406019 -0.00043526728 0.20900001 1.1948334e-38
0.046664838 -0.018181995 0.21000001 1.4431495e-38
0.04700283 -0.018688984 0.21000001 1.5077225e-38
0.04649584 -0.017337011 0.21000001 1.4245669e-38
0.04700283 -0.017337011 0.21000001 1.4524414e-38
0.048354805 -0.016661026 0.21000001 1.4430426e-38
0.040749952 -0.01581604 0.21000001 1.3507026e-38
0.041932929 -0.015309052 0.21000001 1.341735e-38
0.042608917 -0.015647044 0.21000001 1.4064156e-38
0.040242963 -0.014295072 0.21000001 1.4245672e-38
0.041594937 -0.014971059 0.21000001 1.3325873e-38
0.044974871 -0.014633065 0.21000001 1.3601383e-38
0.051396742 -0.014971059 0.21000001 1.3232239e-38
0.040580958 -0.013844416 0.20999999 1.3877968e-38
0.041594937 -0.013281093 0.21000001 1.3786852e-38
0.045312863 -0.013957079 0.21000001 1.3414476e-38
0.044974871 -0.012267114 0.21000001 1.2863456e-38
0.045312863 -0.012605106 0.21000001 1.3047128e-38
0.043960892 -0.011929121 0.21000001 1.2495394e-38
0.044636875 -0.011929121 0.21000001 1.277126e-38
0.042608917 -0.010746144 0.21000001 1.2219887e-38
0.044805873 -0.0093941707 0.21000001 1.1574519e-38
0.043960892 -0.0082111945 0.21000001 1.1207176e-38
0.042946909 -0.0073662121 0.21000001 1.2407516e-38
0.044636875 -0.0075352085 0.21000001 1.1022785e-38
0.040749952 -0.006183235 0.21000001 1.1393366e-38
0.042270925 -0.0065212282 0.21000001 1.2961051e-38
0.043453902 -0.0063522318 0.21000001 1.1760708e-38
0.044636875 -0.006183235 0.21000001 1.1390488e-38
0.041594937 -0.0058452417 0.21000001 1.2035858e-38
0.043960892 -0.0058452417 0.21000001 1.1299372e-38
0.044636875 -0.0058452417 0.21000001 1.1390488e-38
0.040749952 -0.0041552754 0.21000001 1.2864535e-38
0.041594937 -0.0046622651 0.21000001 1.2862733e-38
0.040580958 -0.0034792891 0.21000001 1.2773776e-38
0.041932929 -0.0014513297 0.20999999 1.1671385e-38
0.043284904 -0.0017893228 0.21000001 1.1947252e-38
0.041932929 -0.00043734993 0.21000001 1.1580628e-38
0.04586824 -0.018098773 0.21100001 1.4708086e-38
0.046547446 -0.018268574 0.21100001 1.4431495e-38
0.04824546 -0.017079966 0.21100001 1.6003144e-38
0.043660823 -0.016061157 0.21100001 1.4431859e-38
0.044340029 -0.016061157 0.21100001 1.3508108e-38
0.0407742 -0.01504235 0.21100001 1.4152397e-38
0.041283604 -0.015381952 0.21100001 1.3415191e-38
0.042132612 -0.015721556 0.21100001 1.3325154e-38
0.045358837 -0.01521215 0.21100001 1.3695733e-38
0.04575504 -0.014249943 0.21100001 1.3415912e-38
0.039755393 -0.013683938 0.21100001 1.2955652e-38
0.040604398 -0.013683938 0.21100001 1.3509546e-38
0.041113801 -0.013344336 0.21100001 1.3233678e-38
0.04586824 -0.013514137 0.21100001 1.3048928e-38
0.046547446 -0.013514137 0.21100001 1.3695375e-38
0.041453406 -0.01249533 0.21100001 1.2956012e-38
0.04575504 -0.012438729 0.21100001 1.2865254e-38
0.041453406 -0.011985926 0.21100001 1.277126e-38
0.045189038 -0.011985926 0.21100001 1.277126e-38
0.042302415 -0.010797316 0.21100001 1.2219887e-38
0.043491021 -0.010287912 0.21100001 1.2220249e-38
0.043491021 -0.0094389059 0.21100001 1.2035858e-38
0.045358837 -0.0094389059 0.21100001 1.1482324e-38
0.0407742 -0.0082502961 0.21100001 1.1669593e-38
