# .PCD v0.7 - Point Cloud Data file format
VERSION 0.7
FIELDS x y z rgb
SIZE 4 4 4 4
TYPE F F F F
COUNT 1 1 1 1
WIDTH 987
HEIGHT 1
VIEWPOINT 0 0 0 1 0 0 0
POINTS 987
DATA ascii
0.011907965 0.046086144 0.21100001 1.0512465e-38
0.012756971 0.046425745 0.21100001 1.0604661e-38
0.013436179 0.046425745 0.21100001 1.0512465e-38
0.014624787 0.046425745 0.211 9.7741829e-39
0.015643597 0.046086144 0.21100001 1.0695778e-38
0.011794765 0.047670957 0.21100001 1.0880169e-38
0.012756972 0.047614355 0.21100001 1.0328074e-38
0.013436178 0.047614351 0.21100001 1.0235879e-38
0.014285184 0.047444552 0.21100001 8.9447838e-39
0.011636283 0.048531283 0.21100001 1.0512105e-38
0.012756973 0.048463359 0.21100001 1.0328074e-38
0.013436178 0.048463363 0.21100001 1.0328074e-38
0.014285184 0.048802964 0.21100001 9.2220895e-39
0.010549555 0.049651973 0.21100001 9.9592916e-39
0.011568362 0.04948217 0.211 1.0512105e-38
0.012756973 0.04948217 0.21100001 1.0696857e-38
0.013436179 0.049482167 0.21100001 1.0235879e-38
0.014421026 0.049414251 0.21100001 9.9600105e-39
0.010436353 0.050727379 0.21100001 1.0142601e-38
0.011568363 0.050670784 0.21100001 1.0695418e-38
0.012756973 0.050670777 0.21100001 1.0603582e-38
0.013379578 0.050614178 0.21100001 1.0235879e-38
0.014285184 0.050500978 0.21100001 9.9592916e-39
0.010379753 0.051519789 0.21100001 1.0050407e-38
0.011568363 0.051519793 0.21100001 1.087981e-38
0.012756973 0.051519789 0.21100001 1.0511747e-38
0.013266376 0.051519789 0.21100001 1.0235879e-38
0.010379753 0.052198991 0.21100001 1.0234797e-38
0.011616877 0.052441563 0.211 1.1156753e-38
0.012756971 0.052538592 0.21100001 1.0327355e-38
0.013266376 0.052538592 0.21100001 9.867096e-39
0.012813573 0.0536706 0.21100001 1.0142961e-38
0.013379578 0.0537838 0.21100001 1.1250749e-38
0.012926774 0.054236606 0.21100001 1.0420267e-38
0.013436178 0.054406408 0.21100001 1.0696854e-38
0.014285184 0.054576207 0.21100001 1.0235876e-38
0.013605979 0.055255413 0.21100001 9.6827019e-39
0.014624787 0.055538416 0.21100001 9.6834208e-39
0.015643597 0.055934619 0.21100001 9.6834208e-39
0.015643597 0.056613825 0.21100001 9.5912252e-39
0.060416546 -0.0055596982 0.21200001 1.1341856e-38
0.054274723 -0.0041948496 0.21200001 1.2447844e-38
0.059734121 -0.0048772739 0.21200001 1.0973792e-38
0.060075331 -0.0047066677 0.21200001 1.0973792e-38
0.053819776 -0.00328495 0.21200001 1.1803201e-38
0.054615937 -0.0033418189 0.21200001 1.1526613e-38
0.055639576 -0.0031712127 0.21200001 1.1158185e-38
0.056663211 -0.0031712127 0.21200001 1.1065988e-38
0.057004422 -0.0031712127 0.21200001 1.0973792e-38
0.05279614 -0.0023750509 0.21200001 1.1618813e-38
0.053762905 -0.0024887882 0.21200001 1.1434422e-38
0.054615937 -0.0024887882 0.21200001 1.1065997e-38
0.055639569 -0.0024887882 0.21200001 1.0973797e-38
0.056663211 -0.0028300006 0.21200001 1.0881597e-38
0.057004422 -0.0028300006 0.21200001 1.0789401e-38
0.051658761 -0.0012376771 0.21200001 1.1711006e-38
0.052568663 -0.0014651519 0.21200001 1.143442e-38
0.053762902 -0.0014651519 0.21200001 1.125003e-38
0.054615933 -0.0014651519 0.21200001 1.0973802e-38
0.055412099 -0.0016926266 0.21200001 1.0881965e-38
0.050862599 -0.00010030294 0.21200001 1.1711006e-38
0.051545024 -0.00027090905 0.21200001 1.1711006e-38
0.052568663 -0.00027090902 0.21200001 1.1434779e-38
0.053762905 -0.00027090905 0.21200001 1.0973804e-38
0.054274723 -0.00044151515 0.21200001 1.0881248e-38
0.050862599 0.00058212155 0.21200001 1.1526615e-38
0.05154502 0.00058212155 0.21200001 1.1434419e-38
0.052568659 0.00058212155 0.21200001 1.1250749e-38
0.053592298 0.00024090928 0.21200001 1.1066358e-38
0.050862599 0.0016057582 0.21200001 1.161881e-38
0.051431287 0.0013782834 0.21200001 1.1526615e-38
0.052227449 0.001264546 0.21200001 1.1711006e-38
0.01776501 0.0067239413 0.21200001 1.4935698e-38
0.045403201 0.0065533351 0.21200001 1.1527336e-38
0.047677953 0.0066102035 0.21200001 1.0881964e-38
0.048474111 0.0062121232 0.21200001 1.0973441e-38
0.049429514 0.0064509721 0.21200001 1.0973799e-38
0.045403205 0.0075769718 0.21200001 1.1435141e-38
0.046341535 0.0076622749 0.21200001 1.1711369e-38
0.047564212 0.0075201034 0.21200001 1.1065639e-38
0.04983896 0.0074063656 0.21200001 1.097416e-38
0.037896533 0.0087712146 0.21200001 1.2355299e-38
0.044720776 0.0087712146 0.21200001 1.1157835e-38
0.045403205 0.0084300023 0.21200001 1.1250391e-38
0.046256229 0.0084300023 0.21200001 1.1250032e-38
0.043697141 0.0097948508 0.21200001 1.1803204e-38
0.044584293 0.0095218811 0.21200001 1.1342226e-38
0.045403201 0.0094536385 0.21200001 1.1065639e-38
0.046085626 0.0092830332 0.21200001 1.1156756e-38
0.041820474 0.010818488 0.21200001 1.1250393e-38
0.042673506 0.010647882 0.21200001 1.1158198e-38
0.043355927 0.010647882 0.21200001 1.1250392e-38
0.044550169 0.010647882 0.21200001 1.1434783e-38
0.045061991 0.010477276 0.21200001 1.1434422e-38
0.040967442 0.011842124 0.21200001 1.0512828e-38
0.041649867 0.011500913 0.21200001 1.0881611e-38
0.042673506 0.011500912 0.21200001 1.1526261e-38
0.043355927 0.011500913 0.21200001 1.1434066e-38
0.044379566 0.0111597 0.21200001 1.1618457e-38
0.032778349 0.012865761 0.21200001 1.2724082e-38
0.040626228 0.012524549 0.21200001 1.0144766e-38
0.041607216 0.012481896 0.21200001 1.0788698e-38
0.042673506 0.012353943 0.21200001 1.1618457e-38
0.043128457 0.012297074 0.21200001 1.1618457e-38
0.032505378 0.013752913 0.21200001 1.2632605e-38
0.033631377 0.013718793 0.21200001 1.2540409e-38
0.034484409 0.013718792 0.21200001 1.2448214e-38
0.035166834 0.013718792 0.21200001 1.2448214e-38
0.039943807 0.013718792 0.21200001 9.4050389e-39
0.040512491 0.013661924 0.21200001 9.9589329e-39
0.030731075 0.014913036 0.21200001 1.2724805e-38
0.031527236 0.014685561 0.21200001 1.2448576e-38
0.032437135 0.014571823 0.21200001 1.2540771e-38
0.033631377 0.014571823 0.21200001 1.2448574e-38
0.034370672 0.014458085 0.21200001 1.2356378e-38
0.039716329 0.014458085 0.21200001 9.9592944e-39
0.018106222 0.015595459 0.21200001 1.3369451e-38
0.029479966 0.015709197 0.21200001 1.2632609e-38
0.030560469 0.015595458 0.21200001 1.2724805e-38
0.031413499 0.015595459 0.21200001 1.2540413e-38
0.032437135 0.015595459 0.21200001 1.2540413e-38
0.033631381 0.015595459 0.21200001 1.2448218e-38
0.034143198 0.015595459 0.21200001 1.2448218e-38
0.038493656 0.015424853 0.21200001 1.1249312e-38
0.039602593 0.015254248 0.21200001 1.0789052e-38
0.028456325 0.016846569 0.21200001 1.2448218e-38
0.029366225 0.016789701 0.21200001 1.2356022e-38
0.030560467 0.016789701 0.21200001 1.2632609e-38
0.031413499 0.016789701 0.21200001 1.2448578e-38
0.032437135 0.016789701 0.21200001 1.2448937e-38
0.03357451 0.016732832 0.21200001 1.2448576e-38
0.027546426 0.01775647 0.21200001 1.2356022e-38
0.02834259 0.017642733 0.21200001 1.2448218e-38
0.029366225 0.017642735 0.21200001 1.2171631e-38
0.030560467 0.017642733 0.21200001 1.2540412e-38
0.031413499 0.017642733 0.21200001 1.2080154e-38
0.032368891 0.017574489 0.21200001 1.2264545e-38
0.026636528 0.01866637 0.21200001 1.2263826e-38
0.027489558 0.018495765 0.21200001 1.2263826e-38
0.02834259 0.018495765 0.21200001 1.2448218e-38
0.029366225 0.018495763 0.21200001 1.2263825e-38
0.030560467 0.018495765 0.21200001 1.1988314e-38
0.031413499 0.018495765 0.21200001 1.1803567e-38
0.032095924 0.018325157 0.21200001 1.2080154e-38
0.0078698536 0.019690007 0.21200001 1.3277255e-38
0.025954105 0.019690007 0.21200001 1.2263826e-38
0.026465923 0.019348795 0.21200001 1.2356022e-38
0.027489558 0.019348795 0.21200001 1.2356022e-38
0.02834259 0.019348795 0.21200001 1.2356022e-38
0.029366225 0.019348795 0.21200001 1.2356022e-38
0.030560467 0.019348795 0.21200001 1.1987958e-38
0.0075286417 0.020201825 0.21200001 1.3092864e-38
0.024816731 0.020258693 0.21200001 1.2171631e-38
0.025783498 0.020201826 0.21200001 1.2079435e-38
0.026465923 0.020201826 0.21200001 1.2356022e-38
0.02748956 0.020201825 0.21200001 1.2356022e-38
0.028342588 0.020201826 0.21200001 1.2171631e-38
0.029366225 0.020201826 0.21200001 1.2263826e-38
0.030389862 0.020031219 0.21200001 1.2263826e-38
0.021586586 0.021600794 0.21200001 1.2356022e-38
0.022712588 0.021566674 0.21200001 1.2171631e-38
0.02356562 0.021396069 0.21200001 1.2171631e-38
0.024589255 0.021396067 0.21200001 1.2263826e-38
0.0257835 0.021396065 0.21200001 1.2263826e-38
0.026465923 0.021396065 0.21200001 1.2724805e-38
0.027489558 0.021396069 0.21200001 1.2171631e-38
0.02834259 0.021396065 0.21200001 1.1895044e-38
0.029138749 0.021168591 0.21200001 1.1802848e-38
0.020835921 0.022419704 0.21200001 1.2079435e-38
0.021518342 0.022419704 0.21200001 1.2079435e-38
0.022712588 0.022419704 0.21200001 1.198724e-38
0.023565618 0.022419702 0.21200001 1.198724e-38
0.024589255 0.022419704 0.21200001 1.2079435e-38
0.025783498 0.022419704 0.21200001 1.198724e-38
0.026465923 0.022419704 0.21200001 1.1802848e-38
0.027432689 0.022305965 0.21200001 1.1986879e-38
0.028001377 0.022078492 0.21200001 1.1895044e-38
0.020835921 0.023443341 0.21200001 1.1987958e-38
0.021518344 0.023492087 0.21200001 1.1987958e-38
0.022712588 0.023443341 0.21200001 1.2080154e-38
0.023565618 0.023443341 0.21200001 1.1803567e-38
0.024589255 0.023443339 0.21200001 1.1803567e-38
0.0257835 0.023443341 0.21200001 1.1619176e-38
0.026431803 0.023375098 0.21200001 1.1156761e-38
0.020835921 0.024637584 0.21200001 1.208051e-38
0.021518344 0.024637586 0.21200001 1.2080153e-38
0.022712588 0.024637586 0.21200001 1.1711372e-38
0.023565618 0.024637586 0.21200001 1.152698e-38
0.024589255 0.024637586 0.21200001 1.152698e-38
0.025783498 0.024637584 0.21200001 1.152698e-38
0.026295317 0.024466978 0.21200001 1.1434785e-38
0.020608446 0.025604352 0.21200001 1.2171987e-38
0.021518344 0.025490612 0.21200001 1.2080151e-38
0.022712588 0.025490614 0.21200001 1.152698e-38
0.023565618 0.025490614 0.21200001 1.1434785e-38
0.024589255 0.025490614 0.21200001 1.1434785e-38
0.025726629 0.025376877 0.21200001 1.1250393e-38
0.01861804 0.026855461 0.21200001 1.1802848e-38
0.019675801 0.026582491 0.21200001 1.1894684e-38
0.020494709 0.026514249 0.21200001 1.1618098e-38
0.021518344 0.026514251 0.21200001 1.1894685e-38
0.022712588 0.026514249 0.21200001 1.1619175e-38
0.02356562 0.026514253 0.21200001 1.1250035e-38
0.024589254 0.026514253 0.21200001 1.1250393e-38
0.025612893 0.026514249 0.21200001 1.1158198e-38
0.01861804 0.027708493 0.21200001 1.1526622e-38
0.019641679 0.027708493 0.21200001 1.1434785e-38
0.020494709 0.027708491 0.21200001 1.152698e-38
0.02143304 0.027623188 0.21200001 1.1618817e-38
0.022712588 0.027708493 0.21200001 1.134187e-38
0.023565618 0.027708493 0.21200001 1.1065642e-38
0.024521012 0.027674371 0.21200001 1.1066002e-38
0.01776501 0.028902736 0.21200001 1.1618457e-38
0.018447435 0.028561525 0.21200001 1.1434426e-38
0.019641679 0.028561525 0.21200001 1.1434785e-38
0.020494709 0.028561525 0.21200001 1.152698e-38
0.021177132 0.028561523 0.21200001 1.152698e-38
0.022769457 0.028447786 0.21200001 1.1066002e-38
0.02345188 0.028447786 0.21200001 1.0973806e-38
0.024248043 0.028220311 0.21200001 1.1158198e-38
0.017492039 0.0296534 0.21200001 1.1434066e-38
0.018447436 0.02958516 0.21200001 1.1526261e-38
0.019641677 0.029585158 0.21200001 1.1526261e-38
0.020426467 0.029516917 0.21200001 1.152698e-38
0.021177132 0.029243948 0.21200001 1.1434785e-38
0.017423797 0.030779401 0.21200001 1.1526261e-38
0.018447435 0.030779401 0.21200001 1.1526261e-38
0.019641679 0.030779401 0.21200001 1.1157479e-38
0.020153496 0.030608796 0.21200001 1.1157479e-38
0.024418648 0.030950008 0.21200001 1.0789415e-38
0.016627634 0.031746168 0.21200001 1.134187e-38
0.017423797 0.031632431 0.21200001 1.134187e-38
0.018447435 0.031632431 0.21200001 1.134187e-38
0.019471072 0.03129122 0.21200001 1.1157479e-38
0.023906831 0.03129122 0.21200001 1.0973809e-38
0.024248043 0.031632431 0.21200001 1.0327721e-38
0.015717736 0.03265607 0.21200001 1.1618457e-38
0.016570766 0.03265607 0.21200001 1.1065283e-38
0.017423797 0.03265607 0.21200001 1.097309e-38
0.018242707 0.032587826 0.21200001 1.097309e-38
0.023906831 0.032314856 0.21200001 1.0144049e-38
0.01554713 0.033679705 0.21200001 1.1618457e-38
0.016570766 0.033679705 0.21200001 1.134187e-38
0.017423797 0.033679705 0.21200001 1.0973089e-38
0.015376524 0.03419153 0.21200001 1.1526261e-38
0.016570766 0.034191526 0.21200001 1.1157479e-38
0.017423797 0.034191523 0.21200001 1.0973089e-38
0.013556725 0.035613243 0.21200001 1.1434066e-38
0.01442113 0.035454012 0.21200001 1.1434066e-38
0.015376523 0.035385769 0.21200001 1.1434066e-38
0.016570766 0.035385769 0.21200001 1.1526261e-38
0.017355556 0.035317525 0.21200001 1.1434066e-38
0.012646826 0.0364094 0.21200001 1.0972727e-38
0.013499857 0.0364094 0.21200001 1.1249314e-38
0.014352887 0.0364094 0.21200001 1.1157479e-38
0.01530828 0.036341157 0.21200001 1.1249675e-38
0.01640016 0.03606819 0.21200001 1.1434066e-38
0.012533088 0.037319303 0.21200001 1.1157479e-38
0.013499857 0.037262432 0.21200001 1.1434066e-38
0.014352887 0.037262432 0.21200001 1.1065283e-38
0.015149049 0.037319303 0.21200001 1.1157479e-38
0.010667794 0.038593162 0.21200001 1.1526261e-38
0.011793796 0.038456675 0.21200001 1.1526261e-38
0.01247622 0.038456678 0.21200001 1.1802848e-38
0.013499856 0.038456678 0.21200001 1.134187e-38
0.014352887 0.038456678 0.21200001 1.0604305e-38
0.015333872 0.038499329 0.21200001 1.0696501e-38
0.010770158 0.039480314 0.21200001 1.1526261e-38
0.011793795 0.039480314 0.21200001 1.1802848e-38
0.012476219 0.039480317 0.21200001 1.1802848e-38
0.013499857 0.039480314 0.21200001 1.1065283e-38
0.014352887 0.039480314 0.21200001 1.051247e-38
0.015149049 0.039366577 0.21200001 1.0973088e-38
0.010770158 0.040503949 0.21200001 1.1249675e-38
0.011793795 0.040503949 0.21200001 1.134151e-38
0.012476218 0.040503953 0.21200001 1.115712e-38
0.013499856 0.040503949 0.21200001 1.0881611e-38
0.014182281 0.040418647 0.21200001 1.0605024e-38
0.010599551 0.041698199 0.21200001 1.0696501e-38
0.011793796 0.041698195 0.21200001 1.0603226e-38
0.012476219 0.041698195 0.21200001 1.115604e-38
0.013499857 0.041698191 0.21200001 1.1157477e-38
0.014011675 0.041527588 0.21200001 1.0788696e-38
0.010599551 0.042551223 0.21200001 1.0419914e-38
0.011793795 0.042551227 0.21200001 1.1434425e-38
0.01247622 0.042551227 0.21200001 1.2079072e-38
0.013329251 0.042551227 0.21200001 1.1617734e-38
0.0078698536 0.043916073 0.21200001 1.1526617e-38
0.008779753 0.043802336 0.21200001 1.1157835e-38
0.0094621778 0.043461125 0.21200001 1.1157835e-38
0.010648296 0.043477375 0.21200001 1.0604661e-38
0.011793796 0.043574858 0.21200001 1.2540049e-38
0.012476218 0.043574866 0.21200001 1.1986874e-38
0.008779753 0.044712234 0.21200001 1.0880888e-38
0.0093484409 0.044825971 0.21200001 1.0880529e-38
0.010372077 0.044825971 0.21200001 1.0880888e-38
0.0088934908 0.045622133 0.21200001 1.0880169e-38
0.0094053093 0.045622133 0.21200001 1.0880169e-38
0.010599551 0.045622136 0.21200001 1.0696138e-38
0.011623189 0.045963347 0.21200001 1.042027e-38
0.0088934908 0.046645772 0.21200001 1.1987235e-38
0.0094053093 0.046645772 0.21200001 1.2171266e-38
0.010599553 0.046645768 0.21200001 1.124931e-38
0.011759674 0.046714015 0.21200001 1.042027e-38
0.0088934908 0.047669407 0.21200001 1.1341147e-38
0.0094053093 0.047669407 0.21200001 1.1341144e-38
0.010599553 0.047669407 0.21200001 1.1709927e-38
0.011623189 0.047669407 0.21200001 1.1064557e-38
0.0088934908 0.048181228 0.21200001 1.0881248e-38
0.0094053093 0.048181225 0.21200001 1.0973442e-38
0.010599551 0.048181225 0.21200001 1.1065278e-38
0.0088934908 0.049034256 0.21200001 1.042027e-38
0.0094053093 0.049034256 0.21200001 1.042027e-38
0.010394825 0.049307223 0.21200001 1.0512465e-38
0.0088934908 0.050740317 0.21200001 1.0511384e-38
0.0094621778 0.050512839 0.21200001 1.0603939e-38
0.01025834 0.050399102 0.21200001 1.041955e-38
0.0088934908 0.051252134 0.21200001 1.0511384e-38
0.0094053093 0.051252138 0.21200001 1.0603579e-38
0.0088934908 0.052105166 0.21200001 1.0603579e-38
0.0094053093 0.052275773 0.21200001 1.0603579e-38
0.013670462 0.0558585 0.21200001 9.6827019e-39
0.013670462 0.056199715 0.21200001 9.6827019e-39
0.014352887 0.056540925 0.21200001 9.4068339e-39
0.015035312 0.056882136 0.21200001 9.4068339e-39
0.046988655 -0.0062715667 0.21300001 1.2817353e-38
0.047331478 -0.006442978 0.21300001 1.2632243e-38
0.048359942 -0.0064429776 0.21300001 1.1709927e-38
0.049559817 -0.006442978 0.21300001 1.272408e-38
0.050245464 -0.0062715667 0.21300001 1.2816273e-38
0.051445335 -0.0062715667 0.21300001 1.263188e-38
0.052473806 -0.0062715667 0.21300001 1.2539682e-38
0.053159446 -0.0062715667 0.21300001 1.1985426e-38
0.046988655 -0.0055859233 0.21300001 1.2725161e-38
0.047331478 -0.0055859233 0.21300001 1.2632965e-38
0.048359945 -0.0055859233 0.21300001 1.2171266e-38
0.049559817 -0.0055859233 0.21300001 1.3370527e-38
0.050245464 -0.0055859233 0.21300001 1.3001383e-38
0.051445335 -0.0055859233 0.21300001 1.263188e-38
0.052473806 -0.0055859233 0.21300001 1.2170542e-38
0.053330854 -0.0055859233 0.21300001 1.1893236e-38
0.046988655 -0.0045574582 0.21300001 1.2725159e-38
0.047331478 -0.0045574582 0.21300001 1.2817353e-38
0.048359945 -0.0045574587 0.21300003 1.2448572e-38
0.049559817 -0.0045574582 0.21300001 1.2540408e-38
0.050245464 -0.0045574582 0.21300001 1.2448211e-38
0.051445335 -0.0045574587 0.21300003 1.2356015e-38
0.052473802 -0.0045574582 0.21300001 1.1986872e-38
0.053330854 -0.0045574582 0.21300001 1.2446772e-38
0.05427362 -0.0045574582 0.21300001 1.2999941e-38
0.046988655 -0.0033575823 0.21300001 1.2908469e-38
0.047331478 -0.0033575823 0.21300001 1.2631882e-38
0.048359945 -0.0033575825 0.21300001 1.2540766e-38
0.049559817 -0.0033575823 0.21300001 1.2171984e-38
0.050245464 -0.0033575823 0.21300001 1.2356375e-38
0.051445335 -0.0033575825 0.21300001 1.1986874e-38
0.052473806 -0.0033575825 0.21300001 1.1895397e-38
0.053273719 -0.0034147191 0.21300001 1.2079788e-38
0.046988655 -0.0025005282 0.21300001 1.2816272e-38
0.047331478 -0.0025005282 0.21300001 1.2724076e-38
0.048359942 -0.0025005282 0.21300001 1.2632602e-38
0.049559817 -0.0025005282 0.21300001 1.1987593e-38
0.050245464 -0.0025005282 0.21300001 1.2171985e-38
0.051445339 -0.0025005282 0.21300001 1.1803204e-38
0.052359533 -0.002614802 0.21300001 1.1618813e-38
0.047331478 -0.0018148847 0.21300001 1.2724076e-38
0.048402797 -0.0015149156 0.21300003 1.2355655e-38
0.049559817 -0.0014720629 0.21300001 1.1711006e-38
0.050245464 -0.001472063 0.21300001 1.1803201e-38
0.051331062 -0.0015863368 0.21300001 1.1711007e-38
0.048702765 -0.00044359776 0.21300001 1.2447489e-38
0.049616951 -0.00032932384 0.21300001 1.2078707e-38
0.050245464 -0.00027218691 0.21300001 1.1894677e-38
0.051102515 -0.00044359776 0.21300001 1.1711006e-38
0.050302599 0.00047059346 0.21300001 1.2079427e-38
0.050416872 0.0012705108 0.21300001 1.1894315e-38
0.051102515 0.0012705108 0.21300001 1.1250028e-38
0.045445956 0.0033274412 0.21300001 1.1894319e-38
0.046474423 0.0033274412 0.21300001 1.1709927e-38
0.042531971 0.0046987282 0.21300001 1.1711009e-38
0.043629002 0.0045615993 0.21300001 1.1711009e-38
0.044520337 0.0042873421 0.21300001 1.1711009e-38
0.045445956 0.0041844957 0.21300001 1.1618812e-38
0.046645835 0.0043559065 0.21300003 1.1250028e-38
0.047331478 0.0043559065 0.21300001 1.1157832e-38
0.040560745 0.0055557825 0.21300001 1.2263464e-38
0.041503504 0.0053843716 0.21300001 1.18954e-38
0.042360559 0.0053843716 0.21300001 1.1711009e-38
0.043560434 0.0053843721 0.21300001 1.1619172e-38
0.044246081 0.0053843716 0.21300001 1.1711367e-38
0.046645835 0.0050415499 0.21300001 1.1250028e-38
0.016591793 0.0065271109 0.21300001 1.4935698e-38
0.017163163 0.006755658 0.21300001 1.4751306e-38
0.038532387 0.0066413842 0.21300001 1.254005e-38
0.039275166 0.0064128363 0.21300001 1.2540409e-38
0.040475041 0.0064128363 0.21300003 1.2079791e-38
0.041503508 0.0064128372 0.21300001 1.1803204e-38
0.042360559 0.0064128363 0.21300001 1.1711009e-38
0.043560438 0.0064128367 0.21300003 1.1619173e-38
0.044588905 0.0064128363 0.21300001 1.1527336e-38
0.017334573 0.0076127122 0.21300001 1.4843501e-38
0.037458211 0.0076469942 0.21300001 1.2724082e-38
0.038418114 0.0076127122 0.21300001 1.2447855e-38
0.039275166 0.0076127122 0.21300001 1.2263824e-38
0.040475044 0.0076127122 0.21300001 1.2264182e-38
0.041503504 0.0076127122 0.21300001 1.2171987e-38
0.042360559 0.0076127122 0.21300001 1.1803204e-38
0.043560434 0.0076127127 0.21300001 1.18954e-38
0.044588901 0.0076127122 0.21300001 1.1619173e-38
0.017505985 0.0081269452 0.21300001 1.4843499e-38
0.03636118 0.0088125886 0.21300001 1.2908473e-38
0.037389647 0.0081269452 0.21300001 1.2539334e-38
0.038532387 0.0083554937 0.21300001 1.2263464e-38
0.039275166 0.0084697669 0.21300001 1.2171987e-38
0.040475041 0.0084697669 0.21300001 1.2264182e-38
0.041503504 0.0084697669 0.21300001 1.2356378e-38
0.042360559 0.0084697669 0.21300001 1.2171987e-38
0.043560434 0.0084697669 0.21300001 1.1987595e-38
0.044474628 0.0083554937 0.21300001 1.1711367e-38
0.03601836 0.0093268212 0.21300001 1.2725161e-38
0.038760934 0.0093268212 0.21300001 1.1987595e-38
0.039309449 0.0094296681 0.21300001 1.18954e-38
0.040475041 0.009498232 0.21300003 1.2079791e-38
0.041503504 0.009498232 0.21300001 1.2171987e-38
0.042360559 0.009498232 0.21300001 1.2171987e-38
0.043517582 0.0094553791 0.21300003 1.18954e-38
0.044246081 0.0091554103 0.21300001 1.2171987e-38
0.040543608 0.010663826 0.21300001 1.1803567e-38
0.041389231 0.010640971 0.21300001 1.152698e-38
0.042189151 0.010526697 0.21300001 1.1711372e-38
0.025219474 0.011897984 0.21300001 1.3738233e-38
0.040817864 0.011212341 0.21300001 1.1711372e-38
0.025390886 0.012240806 0.21300001 1.3922625e-38
0.026419347 0.012681576 0.21300003 1.3647118e-38
0.027104994 0.012583627 0.21300001 1.3922626e-38
0.033618607 0.012755038 0.21300001 1.2816277e-38
0.03457851 0.012789321 0.21300001 1.2631884e-38
0.040132221 0.012755038 0.21300001 1.0882688e-38
0.025390886 0.013954915 0.21300001 1.3001391e-38
0.026419349 0.013783503 0.21300001 1.3185783e-38
0.027447816 0.013783503 0.21300001 1.3554207e-38
0.028133459 0.013954915 0.21300001 1.3646761e-38
0.030533211 0.013954915 0.21300001 1.2817356e-38
0.039446577 0.013954915 0.21300001 1.042027e-38
0.017677397 0.01498338 0.21300001 1.3553842e-38
0.01853445 0.01498338 0.21300001 1.318506e-38
0.024362421 0.01498338 0.21300001 1.3184704e-38
0.025219474 0.014640559 0.21300001 1.3092868e-38
0.026419351 0.014640559 0.21300001 1.2909196e-38
0.027447816 0.014640559 0.21300001 1.2909196e-38
0.028304871 0.014640559 0.21300001 1.2909196e-38
0.029504746 0.014640559 0.21300001 1.2817358e-38
0.030418938 0.014526285 0.21300001 1.2632968e-38
0.031218855 0.014297737 0.21300001 1.2540413e-38
0.038760934 0.01498338 0.21300001 1.1341147e-38
0.039103754 0.01498338 0.21300001 1.0511386e-38
0.016820341 0.015669024 0.21300001 1.3646038e-38
0.017437419 0.015463332 0.21300001 1.3646038e-38
0.01870586 0.015497613 0.21300001 1.3093583e-38
0.019220095 0.015497613 0.21300001 1.3093943e-38
0.022991134 0.015669024 0.21300001 1.2817e-38
0.023562504 0.015554749 0.21300001 1.2817e-38
0.024362421 0.015497614 0.21300001 1.2817e-38
0.025219474 0.015497614 0.21300001 1.2817e-38
0.026419349 0.015497613 0.21300001 1.2817e-38
0.027447816 0.015497614 0.21300001 1.2540413e-38
0.028304871 0.015497614 0.21300001 1.2632609e-38
0.029276198 0.015440476 0.21300001 1.2724805e-38
0.038760934 0.015326202 0.21300001 1.1156756e-38
0.016820341 0.016011845 0.21300001 1.3646038e-38
0.017505985 0.016354667 0.21300001 1.3461647e-38
0.018648723 0.016240394 0.21300001 1.3277258e-38
0.019220095 0.016011845 0.21300001 1.3185783e-38
0.021962669 0.016697489 0.21300001 1.2724805e-38
0.022648312 0.016354667 0.21300001 1.2724805e-38
0.023505365 0.016354667 0.21300001 1.2724805e-38
0.024362421 0.016354667 0.21300001 1.2540413e-38
0.025219474 0.016354667 0.21300001 1.2540413e-38
0.026419349 0.016354667 0.21300001 1.2632609e-38
0.027447816 0.016354667 0.21300001 1.2540413e-38
0.028247735 0.016240394 0.21300001 1.2724805e-38
0.020934204 0.01721172 0.21300001 1.2816281e-38
0.021791259 0.01721172 0.21300001 1.2632609e-38
0.022648312 0.01721172 0.21300001 1.2632609e-38
0.023505367 0.01721172 0.21300001 1.2632609e-38
0.024362421 0.017211722 0.21300001 1.2448218e-38
0.025219474 0.017211722 0.21300001 1.2448218e-38
0.026419349 0.017211722 0.21300001 1.2448218e-38
0.027333543 0.017154584 0.21300001 1.2448218e-38
0.020762792 0.018411597 0.21300001 1.2724805e-38
0.021791259 0.018411597 0.21300001 1.2632609e-38
0.022648312 0.018411599 0.21300001 1.2540413e-38
0.023505365 0.018411597 0.21300001 1.2356381e-38
0.024362421 0.018411597 0.21300001 1.2264185e-38
0.025219472 0.018411597 0.21300001 1.2264185e-38
0.026376497 0.018368743 0.21300003 1.2264187e-38
0.0082497969 0.019782884 0.21300001 1.3277255e-38
0.020659948 0.019508626 0.21300001 1.2448216e-38
0.021791259 0.019440062 0.21300001 1.2448216e-38
0.022648312 0.019440062 0.21300001 1.2263826e-38
0.023505367 0.019440062 0.21300001 1.2263826e-38
0.024362421 0.019440062 0.21300001 1.2171631e-38
0.025219474 0.019440062 0.21300001 1.2263826e-38
0.026076529 0.019097241 0.21300001 1.2356022e-38
0.0079069752 0.020468527 0.21300001 1.318506e-38
0.0082497969 0.020297118 0.21300001 1.318506e-38
0.019905739 0.020468527 0.21300001 1.2448218e-38
0.020591382 0.020297116 0.21300001 1.2263826e-38
0.021791259 0.020297116 0.21300001 1.2448218e-38
0.022648312 0.020297118 0.21300001 1.2263826e-38
0.023505367 0.020297116 0.21300001 1.2171631e-38
0.024248147 0.020239979 0.21300001 1.2171631e-38
0.0077927015 0.021268444 0.21300001 1.3092864e-38
0.0082497969 0.021496993 0.21300001 1.3092864e-38
0.019905739 0.021496991 0.21300001 1.2356022e-38
0.020548528 0.021454139 0.21300003 1.2263826e-38
0.021791257 0.021154171 0.21300001 1.2632609e-38
0.022648312 0.021154171 0.21300001 1.2356022e-38
0.019905739 0.022525458 0.21300001 1.2079793e-38
0.02024856 0.022525458 0.21300001 1.198724e-38
0.017677397 0.023896744 0.21300001 1.0879813e-38
0.018740142 0.023622487 0.21300001 1.1709932e-38
0.019562917 0.023553923 0.21300001 1.2079434e-38
0.02024856 0.023553923 0.21300001 1.2079795e-38
0.017505983 0.0247538 0.21300001 1.1157477e-38
0.01870586 0.0247538 0.21300001 1.2631531e-38
0.019562917 0.024753798 0.21300001 1.3000671e-38
0.02024856 0.024753798 0.21300001 1.2356378e-38
0.016820341 0.025953675 0.21300001 1.1895044e-38
0.017505983 0.025610855 0.21300001 1.2263106e-38
0.01870586 0.025610853 0.21300001 1.3369092e-38
0.019562917 0.025610853 0.21300001 1.31847e-38
0.02024856 0.025268031 0.21300001 1.3092864e-38
0.016820341 0.026639318 0.21300001 1.1895044e-38
0.017505983 0.02663932 0.21300003 1.2079435e-38
0.01870586 0.026467908 0.21300001 1.2171271e-38
0.019220095 0.026296496 0.21300001 1.2447139e-38
0.016820341 0.027667783 0.21300001 1.2449293e-38
0.017505983 0.027667783 0.21300001 1.1988314e-38
0.016591793 0.028239153 0.21300001 1.2356378e-38
0.017437421 0.028147733 0.21300001 1.2079791e-38
0.01647752 0.029381894 0.21300001 1.1802848e-38
0.017163163 0.029210482 0.21300001 1.1618457e-38
0.01553476 0.030581767 0.21300001 1.1618814e-38
0.01647752 0.030410357 0.21300001 1.1618457e-38
0.013392124 0.031438824 0.21300001 1.1618457e-38
0.01424918 0.031267412 0.21300001 1.1710653e-38
0.015449055 0.031267416 0.21300001 1.1710653e-38
0.016363246 0.031210274 0.21300001 1.1526261e-38
0.011335193 0.032810111 0.21300001 1.1895044e-38
0.01240651 0.032510139 0.21300003 1.1618457e-38
0.013392123 0.032467287 0.21300001 1.1434066e-38
0.014249179 0.032467287 0.21300001 1.1618457e-38
0.015351105 0.032418314 0.21300003 1.1710653e-38
0.0099639054 0.033838574 0.21300001 1.1618813e-38
0.010878097 0.033610027 0.21300001 1.1895043e-38
0.011335193 0.033495754 0.21300001 1.1987238e-38
0.012363658 0.033495754 0.21300001 1.171101e-38
0.013392124 0.033495754 0.21300001 1.1618456e-38
0.01424918 0.03349575 0.21300001 1.1526622e-38
0.015220507 0.033381477 0.21300001 1.1434066e-38
0.0099639054 0.034352809 0.21300001 1.1618457e-38
0.010820961 0.034352809 0.21300001 1.1802848e-38
0.011335193 0.034352809 0.21300001 1.2079435e-38
0.012363658 0.034352809 0.21300001 1.1710653e-38
0.013392123 0.034352809 0.21300001 1.152662e-38
0.01424918 0.034352809 0.21300001 1.1434785e-38
0.0089354403 0.035895504 0.21300001 1.1801769e-38
0.0096210837 0.03555268 0.21300003 1.1710653e-38
0.01082096 0.03555268 0.21300001 1.1710653e-38
0.011335193 0.035552684 0.21300001 1.1710653e-38
0.012363657 0.035552684 0.21300003 1.1618457e-38
0.01327785 0.035324138 0.21300001 1.1434066e-38
0.014077768 0.035209861 0.21300001 1.1526261e-38
0.0087068928 0.036695424 0.21300001 1.1709934e-38
0.0096210837 0.036581151 0.21300001 1.1526261e-38
0.010820961 0.036581151 0.21300001 1.1710653e-38
0.011335193 0.036581151 0.21300001 1.1618457e-38
0.012192247 0.036581151 0.21300001 1.1157479e-38
0.0079069752 0.037438203 0.21300001 1.1709574e-38
0.0085926186 0.037438203 0.21300001 1.1801769e-38
0.0096210837 0.037438199 0.21300001 1.1618457e-38
0.010820961 0.037438203 0.21300001 1.1526261e-38
0.011335193 0.037438203 0.21300001 1.1618457e-38
0.012135111 0.037381064 0.21300001 1.1065283e-38
0.0068785101 0.038980901 0.21300001 1.1434422e-38
0.0077355648 0.038638078 0.21300001 1.1433707e-38
0.0085926186 0.038638081 0.21300001 1.1525901e-38
0.0095782308 0.038638081 0.21300003 1.1434066e-38
0.010820961 0.038295258 0.21300001 1.1526261e-38
0.0068785101 0.039323721 0.21300001 1.1434422e-38
0.0077355644 0.039323721 0.21300001 1.1434066e-38
0.0085926186 0.039323721 0.21300001 1.1434066e-38
0.0096210837 0.039323721 0.21300001 1.1434066e-38
0.0068785101 0.040352184 0.21300001 1.1617734e-38
0.0077355648 0.040352192 0.21300001 1.1434064e-38
0.0085926186 0.040352184 0.21300001 1.134187e-38
0.0096210837 0.040352184 0.21300003 1.1434066e-38
0.0067642364 0.041609202 0.21300001 1.170993e-38
0.0077355644 0.041552063 0.21300001 1.1525543e-38
0.0085926186 0.041552063 0.21300001 1.1157479e-38
0.0095525188 0.041517779 0.21300001 1.1157479e-38
0.0066042528 0.04227199 0.21300001 1.170993e-38
0.0077355644 0.042237706 0.21300001 1.1433704e-38
0.0085926186 0.042237706 0.21300001 1.1157479e-38
0.0094496729 0.042237706 0.21300001 1.1157479e-38
0.0048215799 0.043608993 0.21300001 1.1802122e-38
0.0056786342 0.043523289 0.21300001 1.1525537e-38
0.0065356884 0.043437585 0.21300003 1.1341146e-38
0.0077355648 0.043437582 0.21300001 1.1526257e-38
0.0085240547 0.043369018 0.21300001 1.1157835e-38
0.0093925362 0.043209035 0.21300001 1.1157835e-38
0.0048215799 0.044123225 0.21300001 1.1617731e-38
0.0055072233 0.044466045 0.21300001 1.1525537e-38
0.0065356879 0.044466045 0.21300001 1.1341146e-38
0.0076784273 0.044580322 0.21300001 1.1434063e-38
0.0056214971 0.045265969 0.21300001 1.1525538e-38
0.0065356884 0.045323104 0.21300001 1.1248951e-38
0.0077355644 0.0453231 0.21300001 1.106456e-38
0.0082497969 0.045323104 0.21300001 1.0695778e-38
0.006633637 0.046474002 0.21300003 1.0972725e-38
0.0077355639 0.046522979 0.21300001 1.0696138e-38
0.0082497969 0.046522975 0.21300001 1.1248953e-38
0.0068785101 0.047208622 0.21300001 1.0789052e-38
0.0077355644 0.047551442 0.21300001 1.1157835e-38
0.0082497969 0.047551446 0.21300001 1.1618813e-38
0.0077927015 0.048351359 0.21300001 1.0512465e-38
0.0082497969 0.048408497 0.21300001 1.0696857e-38
0.0082497969 0.049265552 0.21300001 1.042027e-38
0.005850045 0.055436343 0.21300001 1.032699e-38
0.045353618 -0.010482943 0.215 1.3553841e-38
0.046161052 -0.010367596 0.21499999 1.3830426e-38
0.045353618 -0.0096178418 0.215 1.290847e-38
0.046204198 -0.0093153678 0.21466666 1.3277253e-38
0.047209259 -0.009056461 0.21400002 1.3277253e-38
0.046520397 -0.007334305 0.21400002 1.3092861e-38
0.046520397 -0.0064732265 0.21400002 1.3093223e-38
0.047209259 -0.0066454425 0.21400002 1.290847e-38
0.046520397 -0.0059565795 0.21400002 1.3001747e-38
0.038598478 -0.0021678365 0.21400002 1.337053e-38
0.039459556 -0.0021678365 0.21400002 1.3554921e-38
0.03566448 -0.0011398444 0.215 1.355276e-38
0.036574945 -0.0014359201 0.214 1.3369451e-38
0.037702955 -0.001478974 0.21400002 1.3092864e-38
0.038426265 -0.0014789741 0.214 1.2909555e-38
0.039631769 -0.001478974 0.214 1.3185781e-38
0.040665064 -0.0014789741 0.21400003 1.3278333e-38
0.041310877 -0.0014359201 0.214 1.3370527e-38
0.034972396 -0.00010172232 0.215 1.3460205e-38
0.035408519 -0.00027410375 0.21450001 1.3552759e-38
0.036463004 -0.00023902168 0.21400002 1.3646035e-38
0.037565183 -0.0002734648 0.21400002 1.3093582e-38
0.038598478 -0.0002734648 0.21400002 1.300103e-38
0.039631773 -0.0002734648 0.214 1.2816639e-38
0.040665064 -0.0002734648 0.21400002 1.2540409e-38
0.04135393 -0.0002734648 0.214 1.290883e-38
0.042387221 -0.0002734648 0.21400002 1.3461644e-38
0.049275845 -0.00010124919 0.21400002 1.2263098e-38
0.019573584 0.00093639974 0.215 1.5487427e-38
0.020092646 0.00093639974 0.215 1.521084e-38
0.034972396 0.00059035909 0.215 1.3183618e-38
0.03532638 0.00058761321 0.21400002 1.3183978e-38
0.036531892 0.00058761321 0.214 1.3460925e-38
0.037737399 0.00058761321 0.21400002 1.3185057e-38
0.038426265 0.00058761321 0.21400002 1.3092864e-38
0.039631773 0.00058761321 0.214 1.2908473e-38
0.040665064 0.00058761321 0.21400002 1.2908473e-38
0.04135393 0.00058761315 0.214 1.2816277e-38
0.042387221 0.00058761321 0.21400002 1.2816274e-38
0.049620278 0.00024318202 0.21400002 1.2447489e-38
0.05030914 0.00093204435 0.21400002 1.2355293e-38
0.019608188 0.0015592731 0.215 1.5764375e-38
0.020092646 0.0014554609 0.215 1.5764734e-38
0.034809735 0.0012764756 0.21400002 1.2815195e-38
0.035360824 0.0015520204 0.21400002 1.2999587e-38
0.036531892 0.0016209066 0.214 1.3737152e-38
0.037737399 0.0016209068 0.214 1.3737152e-38
0.038426265 0.0016209068 0.214 1.3645316e-38
0.039631773 0.0016209068 0.214 1.3461644e-38
0.040665064 0.0016209068 0.21400003 1.272408e-38
0.04135393 0.0016209068 0.214 1.2631884e-38
0.042387221 0.0016209068 0.21400003 1.2631883e-38
0.036531892 0.0028264159 0.214 1.3829347e-38
0.037737399 0.0028264159 0.21400002 1.3644957e-38
0.038426265 0.0028264159 0.21400002 1.3460566e-38
0.039631773 0.0028264162 0.214 1.3000667e-38
0.040665064 0.0028264159 0.21400002 1.2816277e-38
0.04135393 0.0028264159 0.214 1.2816277e-38
0.042559437 0.0028264159 0.21400002 1.2539689e-38
0.043420516 0.0028264159 0.21400002 1.2355298e-38
0.044384923 0.002860859 0.21400002 1.2170906e-38
0.045487102 0.0029986317 0.21400002 1.1894318e-38
0.03566448 0.0033586849 0.215 1.3460568e-38
0.036529813 0.0033534777 0.21466668 1.3644957e-38
0.037737399 0.0033430629 0.21400002 1.3460565e-38
0.038426265 0.0033430629 0.21400002 1.3092861e-38
0.039631773 0.0033430632 0.21400003 1.3000668e-38
0.040665064 0.0033430629 0.21400002 1.3369451e-38
0.04135393 0.0033430632 0.21400003 1.3092864e-38
0.042559437 0.0033430629 0.21400002 1.2447495e-38
0.043420516 0.0033430629 0.21400002 1.2170908e-38
0.044453811 0.0033430632 0.21400003 1.1986516e-38
0.036573011 0.004132566 0.21475002 1.3737153e-38
0.037543897 0.0044274819 0.214375 1.3830066e-38
0.038426261 0.004376357 0.214 1.3184697e-38
0.039631769 0.004376357 0.214 1.2724082e-38
0.040665064 0.0043763565 0.21400003 1.2724082e-38
0.041353926 0.004376357 0.214 1.2448214e-38
0.042524993 0.0043074703 0.21400002 1.18954e-38
0.043305706 0.0041467356 0.21400003 1.1711009e-38
0.044109378 0.0040319255 0.21400002 1.1803204e-38
0.036600776 0.0054785367 0.21400002 1.4567272e-38
0.037737399 0.0054096505 0.21400002 1.3368372e-38
0.038426265 0.00540965 0.21400002 1.3092864e-38
0.039562885 0.0053407643 0.21400002 1.2816277e-38
0.040665064 0.005065219 0.21400002 1.253969e-38
0.034741703 0.0063577038 0.21499999 1.2723363e-38
0.035408519 0.0062853796 0.21450001 1.3460568e-38
0.036531892 0.0062707285 0.214 1.438216e-38
0.037737399 0.0062707281 0.21400002 1.2999589e-38
0.038368862 0.0062133227 0.21400003 1.2908113e-38
0.015594116 0.0071651321 0.215 1.4658751e-38
0.016378522 0.0075594196 0.21440001 1.4566914e-38
0.017932605 0.0076484531 0.21400002 1.5027893e-38
0.033934273 0.0078572137 0.215 1.3553839e-38
0.034626357 0.0075111738 0.21500002 1.3185057e-38
0.03532638 0.0074762371 0.214 1.3092861e-38
0.036488835 0.0074331835 0.214 1.318506e-38
0.037737399 0.0071318061 0.21400002 1.2724082e-38
0.016721798 0.0086519243 0.21466668 1.4474717e-38
0.017415958 0.0085095307 0.21400002 1.4751305e-38
0.034809735 0.0081650997 0.21400002 1.3185057e-38
0.03532638 0.0085095307 0.21400002 1.3092861e-38
0.036302269 0.008394721 0.21400003 1.3092864e-38
0.017324321 0.0092413761 0.215 1.4474719e-38
0.019573584 0.0099334577 0.215 1.4659111e-38
0.020265667 0.0099334577 0.215 1.4474719e-38
0.021130769 0.0097604375 0.215 1.4290328e-38
0.022687953 0.0099334577 0.215 1.4566915e-38
0.03532638 0.0093706092 0.21400002 1.3185418e-38
0.018593134 0.010856234 0.21499999 1.4382524e-38
0.019573584 0.01079856 0.215 1.4013741e-38
0.020406462 0.010839223 0.21466668 1.4290328e-38
0.021427264 0.010773044 0.21450001 1.4382524e-38
0.022563519 0.010822957 0.21480003 1.4474719e-38
0.023322359 0.010856234 0.21499999 1.4198133e-38
0.018535461 0.01131762 0.215 1.4382524e-38
0.019528065 0.011635732 0.21450001 1.4290688e-38
0.020515841 0.011609412 0.21400002 1.4475798e-38
0.021204703 0.011609412 0.21400002 1.4291407e-38
0.022410212 0.011609412 0.214 1.401446e-38
0.023615722 0.011609412 0.21400002 1.3922265e-38
0.024304584 0.011953843 0.21400002 1.3553842e-38
0.025854524 0.011953843 0.21400002 1.3922625e-38
0.026428575 0.011724222 0.21400003 1.4106656e-38
0.015248076 0.012701783 0.215 1.3921546e-38
0.017932605 0.012987137 0.21400002 1.3921546e-38
0.01853521 0.012585331 0.21450001 1.4105937e-38
0.019482544 0.012642705 0.214 1.4290688e-38
0.020515841 0.012642705 0.214 1.4107016e-38
0.021204703 0.012642705 0.214 1.401482e-38
0.02241021 0.012642706 0.214 1.3738233e-38
0.023615723 0.012642704 0.214 1.3553842e-38
0.024304584 0.012642704 0.214 1.3369811e-38
0.025395282 0.012642704 0.214 1.3646757e-38
0.026887815 0.012298274 0.21400002 1.4107016e-38
0.039631773 0.012987137 0.21400002 1.1711009e-38
0.014902035 0.013393865 0.215 1.382935e-38
0.015421096 0.013393864 0.215 1.382935e-38
0.016718749 0.013566885 0.215 1.4013741e-38
0.017615033 0.013466608 0.21433334 1.3644959e-38
0.018621467 0.013676 0.21400002 1.3644959e-38
0.019482546 0.013676 0.21400002 1.3921546e-38
0.020515841 0.013676 0.21400002 1.3646038e-38
0.021204703 0.013676 0.21400002 1.3553842e-38
0.022410212 0.013676 0.21400003 1.3276899e-38
0.023615722 0.013676 0.21400002 1.3369095e-38
0.024304584 0.013676 0.21400002 1.3185423e-38
0.025337875 0.013676 0.21400002 1.3001391e-38
0.03937833 0.013707953 0.21450001 1.1342226e-38
0.013748567 0.014316641 0.21499999 1.382935e-38
0.014729014 0.014258968 0.215 1.3737154e-38
0.015421096 0.014258967 0.215 1.3460568e-38
0.016439877 0.014242185 0.21475002 1.4013741e-38
0.017588174 0.014192647 0.214 1.382935e-38
0.018621467 0.014192646 0.21400002 1.3921546e-38
0.019482546 0.014192646 0.21400002 1.3460568e-38
0.020515841 0.014192646 0.21400002 1.3553482e-38
0.021204701 0.014192646 0.21400002 1.3092508e-38
0.022410208 0.014192645 0.214 1.3184704e-38
0.023615722 0.014192646 0.21400002 1.3369095e-38
0.024304584 0.014192646 0.21400002 1.3276899e-38
0.02516566 0.014020431 0.21400002 1.3001391e-38
0.038778845 0.014431988 0.215 1.2079791e-38
0.039124887 0.014258968 0.215 1.1803204e-38
0.01247975 0.015643131 0.215 1.382935e-38
0.013517871 0.015470111 0.21500002 1.3552404e-38
0.014729013 0.01547011 0.21500002 1.3552766e-38
0.015421096 0.01547011 0.21500002 1.3552763e-38
0.016363371 0.015343338 0.21420002 1.382935e-38
0.017243741 0.015053725 0.21400002 1.3738233e-38
0.018965898 0.015053725 0.21400002 1.3000668e-38
0.019568652 0.015312048 0.21400002 1.3093224e-38
0.020515841 0.015398156 0.214 1.3001387e-38
0.021204701 0.015398157 0.214 1.2908836e-38
0.022367157 0.015355103 0.214 1.2816641e-38
0.023558317 0.015168536 0.21400003 1.3092868e-38
0.013517871 0.016508231 0.21500002 1.3277255e-38
0.014729015 0.016508231 0.215 1.3553842e-38
0.015557047 0.01646984 0.21450001 1.3553483e-38
0.01632526 0.016546259 0.21400003 1.3553482e-38
0.018965898 0.01677588 0.21400002 1.3184704e-38
0.01953995 0.016546259 0.21400003 1.3092867e-38
0.020515841 0.016431449 0.21400002 1.2908477e-38
0.021204701 0.016431449 0.21400002 1.2724805e-38
0.022065779 0.016087018 0.21400002 1.2724805e-38
0.01247975 0.017373335 0.215 1.318506e-38
0.013517871 0.017373335 0.21500002 1.318506e-38
0.014729015 0.017373335 0.215 1.3553842e-38
0.015489072 0.017353334 0.21475002 1.3461647e-38
0.0164016 0.017312929 0.21425 1.3369451e-38
0.017588174 0.017292526 0.214 1.3553842e-38
0.018621467 0.017292526 0.21400002 1.3185061e-38
0.019482546 0.017292526 0.21400002 1.2908476e-38
0.020515841 0.017292526 0.21400002 1.2816281e-38
0.012393239 0.018497964 0.215 1.3000668e-38
0.013517871 0.018584477 0.21500002 1.318506e-38
0.014729016 0.018584475 0.21500002 1.3277257e-38
0.015421096 0.018584475 0.21500002 1.3185061e-38
0.016632238 0.018584477 0.21500002 1.300067e-38
0.017567635 0.018549901 0.21460001 1.2909194e-38
0.018535031 0.018510386 0.21414284 1.2724803e-38
0.019482546 0.018498035 0.214 1.2540413e-38
0.020343624 0.018498039 0.21400003 1.2724805e-38
0.0086531304 0.019576158 0.21450001 1.3368732e-38
0.0090193413 0.019622598 0.215 1.3368732e-38
0.013517871 0.019622598 0.21500002 1.300031e-38
0.014729014 0.019622598 0.215 1.3092507e-38
0.015421096 0.019622598 0.215 1.3092507e-38
0.016563032 0.019553389 0.215 1.2908474e-38
0.01765706 0.019600216 0.21400002 1.2448576e-38
0.018621467 0.01953133 0.21400002 1.2448574e-38
0.019482546 0.01953133 0.21400002 1.2448574e-38
0.020343624 0.019186899 0.21400002 1.2724805e-38
0.0086329598 0.020392407 0.21400002 1.3092864e-38
0.0091346884 0.020545373 0.21499999 1.3092864e-38
0.01247975 0.020660721 0.215 1.3000668e-38
0.013517871 0.0204877 0.21500002 1.281628e-38
0.014729014 0.0204877 0.215 1.2724086e-38
0.015421096 0.0204877 0.215 1.281664e-38
0.01656303 0.020453095 0.215 1.2540413e-38
0.01765706 0.020426851 0.21400002 1.2356022e-38
0.018621467 0.020392407 0.21400002 1.2448218e-38
0.019425141 0.020335002 0.21400003 1.2448218e-38
0.0069108037 0.021253485 0.21400002 1.3369451e-38
0.0072891377 0.021698842 0.215 1.3277255e-38
0.0085315965 0.021401936 0.21433334 1.3092864e-38
0.0091346884 0.021468148 0.21499999 1.2908473e-38
0.01247975 0.021525823 0.215 1.2908474e-38
0.013517871 0.021525823 0.21500002 1.2632965e-38
0.014729014 0.021525821 0.215 1.2448218e-38
0.015421096 0.021525821 0.215 1.2448218e-38
0.016420806 0.021647843 0.21450001 1.2448218e-38
0.017588174 0.021597918 0.214 1.2448218e-38
0.018621467 0.02159792 0.214 1.2263826e-38
0.019310329 0.021597916 0.21400003 1.2263826e-38
0.0076351785 0.022044882 0.215 1.318506e-38
0.0085002799 0.022044882 0.215 1.3092864e-38
0.012306728 0.022217903 0.215 1.2908117e-38
0.013517871 0.022217905 0.21500002 1.254005e-38
0.014706179 0.022470484 0.21466668 1.2356381e-38
0.015454593 0.022470482 0.21466668 1.2356022e-38
0.016382664 0.022631211 0.21400002 1.2356022e-38
0.017588174 0.022631211 0.214 1.2448216e-38
0.018621467 0.022631211 0.21400002 1.2356379e-38
0.019310329 0.022631211 0.21400002 1.2356379e-38
0.0074621579 0.023775086 0.215 1.3092508e-38
0.0085002799 0.023602065 0.215 1.3000671e-38
0.0091923624 0.023602065 0.215 1.263225e-38
0.010403505 0.023602067 0.21500002 1.2448218e-38
0.011614647 0.023429045 0.21500002 1.2356022e-38
0.012306728 0.023429045 0.21500002 1.2448218e-38
0.013419003 0.023379609 0.21500002 1.2356022e-38
0.014488291 0.02349229 0.214 1.2356022e-38
0.015521586 0.023492288 0.21400002 1.2356022e-38
0.016382664 0.023492288 0.21400002 1.2356022e-38
0.017588174 0.02349229 0.214 1.2263826e-38
0.018277036 0.023320073 0.21400002 1.2448574e-38
0.0069430973 0.024640188 0.215 1.2908474e-38
0.0074621579 0.024640188 0.215 1.2816279e-38
0.0085002799 0.024640189 0.215 1.2816279e-38
0.0091923624 0.024640188 0.215 1.2631529e-38
0.010403506 0.024640188 0.21500002 1.2264184e-38
0.011614647 0.024640189 0.215 1.2264182e-38
0.012306729 0.024640188 0.215 1.2356378e-38
0.013344851 0.024640188 0.215 1.2264182e-38
0.014488291 0.024525581 0.214 1.2264182e-38
0.015521586 0.024525583 0.21400002 1.2448574e-38
0.016382664 0.024525581 0.21400002 1.2264182e-38
0.017243741 0.024353366 0.21400002 1.1526617e-38
0.0069430973 0.025505289 0.215 1.2908473e-38
0.0074621579 0.025332268 0.215 1.2631886e-38
0.0085002799 0.025332268 0.215 1.2631886e-38
0.0091923624 0.025332268 0.215 1.2631886e-38
0.010403505 0.02533227 0.21500002 1.2264182e-38
0.011614647 0.025332268 0.215 1.2264182e-38
0.012306729 0.025332268 0.215 1.2264182e-38
0.013344851 0.025332268 0.215 1.2171987e-38
0.014488292 0.025214447 0.214 1.2264182e-38
0.015521586 0.025214445 0.21400002 1.2356378e-38
0.016382664 0.025214445 0.21400002 1.2264182e-38
0.0059049749 0.026543412 0.215 1.2724082e-38
0.006597057 0.02654341 0.21500002 1.2631886e-38
0.0074621583 0.026543414 0.21500002 1.253969e-38
0.0085002808 0.026543414 0.21500002 1.253969e-38
0.0091923624 0.02654341 0.21500002 1.253969e-38
0.010403506 0.026543414 0.21500002 1.2263464e-38
0.011614647 0.02654341 0.21500002 1.2079791e-38
0.01235446 0.026522569 0.21483336 1.2079434e-38
0.013292993 0.026440263 0.21416669 1.2079435e-38
0.014488291 0.026419954 0.214 1.1987598e-38
0.015521586 0.026419953 0.214 1.2171988e-38
0.016210448 0.026419953 0.21400003 1.2171628e-38
0.0038109221 0.027797677 0.21400002 1.2724082e-38
0.0043477919 0.027754555 0.215 1.2816277e-38
0.0065970565 0.027754555 0.215 1.253969e-38
0.0074621579 0.027754555 0.215 1.253969e-38
0.0085002799 0.027754555 0.215 1.2724082e-38
0.0091923624 0.027754555 0.215 1.2724082e-38
0.010403506 0.027754553 0.21500002 1.2447855e-38
0.01160094 0.027722081 0.21475002 1.2171631e-38
0.012421703 0.027453247 0.21400002 1.1895404e-38
0.013282782 0.027453246 0.21400002 1.1711372e-38
0.014488292 0.027453249 0.214 1.1803567e-38
0.015521586 0.027453246 0.21400002 1.1711372e-38
0.016210448 0.027453246 0.21400002 1.1803566e-38
0.004405465 0.028388962 0.21499999 1.2631886e-38
0.0055589341 0.028446637 0.21500002 1.2631886e-38
0.0065970565 0.028446635 0.215 1.2724082e-38
0.0074621579 0.028446637 0.215 1.2631886e-38
0.0085002799 0.028446637 0.215 1.2816277e-38
0.0091923624 0.028446637 0.215 1.2816277e-38
0.010334296 0.028412033 0.215 1.253969e-38
0.011457296 0.028348768 0.21400002 1.2263824e-38
0.012421703 0.028314326 0.21400002 1.1987238e-38
0.013282782 0.028314326 0.21400002 1.1710653e-38
0.014488292 0.028314324 0.214 1.1619176e-38
0.015521586 0.028314326 0.21400002 1.1711372e-38
0.016210448 0.02814211 0.21400002 1.2356378e-38
0.005628142 0.029450154 0.215 1.2724082e-38
0.0065970561 0.029484756 0.215 1.2816277e-38
0.0074621579 0.029484756 0.215 1.2816277e-38
0.0085002799 0.029484756 0.215 1.2724082e-38
0.0092871403 0.029560659 0.21480003 1.2631886e-38
0.010190696 0.029542556 0.21416666 1.253969e-38
0.01138841 0.029519834 0.214 1.2355658e-38
0.012421702 0.029519834 0.214 1.1987597e-38
0.013282781 0.029519834 0.214 1.1618457e-38
0.014488291 0.029519834 0.214 1.1802848e-38
0.015521586 0.029519834 0.214 1.1895044e-38
0.0057319542 0.030176841 0.215 1.2631886e-38
0.0065970561 0.030176839 0.215 1.2724082e-38
0.0074621579 0.030176841 0.215 1.2816277e-38
0.0085957032 0.030320983 0.21480003 1.254005e-38
0.0093427971 0.030364983 0.21450001 1.2447495e-38
0.0101829 0.030553125 0.21400002 1.2171627e-38
0.01138841 0.030553125 0.214 1.2079791e-38
0.012421703 0.030553127 0.21400002 1.1802845e-38
0.013282782 0.030553127 0.21400002 1.171101e-38
0.014419407 0.030484239 0.21400002 1.1803206e-38
0.015177155 0.030208696 0.21400002 1.1802848e-38
0.0059049749 0.031041941 0.215 1.2448574e-38
0.0065970556 0.031387981 0.21500002 1.2356378e-38
0.0074621583 0.031387981 0.21500002 1.2356378e-38
0.0086094728 0.03135784 0.21450001 1.2171987e-38
0.0096662538 0.031414203 0.21400002 1.18954e-38
0.0101829 0.031414203 0.21400002 1.1987595e-38
0.01138841 0.031414203 0.214 1.18954e-38
0.012421703 0.031414203 0.21400002 1.1526261e-38
0.013282781 0.031241989 0.21400002 1.1618457e-38
0.001233425 0.032772146 0.215 1.253969e-38
0.0065970565 0.032599125 0.215 1.2264184e-38
0.0075594806 0.032695394 0.21450001 1.2079791e-38
0.0086329598 0.032619715 0.214 1.2171987e-38
0.0096662538 0.032619715 0.21400003 1.1987595e-38
0.0101829 0.032619715 0.214 1.2263824e-38
0.0112736 0.032504905 0.214 1.1987597e-38
