# .PCD v0.7 - Point Cloud Data file format
VERSION 0.7
FIELDS x y z rgb
SIZE 4 4 4 4
TYPE F F F F
COUNT 1 1 1 1
WIDTH 990
HEIGHT 1
VIEWPOINT 0 0 0 1 0 0 0
POINTS 990
DATA ascii
0.06262435 0.051624212 0.208 8.2965249e-39
0.063628674 0.051624212 0.20799999 9.2116372e-39
0.064592421 0.051625337 0.20733334 1.287317e-38
0.065654919 0.051542606 0.20700002 1.4521521e-38
0.066654414 0.051542599 0.20700002 1.4795227e-38
0.067487329 0.051542599 0.20700002 1.5163651e-38
0.068611756 0.051500961 0.20700002 1.4607243e-38
0.069319732 0.051209439 0.20700002 1.3964393e-38
0.059946157 0.052795921 0.208 8.1143e-39
0.060682662 0.052528102 0.20799999 8.2979696e-39
0.061787419 0.052461147 0.208 8.2976081e-39
0.06262435 0.052461147 0.208 8.2976039e-39
0.06368383 0.052484043 0.20771429 9.3034713e-39
0.064488843 0.052708678 0.20700002 1.2507622e-38
0.065654926 0.052708674 0.20700002 1.387831e-38
0.066654414 0.052708674 0.20700002 1.3692838e-38
0.067487329 0.052708678 0.20700002 1.4246727e-38
0.068320237 0.052542094 0.20700002 1.4703388e-38
0.057686433 0.053716552 0.208 8.115742e-39
0.058807928 0.053532422 0.20799999 7.9309906e-39
0.05961138 0.053465474 0.20799999 8.1135812e-39
0.060615703 0.053465467 0.20799997 8.2976109e-39
0.061787415 0.053465471 0.20799999 8.1132168e-39
0.062624358 0.053465471 0.20799999 8.5741908e-39
0.063555002 0.053410523 0.207625 8.9382845e-39
0.064488843 0.053375002 0.20700002 1.2141717e-38
0.065654926 0.053375002 0.20700002 1.3236541e-38
0.066654414 0.053375006 0.20700002 1.3325495e-38
0.056710009 0.054692972 0.208 8.116821e-39
0.057602737 0.054637179 0.20799999 8.3001332e-39
0.058774449 0.054637179 0.208 8.1150231e-39
0.059611384 0.054637179 0.208 7.9306304e-39
0.060615707 0.054637179 0.20799999 8.205774e-39
0.061787419 0.054637179 0.208 8.2050523e-39
0.062746108 0.054660674 0.20766668 8.6653032e-39
0.063604213 0.054530896 0.20714286 8.200358e-39
0.064488843 0.054541081 0.20700002 1.1135127e-38
0.065654926 0.054541081 0.20700002 1.2322859e-38
0.066654414 0.054541081 0.20700002 1.3052867e-38
0.067320742 0.054207917 0.20700002 1.3051069e-38
0.055928867 0.055808891 0.208 8.0246253e-39
0.056598417 0.055474117 0.208 8.0246253e-39
0.057602737 0.055474114 0.20799999 8.3001332e-39
0.058774449 0.055474117 0.208 8.0235463e-39
0.05961138 0.055474117 0.208 7.9313493e-39
0.060615707 0.055474114 0.20799999 8.022103e-39
0.061688405 0.055607323 0.20766668 8.1132168e-39
0.062648416 0.055565208 0.20725001 7.927378e-39
0.063655928 0.05570716 0.20700002 7.2784073e-39
0.064488843 0.05570716 0.20700002 9.9470275e-39
0.065571629 0.055623867 0.20700002 1.2058508e-38
0.066321246 0.055540577 0.20700002 1.3058622e-38
0.055635937 0.056520287 0.20799997 8.0246253e-39
0.056598414 0.056478437 0.20799999 7.8402341e-39
0.057602737 0.056478433 0.20799997 8.0242666e-39
0.058774445 0.056478437 0.20799999 8.0235449e-39
0.059631344 0.056409203 0.20757143 7.839511e-39
0.060672805 0.056334365 0.207625 7.8387907e-39
0.061490357 0.056373484 0.20700002 7.9295444e-39
0.06265644 0.056373488 0.20700002 7.283089e-39
0.063655928 0.056206904 0.20700002 6.8195913e-39
0.064322263 0.056206904 0.20700002 9.2130652e-39
0.05559409 0.057650145 0.20799999 8.116821e-39
0.056719773 0.057697941 0.20757143 8.2090166e-39
0.057730056 0.057610404 0.20742859 8.2082977e-39
0.058491874 0.057539564 0.20700002 8.0235463e-39
0.059657957 0.057539564 0.20700002 7.9313507e-39
0.060824025 0.057539564 0.20700002 8.4841616e-39
0.061490357 0.057539564 0.20700002 7.838432e-39
0.062434327 0.057317454 0.20700002 7.468209e-39
0.054589771 0.058821857 0.208 8.3934079e-39
0.055603504 0.058542106 0.20785713 8.2090166e-39
0.056602921 0.058483809 0.20714286 8.3012122e-39
0.05782555 0.058539063 0.20700002 8.3001332e-39
0.058491878 0.058539063 0.20700002 8.115742e-39
0.059657957 0.058539063 0.20700002 7.8402341e-39
0.060824033 0.058539063 0.20700002 8.1161035e-39
0.061323777 0.058539059 0.20700002 7.8395166e-39
0.05442239 0.059491407 0.20799999 8.5777991e-39
0.055485021 0.059461541 0.20774999 8.116821e-39
0.056659471 0.059371967 0.20700002 8.4856035e-39
0.05782555 0.059371971 0.20700002 8.3001332e-39
0.058491878 0.059371971 0.20700002 8.3001332e-39
0.059657957 0.059371967 0.20700002 8.1161007e-39
0.060824029 0.059371971 0.20700002 7.9324325e-39
0.061323777 0.059371971 0.20700002 7.8402369e-39
0.068986565 0.059538554 0.20700002 6.5484163e-39
0.071318723 0.059538554 0.20700002 6.4562206e-39
0.054619614 0.060704708 0.20757143 8.5770774e-39
0.055459954 0.060532007 0.20714286 8.6692731e-39
0.056659468 0.060538054 0.20700002 8.3008507e-39
0.057825547 0.06053805 0.20700002 8.1164622e-39
0.058491874 0.06053805 0.20700002 8.1164608e-39
0.059657957 0.060538046 0.20700002 8.2086565e-39
0.060824033 0.06053805 0.20700002 8.3008521e-39
0.061457038 0.060471416 0.20700002 8.0242652e-39
0.068653405 0.060204882 0.20700002 6.9182778e-39
0.052601218 0.061592713 0.20775001 8.3012122e-39
0.053664859 0.06151839 0.20750001 8.6699933e-39
0.054712653 0.061463088 0.20720001 8.3934079e-39
0.055493392 0.061537541 0.20700002 9.2231671e-39
0.056659471 0.061537538 0.20700002 8.3926862e-39
0.05782555 0.061537541 0.20700002 8.207939e-39
0.058436349 0.061426487 0.20700002 8.115742e-39
0.05965795 0.061204378 0.20700002 8.3001332e-39
0.060879558 0.061426487 0.20700002 8.2086565e-39
0.061323777 0.061537541 0.20700002 7.9324297e-39
0.052664477 0.062511228 0.2078 8.116821e-39
0.053660989 0.062370453 0.20700002 8.2090166e-39
0.054827064 0.062370453 0.20700002 8.3934079e-39
0.055493392 0.062370453 0.20700002 8.7621904e-39
0.056437358 0.062314928 0.20700002 8.1168182e-39
0.061323777 0.062203869 0.20700002 8.115742e-39
0.052634705 0.06341619 0.20733334 8.0246253e-39
0.053660989 0.063369945 0.20700002 8.0246253e-39
0.054827064 0.063369945 0.20700002 8.3934079e-39
0.055493392 0.063369945 0.20700002 8.3934079e-39
0.059591323 0.063403264 0.20700002 8.4848846e-39
0.049902931 0.06451302 0.208 7.9324297e-39
0.060824029 0.064869188 0.20700002 8.392689e-39
0.049819235 0.065601036 0.208 7.9317108e-39
0.050572481 0.065517336 0.20799999 7.9317108e-39
0.051375937 0.065584302 0.20799999 7.8398753e-39
0.052628953 0.065612994 0.20799997 8.116821e-39
0.053473856 0.065740533 0.208 8.2090166e-39
0.049635109 0.066722527 0.20799999 7.7480384e-39
0.050572477 0.066689052 0.208 7.5636472e-39
0.051409416 0.066521667 0.208 7.8402341e-39
0.052581128 0.066521667 0.208 8.2090166e-39
0.06396345 0.066521667 0.208 7.9324297e-39
0.049902931 0.06752599 0.208 7.5636472e-39
0.053250674 0.06752599 0.208 8.3934079e-39
0.058658458 0.067867674 0.20700002 7.6558428e-39
0.05965795 0.067867674 0.20700002 7.3792559e-39
0.049580008 0.068530776 0.20787498 7.7476783e-39
0.050329342 0.068534002 0.20700002 8.0246253e-39
0.052804306 0.068418719 0.208 8.116821e-39
0.053250674 0.068195537 0.208 8.3012122e-39
0.059896588 0.06845019 0.20725001 7.3792545e-39
0.060657449 0.068534002 0.20700002 7.2874162e-39
0.049357891 0.069467641 0.20740001 8.2086565e-39
0.060280934 0.069534637 0.208 7.5629241e-39
0.057992131 0.070866153 0.20700002 8.4848804e-39
0.058325294 0.070866153 0.20700002 8.3001332e-39
0.056933191 0.071878053 0.208 1.014368e-38
0.057691861 0.071606562 0.20760003 8.8529469e-39
0.058562316 0.071452297 0.20725001 8.1150231e-39
0.057825923 0.072659187 0.208 8.2994144e-39
0.058718652 0.072659194 0.208 7.7469594e-39
0.05860706 0.073217154 0.208 7.4714516e-39
0.05687052 0.048676759 0.20900001 8.7611114e-39
0.057767544 0.048452508 0.20900001 8.115742e-39
0.058328182 0.048452508 0.20900001 8.0235463e-39
0.059225205 0.048676759 0.20900001 8.115742e-39
0.055524986 0.049349528 0.20900001 8.0246253e-39
0.056534138 0.049181331 0.20900001 8.3001332e-39
0.057711482 0.049181338 0.20900001 8.2079376e-39
0.058384247 0.049181338 0.20900001 8.0235463e-39
0.059561584 0.049181338 0.20900001 8.1150231e-39
0.054852217 0.050526872 0.20900001 8.3012122e-39
0.055356789 0.050358679 0.20900001 8.116821e-39
0.056534138 0.050358679 0.20900001 8.2082963e-39
0.057711482 0.050358679 0.20900001 8.0235463e-39
0.058384251 0.050358683 0.20900001 8.115742e-39
0.059561592 0.050358683 0.20900001 8.2068586e-39
0.060682874 0.050582934 0.20900001 8.3908855e-39
0.061411701 0.050695062 0.20900001 8.1139371e-39
0.062420852 0.050695062 0.20900001 8.0206597e-39
0.054684028 0.051367827 0.20900001 8.2090166e-39
0.055356793 0.051367827 0.20900001 8.0246253e-39
0.056534138 0.051367823 0.20900001 8.3001332e-39
0.057711482 0.05136783 0.20900001 7.9313507e-39
0.058384247 0.051367827 0.20900001 8.2072187e-39
0.059561592 0.05136783 0.20900001 8.0228275e-39
0.060738936 0.051367827 0.20900001 8.4834399e-39
0.061243508 0.051031448 0.20900001 8.3908841e-39
0.053843066 0.052376982 0.20900001 8.116821e-39
0.054684028 0.052208789 0.20900001 8.0246253e-39
0.055356793 0.052208792 0.20900001 7.9324297e-39
0.056534138 0.052208792 0.20900001 8.0246253e-39
0.057711482 0.052208789 0.20900001 8.2082977e-39
0.058384247 0.052208789 0.20900001 8.115742e-39
0.059561592 0.052208792 0.20900001 7.9306318e-39
0.060682874 0.052152727 0.20900001 8.2986913e-39
0.053843066 0.053386133 0.20900001 8.116821e-39
0.054684028 0.053386133 0.20900001 8.116821e-39
0.055356789 0.053386133 0.20900001 8.4856063e-39
0.056534138 0.053386133 0.20900001 8.1161035e-39
0.057711482 0.053386133 0.20900001 8.2082963e-39
0.058384247 0.053217944 0.20900001 8.0231876e-39
0.059393398 0.053049751 0.20900001 7.8387963e-39
0.053843066 0.054395285 0.20900001 8.3934079e-39
0.054684028 0.054395288 0.20900001 8.2090166e-39
0.055356793 0.054395288 0.20900001 8.3934093e-39
0.056466859 0.054328013 0.20900002 8.2086565e-39
0.053843066 0.055236243 0.20900001 8.3934079e-39
0.054684028 0.055236243 0.20900001 8.2090166e-39
0.055356793 0.055236246 0.20900001 8.2090166e-39
0.056197751 0.055236243 0.20900001 8.116821e-39
0.053548731 0.056455638 0.20900001 8.116821e-39
0.054684028 0.056413591 0.20900001 8.4852434e-39
0.055300727 0.056189328 0.20900001 8.9455026e-39
0.052497532 0.057422735 0.20900001 8.3012108e-39
0.053506684 0.057422739 0.20900001 8.1164608e-39
0.054684028 0.057422735 0.20900001 8.3012122e-39
0.052497532 0.058095504 0.20900001 8.3937638e-39
0.053506684 0.0582637 0.20900001 8.1164608e-39
0.054684028 0.058263697 0.20900001 8.3012122e-39
0.051824763 0.059777424 0.20900001 8.3934079e-39
0.052161146 0.059777424 0.20900001 8.6699947e-39
0.053548731 0.059441037 0.20900001 8.116821e-39
0.054515835 0.059104655 0.20900001 8.6699947e-39
0.048797309 0.060786575 0.20900001 8.2079376e-39
0.049301885 0.060786575 0.20900001 8.115742e-39
0.050546505 0.060517468 0.20900002 8.2082977e-39
0.051656574 0.060450189 0.20900001 8.2090166e-39
0.052329339 0.060450189 0.20900001 8.3934079e-39
0.053506684 0.060450193 0.20900001 8.392689e-39
0.045769855 0.061459344 0.20900001 8.3001332e-39
0.04644262 0.061459344 0.20900001 8.3923289e-39
0.047519051 0.061324794 0.20900002 7.8395152e-39
0.04862912 0.061291151 0.20900001 7.8391551e-39
0.049301885 0.061291151 0.20900001 7.9313507e-39
0.05047923 0.061291147 0.20900001 8.115742e-39
0.051656574 0.061291151 0.20900001 8.392689e-39
0.052385405 0.061235085 0.20900001 8.3012122e-39
0.053506684 0.061122958 0.20900001 8.4856035e-39
0.043751553 0.062636688 0.20900001 8.667478e-39
0.044424322 0.062468495 0.20900001 8.3919687e-39
0.045601666 0.062468499 0.20900001 8.3923289e-39
0.046442617 0.062468495 0.20900001 8.3923289e-39
0.047451772 0.062468495 0.20900001 8.2079376e-39
0.04862912 0.062468495 0.20900001 7.9313507e-39
0.049301881 0.062468495 0.20900001 8.2079376e-39
0.05047923 0.062468495 0.20900001 8.0246253e-39
0.051488381 0.062132109 0.20900001 8.7621904e-39
0.044424322 0.063477643 0.20900001 8.5770789e-39
0.045601666 0.06347765 0.20900001 8.3923289e-39
0.04644262 0.06347765 0.20900001 8.3001332e-39
0.047451776 0.063477643 0.20900001 8.3923289e-39
0.04862912 0.06347765 0.20900001 8.0235463e-39
0.049301885 0.06347765 0.20900001 8.115742e-39
0.05047923 0.063477643 0.20900001 7.9313507e-39
0.043751553 0.064654991 0.20900001 9.2213707e-39
0.044424322 0.064486802 0.20900001 9.0376955e-39
0.045601666 0.064486802 0.20900001 8.3001318e-39
0.046442617 0.064486802 0.20900001 8.853307e-39
0.047451772 0.064486802 0.20900001 8.6689157e-39
0.04862912 0.064486794 0.20900001 8.0235463e-39
0.049301889 0.064486802 0.20900001 8.0235463e-39
0.050395131 0.06423451 0.20900001 8.0235463e-39
0.043751553 0.065664142 0.20900001 9.0376983e-39
0.044424322 0.065664135 0.20900001 8.7607512e-39
0.045601666 0.065664142 0.20900001 8.2072173e-39
0.046330493 0.065608077 0.20900001 8.4845245e-39
0.047451776 0.065495946 0.20900001 8.2079376e-39
0.048685182 0.065608077 0.20900001 8.0235463e-39
0.049301885 0.065664135 0.20900001 7.9313507e-39
0.063261814 0.065832332 0.20900001 7.6558428e-39
0.044491597 0.066437826 0.20900002 8.3923289e-39
0.045601666 0.066505104 0.20900001 8.3923289e-39
0.046106238 0.066168718 0.20900001 8.3001332e-39
0.049133692 0.066505104 0.20900001 8.1161021e-39
0.046779007 0.0685234 0.20900001 7.9313507e-39
0.047451776 0.068691596 0.20900001 8.2079376e-39
0.04862912 0.068691596 0.20900001 7.8395152e-39
0.049133692 0.0685234 0.20900001 8.2079376e-39
0.059561592 0.068859786 0.20900001 7.5636472e-39
0.047519051 0.06946528 0.20900002 8.2082977e-39
0.04862912 0.069532558 0.20900001 7.7480384e-39
0.053170297 0.069532558 0.20900001 7.9327898e-39
0.053170297 0.070205323 0.20900001 7.9331486e-39
0.042406019 0.072896391 0.20900001 7.9327856e-39
0.041508995 0.073681287 0.20900001 7.8395124e-39
0.042574212 0.073569156 0.20900001 7.65584e-39
0.043246977 0.073485062 0.20900001 7.6562002e-39
0.041621123 0.074690439 0.20900001 7.839511e-39
0.042574212 0.074746504 0.20900001 7.6554799e-39
0.043078784 0.074578308 0.20900001 7.5640031e-39
0.057548225 0.04336657 0.21000001 8.3934107e-39
0.058663603 0.04333277 0.21000001 8.3934107e-39
0.056534242 0.044583347 0.21000001 8.301215e-39
0.057480626 0.044515751 0.21000002 8.3012136e-39
0.058663603 0.044515748 0.21000002 8.2090194e-39
0.055677995 0.045755059 0.20999999 8.301571e-39
0.056466646 0.045698728 0.21000001 8.3934079e-39
0.057480622 0.045698728 0.21000002 8.5767201e-39
0.058663603 0.045698728 0.21000001 8.4845245e-39
0.05939592 0.045755059 0.20999999 8.3001332e-39
0.055520259 0.046408512 0.21000001 8.2093753e-39
0.056466646 0.046374712 0.21000001 8.3930477e-39
0.057480622 0.046374712 0.21000002 8.3001332e-39
0.058663603 0.046374716 0.21000001 8.4856035e-39
0.05939592 0.046318382 0.20999999 8.3001346e-39
0.0537627 0.047895681 0.21000001 8.4845245e-39
0.054303486 0.047625288 0.21000001 8.3923289e-39
0.055452663 0.047557686 0.21000002 8.300492e-39
0.056466643 0.047557693 0.21000002 8.2082977e-39
0.057480618 0.047557686 0.21000002 8.3004934e-39
0.058579102 0.047473192 0.21000001 8.3001332e-39
0.052748717 0.04890966 0.21000001 8.3012122e-39
0.053424709 0.048740666 0.21000001 8.3934093e-39
0.054269686 0.048740666 0.21000001 8.1168224e-39
0.055452663 0.048740666 0.21000002 8.3008521e-39
0.056466646 0.048740663 0.21000001 8.3001332e-39
0.057311628 0.048571669 0.21000001 8.6689157e-39
0.058832597 0.048571669 0.21000001 8.2079376e-39
0.059508584 0.048740663 0.21000001 8.115742e-39
0.052478321 0.04945045 0.21000001 8.5778005e-39
0.053424709 0.049416654 0.21000001 8.209018e-39
0.054269686 0.049416654 0.21000001 8.116821e-39
0.055385064 0.049382854 0.21000001 8.2090166e-39
0.051261544 0.050667234 0.21000001 8.392689e-39
0.052410722 0.050599631 0.21000002 8.4856035e-39
0.053424705 0.050599635 0.21000002 8.2090166e-39
0.054269686 0.050599631 0.21000002 8.0246253e-39
0.055114672 0.050261635 0.21000001 8.3012122e-39
0.049706776 0.051951602 0.21000001 8.5777991e-39
0.050382763 0.051613607 0.21000001 8.5777991e-39
0.051227748 0.051613607 0.21000001 8.4859636e-39
0.052410722 0.05161361 0.21000002 8.3934079e-39
0.053424709 0.051613607 0.21000001 8.3930477e-39
0.054100692 0.051613607 0.21000001 8.2082977e-39
0.049594108 0.052514922 0.20999999 8.6699947e-39
0.050382763 0.052458588 0.21000001 8.6699947e-39
0.051227748 0.052458592 0.21000001 8.5781579e-39
0.052410722 0.052458588 0.21000002 8.3012122e-39
0.053424709 0.052458588 0.21000001 8.3008521e-39
0.054100692 0.052289594 0.21000001 8.3001332e-39
0.048354805 0.053979564 0.21000001 8.7621904e-39
0.049368784 0.053641573 0.21000002 8.6699947e-39
0.050382759 0.053641569 0.21000002 8.6699947e-39
0.051227748 0.053641569 0.21000002 8.6699947e-39
0.052410722 0.053641573 0.21000002 8.3934079e-39
0.053424705 0.053641569 0.21000002 8.116821e-39
0.047678817 0.054993544 0.21000001 8.6699947e-39
0.04818581 0.054655552 0.21000001 8.6699947e-39
0.04936878 0.054655552 0.21000002 8.3934079e-39
0.050382763 0.054655552 0.21000001 9.4990337e-39
0.051227748 0.054655552 0.21000001 8.6696346e-39
0.052410722 0.054655548 0.21000002 8.4845245e-39
0.053424709 0.054655548 0.21000001 8.2090166e-39
0.046664838 0.055669531 0.21000001 9.0376983e-39
0.047340821 0.055500533 0.21000001 8.6699947e-39
0.04818581 0.055500533 0.21000001 8.854386e-39
0.049368784 0.055500533 0.21000002 8.6692745e-39
0.050382763 0.05550053 0.21000001 9.6827061e-39
0.051227748 0.05550053 0.21000001 8.5767201e-39
0.052410722 0.055500537 0.21000002 8.3923303e-39
0.053424709 0.05550053 0.21000001 8.3012122e-39
0.04649584 0.056514516 0.21000001 8.9455012e-39
0.047340821 0.056514513 0.21000001 8.9462201e-39
0.048185807 0.056514516 0.21000001 9.1313302e-39
0.04936878 0.056514513 0.21000002 8.7621904e-39
0.050382763 0.056514513 0.21000001 8.854386e-39
0.051227748 0.056514516 0.21000001 8.392689e-39
0.052410722 0.056514516 0.21000002 8.3008521e-39
0.053086713 0.056345515 0.21000001 8.5767201e-39
0.045763522 0.05724683 0.20999999 8.853307e-39
0.04649584 0.0571905 0.21000001 8.853307e-39
0.047340821 0.0571905 0.21000001 8.7618302e-39
0.048185807 0.0571905 0.21000001 8.6699947e-39
0.049368784 0.057190496 0.21000002 8.7621904e-39
0.050382763 0.0571905 0.21000001 8.6699947e-39
0.051227748 0.0571905 0.21000001 8.2090166e-39
0.052343123 0.057156701 0.21000001 8.3012122e-39
0.044862207 0.058598805 0.20999999 8.853307e-39
0.045650858 0.058373477 0.21000002 9.1302526e-39
0.04649584 0.058373481 0.21000002 8.7621876e-39
0.047340825 0.058373477 0.21000002 8.4852434e-39
0.048185807 0.058373477 0.21000002 8.3012122e-39
0.049368784 0.058373477 0.21000002 8.5777991e-39
0.050382763 0.058373481 0.21000002 8.5777991e-39
0.051227745 0.058373481 0.21000002 8.2090166e-39
0.052314155 0.058421765 0.21000002 8.946939e-39
0.043848228 0.059612785 0.20999999 8.7611114e-39
0.044805873 0.059556451 0.21000001 8.853307e-39
0.045650858 0.059556451 0.21000001 9.591228e-39
0.04649584 0.059556454 0.21000001 8.7614687e-39
0.047340821 0.059556451 0.21000001 8.3923289e-39
0.048185807 0.059556451 0.21000001 8.4848846e-39
0.049368784 0.059556454 0.21000002 8.4856035e-39
0.050382763 0.059556454 0.21000001 8.6699947e-39
0.051227748 0.059556454 0.21000001 8.4856035e-39
0.052410722 0.059556454 0.21000002 8.6699947e-39
0.053086713 0.059725448 0.21000001 8.3012122e-39
0.043690495 0.060266238 0.21000001 8.6689186e-39
0.044805873 0.060232438 0.21000001 8.5777991e-39
0.045650858 0.060232438 0.21000001 9.1302526e-39
0.04649584 0.060232438 0.21000001 8.3923289e-39
0.047340821 0.060232438 0.21000001 8.1164622e-39
0.04818581 0.060232438 0.21000001 8.116821e-39
0.04936878 0.060232442 0.21000002 8.3012122e-39
0.050270095 0.060176104 0.20999999 8.4856035e-39
0.051227748 0.06006344 0.21000001 8.4856035e-39
0.052748717 0.06006344 0.21000001 8.6699947e-39
0.042946909 0.061584413 0.21000001 9.4075598e-39
0.043622896 0.061415408 0.21000002 8.7621904e-39
0.044805869 0.061415415 0.21000002 8.6696346e-39
0.045583259 0.06134782 0.21000001 8.3923289e-39
0.04649584 0.061246417 0.21000001 8.3923289e-39
0.047228158 0.061190087 0.20999999 8.2082977e-39
0.048185807 0.061077423 0.21000001 7.8391551e-39
0.041932929 0.062767386 0.21000001 8.9465816e-39
0.042608917 0.062598392 0.21000001 9.315004e-39
0.043397572 0.062542059 0.20999999 9.2224497e-39
0.041820262 0.063330717 0.20999999 8.7621904e-39
0.042608917 0.063274384 0.21000001 9.0376983e-39
0.043397572 0.06333071 0.20999999 8.853307e-39
0.04091895 0.064626351 0.21000001 8.3012122e-39
0.041763932 0.064457357 0.21000002 8.5777991e-39
0.042608917 0.064457357 0.21000002 8.4845245e-39
0.043420102 0.064389758 0.21000001 8.3923275e-39
0.040749952 0.06564033 0.21000001 8.2086565e-39
0.041763932 0.065471336 0.21000001 8.3012122e-39
0.042721581 0.065583996 0.20999999 8.392689e-39
0.043284904 0.06564033 0.21000001 8.853307e-39
0.043453902 0.066316321 0.21000001 8.7611114e-39
0.063902497 0.066316321 0.21000001 7.6558428e-39
0.043690495 0.068580873 0.21000001 8.2079376e-39
0.044636875 0.06885127 0.21000001 8.115742e-39
0.042946909 0.069189258 0.21000001 7.9313507e-39
0.043622896 0.069189258 0.20999999 8.2079376e-39
0.0537627 0.069358259 0.21000001 8.0246253e-39
0.059846576 0.069527254 0.21000001 7.6558428e-39
0.0537627 0.070372239 0.21000001 7.8409529e-39
0.058263741 0.037596073 0.21100001 8.4870482e-39
0.05911275 0.037596073 0.21100001 8.0260673e-39
0.05662233 0.038841281 0.21100001 8.7636337e-39
0.057584539 0.03861488 0.21100001 8.4870454e-39
0.058263745 0.038614884 0.21100001 8.3948498e-39
0.059452355 0.03861488 0.211 8.0260673e-39
0.055377118 0.039973292 0.21100001 8.6714367e-39
0.056395929 0.03980349 0.21100001 8.6714367e-39
0.057584539 0.03980349 0.21100001 8.4870454e-39
0.058263741 0.03980349 0.21100001 8.2104585e-39
0.059452355 0.03980349 0.21100001 8.4866853e-39
0.055263918 0.040539298 0.21100001 8.5792411e-39
0.056395929 0.0404827 0.21100001 8.4870454e-39
0.057584539 0.0404827 0.21100001 8.4870454e-39
0.058263745 0.0404827 0.21100001 8.3026542e-39
0.059452355 0.0404827 0.21100001 8.4863252e-39
0.054697912 0.041671306 0.21100001 8.3948498e-39
0.055207316 0.041501507 0.21100001 8.3948498e-39
0.056395929 0.041501507 0.21100001 8.3948498e-39
0.057584539 0.041501507 0.21100001 8.5788809e-39
0.058263741 0.041501507 0.21100001 8.2100984e-39
0.059452355 0.041501503 0.21100001 8.3015752e-39
0.05452811 0.042350512 0.21100001 8.3026542e-39
0.055207316 0.042350508 0.21100001 8.3026542e-39
0.056395922 0.042350512 0.21100001 8.3948498e-39
0.057584539 0.042350508 0.21100001 8.4863252e-39
0.058263745 0.042350512 0.21100001 8.025347e-39
0.059452351 0.042350512 0.21100001 8.3937708e-39
0.053594206 0.043454222 0.21100001 8.578518e-39
0.054528113 0.043369319 0.21100001 8.4863238e-39
0.055207316 0.043369323 0.21100001 8.5785208e-39
0.056395929 0.043369323 0.211 8.3941295e-39
0.057527941 0.043142915 0.21100001 8.3937694e-39
0.058263741 0.043029718 0.21100001 8.1175426e-39
0.059282549 0.043029718 0.21100001 8.4863252e-39
0.052999899 0.044557929 0.21100001 8.578518e-39
0.053509302 0.044557929 0.21100001 8.578518e-39
0.05452811 0.044557929 0.21100001 8.3941267e-39
0.05520732 0.044557929 0.21100001 8.4863238e-39
0.056169525 0.044501331 0.21100001 8.3934107e-39
0.052660294 0.045406938 0.21100001 8.5785208e-39
0.053509302 0.045406938 0.21100001 8.4863252e-39
0.05452811 0.045406938 0.21100001 8.3019339e-39
0.055207316 0.045406938 0.21100001 8.3019325e-39
0.056056324 0.045067333 0.21100001 8.3019339e-39
0.051896192 0.046510644 0.21100001 8.6696346e-39
0.052660298 0.046425745 0.21100001 8.4859622e-39
0.053509306 0.046425745 0.21100001 8.3941267e-39
0.054528113 0.046425745 0.21100001 8.2097355e-39
0.055037517 0.046255946 0.21100001 8.2097355e-39
0.05164149 0.047614351 0.21100001 8.7611114e-39
0.052660294 0.047614351 0.21100001 8.5770803e-39
0.053509302 0.047614351 0.21100001 8.5770803e-39
0.054358311 0.047444552 0.21100001 8.3012122e-39
0.050622679 0.048463359 0.21100001 9.590872e-39
0.05164149 0.048463363 0.21100001 8.7611114e-39
0.052660298 0.048463359 0.21100001 8.5770803e-39
0.053339504 0.048123758 0.21100001 8.7611114e-39
0.049943477 0.049651973 0.21100001 8.5777991e-39
0.050452877 0.049482167 0.21100001 8.9462215e-39
0.051599044 0.049439717 0.211 8.5770803e-39
0.052320693 0.049142566 0.21100001 8.6699947e-39
0.048924666 0.050840579 0.21100001 8.6699947e-39
0.049603872 0.05067078 0.21100001 8.5777991e-39
0.050452881 0.05067078 0.21100001 8.8536671e-39
0.051301885 0.050500978 0.21100001 8.3934079e-39
0.048652984 0.051587708 0.21100001 8.7621904e-39
0.049603872 0.051519789 0.21100001 8.5777991e-39
0.050452881 0.051180184 0.21100001 8.3930477e-39
0.04586824 0.052878194 0.21100001 8.854386e-39
0.046773851 0.052764993 0.21100001 9.3153642e-39
0.047430415 0.052606516 0.21100001 9.3150054e-39
0.048585061 0.052538596 0.211 8.8536671e-39
0.049264271 0.05236879 0.21100001 8.7621904e-39
0.044509832 0.053897001 0.21100001 9.4082787e-39
0.045528639 0.053727198 0.21100001 8.8547461e-39
0.046717249 0.053727202 0.21100001 9.3153642e-39
0.047396455 0.053727202 0.21100001 9.3153642e-39
0.048415262 0.053727202 0.21100001 8.7621904e-39
0.043830626 0.054576207 0.21100001 9.4990323e-39
0.044340029 0.054406404 0.21100001 9.7756206e-39
0.045528639 0.054406408 0.21100001 9.039136e-39
0.046717249 0.054406408 0.21100001 9.1309729e-39
0.047396459 0.054406404 0.21100001 9.0387773e-39
0.04824546 0.054236606 0.21100001 8.7621904e-39
0.042811818 0.055764817 0.21100001 9.2213707e-39
0.043660823 0.055595014 0.21100001 9.4979576e-39
0.044340029 0.055595014 0.21100001 9.4061207e-39
0.045528643 0.055595014 0.211 9.1302526e-39
0.046683289 0.055527098 0.21100001 9.0384157e-39
0.047226653 0.055255413 0.21100001 8.854386e-39
0.037717775 0.056783624 0.21100001 9.1302512e-39
0.042540133 0.056817584 0.21100001 9.0376955e-39
0.043660827 0.056783624 0.21100001 9.4986736e-39
0.044340029 0.056783624 0.21100001 9.1298911e-39
0.045528639 0.056783628 0.21100001 9.0376969e-39
0.041340206 0.057519432 0.21100001 8.9455026e-39
0.042472214 0.057462826 0.21100001 9.2228056e-39
0.043660823 0.05746283 0.21100001 9.4068353e-39
0.044340029 0.057462826 0.21100001 8.8536643e-39
0.045302238 0.057406228 0.21100001 8.853307e-39
0.040638357 0.058719359 0.21100001 8.9455026e-39
0.041283604 0.058651444 0.21100001 8.4845245e-39
0.042472214 0.05865144 0.211 8.8540273e-39
0.043660823 0.058651444 0.21100001 9.2224469e-39
0.04430607 0.05858352 0.21100001 9.0376983e-39
0.045189038 0.058311839 0.21100001 8.853307e-39
0.040604398 0.059670247 0.21100001 9.0376983e-39
0.041283604 0.059670247 0.21100001 8.3001332e-39
0.042472214 0.059670251 0.21100001 8.5767229e-39
0.043660823 0.059670247 0.21100001 8.8533084e-39
0.040604398 0.060349453 0.21100001 8.7621904e-39
0.041283604 0.060349453 0.21100001 8.1164622e-39
0.042472214 0.06034945 0.211 8.5770817e-39
0.043491021 0.060179651 0.21100001 8.8533098e-39
0.039755393 0.061538063 0.21100001 8.7621904e-39
0.040604398 0.061538063 0.21100001 8.6699947e-39
0.041283604 0.061538063 0.21100001 8.5777991e-39
0.042404294 0.061504103 0.21100001 8.854386e-39
0.039483711 0.062454991 0.21100001 8.6699947e-39
0.040604398 0.062387072 0.21100001 8.4856035e-39
0.041283604 0.062387072 0.21100001 8.7621904e-39
0.042245816 0.062273871 0.21100001 9.0387773e-39
0.037717775 0.063745484 0.21100001 8.3923289e-39
0.038312081 0.063490778 0.21100001 8.300492e-39
0.039415792 0.063405871 0.211 8.3012136e-39
0.040604398 0.063405879 0.21100001 8.0246281e-39
0.04124964 0.063337959 0.21100001 8.4856063e-39
0.036698967 0.064424686 0.21100001 8.2079376e-39
0.037547976 0.064594492 0.21100001 8.115742e-39
0.038227178 0.064594492 0.21100001 8.3001332e-39
0.039415792 0.064594492 0.21100001 8.116821e-39
0.040604398 0.064594492 0.21100001 8.209018e-39
0.041113801 0.064424686 0.21100001 8.3934107e-39
0.037717775 0.065443493 0.21100001 8.3923289e-39
0.03828378 0.065330289 0.21100001 8.5767201e-39
0.039415788 0.065443493 0.21100001 8.2086565e-39
0.040547799 0.065330289 0.21100001 8.116821e-39
0.039415788 0.066122703 0.21100001 8.3001332e-39
0.040434599 0.066122703 0.21100001 8.3001332e-39
0.039415788 0.068160318 0.21100001 8.116821e-39
0.054358311 0.06883952 0.21100001 8.6699947e-39
0.05449415 0.069518723 0.21100001 8.116821e-39
0.054471511 0.070650734 0.21100001 7.5640073e-39
0.058539879 0.03436213 0.21200001 8.1193419e-39
0.059392907 0.034191526 0.21200001 7.8420361e-39
0.060075331 0.034191526 0.21200001 7.7494804e-39
0.055980787 0.035726979 0.21200001 8.8569097e-39
0.056663211 0.035556376 0.21200001 8.303736e-39
0.057209153 0.035454012 0.21200001 8.2115403e-39
0.058369271 0.035385769 0.21200001 8.2108187e-39
0.05939291 0.035385769 0.21200001 7.841676e-39
0.060075331 0.035385769 0.21200001 7.7491203e-39
0.055707812 0.036477644 0.21200001 8.7647141e-39
0.056663211 0.0364094 0.21200001 8.3959316e-39
0.057175025 0.0364094 0.21200001 8.303736e-39
0.058369275 0.0364094 0.21200001 8.1193433e-39
0.059392907 0.0364094 0.21200001 7.9331514e-39
0.05472967 0.037319303 0.21200001 8.6725171e-39
0.055639576 0.037262429 0.21200001 8.5803229e-39
0.056663211 0.037262432 0.21200001 8.3959316e-39
0.057175025 0.037262432 0.21200001 8.5792439e-39
0.058369275 0.037262429 0.21200001 8.4870454e-39
0.059392907 0.037262432 0.21200001 8.0257043e-39
0.060075331 0.037262432 0.21200001 8.1175398e-39
0.052909877 0.038797889 0.21200001 8.3959288e-39
0.053797025 0.038524918 0.21200001 8.7647141e-39
0.054615933 0.038456678 0.21200001 8.6721598e-39
0.055639572 0.038456678 0.21200001 8.5799641e-39
0.056663211 0.038456675 0.21200001 8.6714395e-39
0.057118159 0.038229201 0.21200001 8.6714381e-39
0.058028061 0.038115464 0.21200001 8.5792439e-39
0.059734121 0.038115464 0.21200001 8.2097355e-39
0.060075331 0.038115464 0.21200001 8.3019311e-39
0.05263691 0.039548557 0.21200001 8.5792411e-39
0.053762905 0.039480314 0.21200001 8.9480236e-39
0.054615937 0.039480317 0.21200001 8.948025e-39
0.055571329 0.039412074 0.21200001 8.6714381e-39
0.050862599 0.040845163 0.21200001 8.8551077e-39
0.051613264 0.040572193 0.21200001 8.7632708e-39
0.052568659 0.040503949 0.21200001 8.6710766e-39
0.053762902 0.040503953 0.21200001 8.6714367e-39
0.054615933 0.040503949 0.21200001 8.6714367e-39
0.055298362 0.040333346 0.21200001 8.6714367e-39
0.04983896 0.041868798 0.21200001 8.8551077e-39
0.050691992 0.041698195 0.21200001 8.9473033e-39
0.051545024 0.041698191 0.21200001 9.0394989e-39
0.052568663 0.041698191 0.21200001 8.5788809e-39
0.053762905 0.041698191 0.21200001 8.4870454e-39
0.0545022 0.041641325 0.21200001 8.4870454e-39
0.049668357 0.042551227 0.21200001 9.0394975e-39
0.050691992 0.042551227 0.21200001 9.1316918e-39
0.051545024 0.042551227 0.21200001 8.9473005e-39
0.052568663 0.042551223 0.21200001 8.6703549e-39
0.053762905 0.042551227 0.21200001 8.3026528e-39
0.048815325 0.043916073 0.21200001 8.6707136e-39
0.049497753 0.043574862 0.21200001 8.8551049e-39
0.050691988 0.043574858 0.21200001 8.8551049e-39
0.051545024 0.043574858 0.21200001 8.7629092e-39
0.052568659 0.043574855 0.21200001 8.578518e-39
0.053592298 0.043404255 0.21200001 8.5785194e-39
0.048815325 0.044769101 0.21200001 8.6707136e-39
0.049497753 0.044769105 0.21200001 8.6707136e-39
0.050691992 0.044769101 0.21200001 8.7625491e-39
0.051545024 0.044769101 0.21200001 8.7629092e-39
0.052398056 0.044769105 0.21200001 8.6707136e-39
0.048815325 0.045622133 0.21200001 8.7621904e-39
0.049497753 0.045622136 0.21200001 9.2231685e-39
0.050691992 0.045622133 0.21200001 8.7621904e-39
0.051545024 0.045622133 0.21200001 8.6703563e-39
0.052227449 0.045622133 0.21200001 8.7625519e-39
0.04779169 0.046986982 0.21200001 9.4075598e-39
0.048474114 0.046645772 0.21200001 9.3146453e-39
0.04949775 0.046645772 0.21200001 9.4072011e-39
0.050691992 0.046645772 0.21200001 8.7618302e-39
0.051476784 0.046577528 0.21200001 8.7618302e-39
0.047621083 0.047669407 0.21200001 9.3153642e-39
0.048474111 0.047669407 0.21200001 8.9465816e-39
0.04949775 0.047669407 0.21200001 8.9465816e-39
0.050691992 0.047669407 0.21200001 8.6689157e-39
0.046512142 0.04826653 0.21200001 9.2231685e-39
0.047621083 0.048181228 0.21200001 9.1309729e-39
0.048474111 0.048181228 0.21200001 8.7618302e-39
0.049497753 0.048181225 0.21200001 8.9455026e-39
0.050635125 0.048124358 0.21200001 9.1298939e-39
0.04460704 0.049602944 0.21200001 9.4064808e-39
0.045471445 0.049443714 0.21200001 9.7752633e-39
0.046426836 0.049375471 0.21200001 9.6837865e-39
0.047621083 0.049375471 0.21200001 8.8543874e-39
0.048474114 0.049375471 0.21200001 8.6699947e-39
0.049455103 0.049332816 0.21200001 8.7614715e-39
0.050521385 0.049034256 0.21200001 9.4064808e-39
0.043424167 0.05046735 0.21200001 9.7752647e-39
0.044550173 0.050399106 0.21200001 9.4064808e-39
0.045403205 0.050399102 0.21200001 9.6830677e-39
0.046426836 0.050399106 0.21200001 9.3142852e-39
0.047621086 0.050399106 0.21200001 8.8536671e-39
0.048474111 0.050399102 0.21200001 8.854386e-39
0.049270272 0.050285365 0.21200001 8.6699947e-39
0.042673506 0.051252134 0.21200001 9.4986764e-39
0.043355927 0.051252138 0.21200001 9.4986778e-39
0.044550173 0.051252138 0.21200001 9.4064808e-39
0.045403205 0.051252138 0.21200001 9.683425e-39
0.046426836 0.051252138 0.21200001 9.1302512e-39
0.047621083 0.051252134 0.21200001 9.2220895e-39
0.048360374 0.051195268 0.21200001 8.9462229e-39
0.041763604 0.052560117 0.21200001 9.590872e-39
0.04267351 0.052446377 0.21200001 9.4064808e-39
0.043355927 0.05244638 0.21200001 9.4986764e-39
0.044550169 0.05244638 0.21200001 9.7752633e-39
0.045403201 0.05244638 0.21200001 9.4071997e-39
0.046384186 0.052403722 0.21200001 8.854386e-39
0.047564212 0.052218903 0.21200001 9.4986764e-39
0.040739965 0.053583752 0.21200001 9.3142852e-39
0.041649867 0.053470012 0.21200001 9.4064808e-39
0.042673506 0.053470016 0.21200001 9.4064808e-39
0.043355927 0.053470016 0.21200001 9.6830677e-39
0.044550173 0.053470016 0.21200001 9.4064808e-39
0.045403205 0.053128801 0.21200001 9.1306128e-39
0.040626228 0.054323044 0.21200001 9.1298939e-39
0.041649867 0.054323044 0.21200001 9.3142852e-39
0.042673506 0.054323047 0.21200001 9.3142852e-39
0.043355927 0.054323044 0.21200001 9.6830677e-39
0.044379566 0.05415244 0.21200001 9.4064808e-39
0.037896533 0.0558585 0.21200001 9.2224455e-39
0.038578957 0.055858504 0.21200001 9.038057e-39
0.03983007 0.055744767 0.21200001 9.6830677e-39
0.040626232 0.055517286 0.21200001 1.0328436e-38
0.041649863 0.055517286 0.21200001 1.0143681e-38
0.04267351 0.055517286 0.21200001 9.129175e-39
0.043128449 0.055289816 0.21200001 9.4057619e-39
0.037441585 0.056427192 0.21200001 9.4986736e-39
0.038578954 0.056540925 0.21200001 9.0376983e-39
0.0397732 0.056540929 0.21200001 1.0235881e-38
0.040626228 0.056540929 0.21200001 1.023624e-38
0.041649867 0.056540925 0.21200001 9.4983121e-39
0.042673506 0.056199715 0.21200001 9.129175e-39
0.037441581 0.05745082 0.21200001 9.4061207e-39
0.038578954 0.05722335 0.21200001 9.1298925e-39
0.039858505 0.057479259 0.21200001 9.4064808e-39
0.040626228 0.05756456 0.21200001 9.0376983e-39
0.041422393 0.057337087 0.21200001 9.0376983e-39
0.03983007 0.058815673 0.21200001 9.2220895e-39
0.040285017 0.058588199 0.21200001 9.0376983e-39
0.038664259 0.059782442 0.21200001 9.038057e-39
0.0397732 0.059611838 0.21200001 9.3142852e-39
0.036872897 0.060976684 0.21200001 8.8536629e-39
0.037669059 0.060862947 0.21200001 8.5777991e-39
0.038578957 0.060635474 0.21200001 8.7621904e-39
0.0397732 0.060635477 0.21200001 8.9465816e-39
0.03670229 0.061659109 0.21200001 8.5767201e-39
0.037555322 0.061659109 0.21200001 8.5767201e-39
0.038578954 0.061659109 0.21200001 8.7618302e-39
0.039602593 0.061659109 0.21200001 8.7621904e-39
0.035735521 0.062227797 0.21200001 8.6689143e-39
0.03670229 0.062170926 0.21200001 8.4845245e-39
0.037555322 0.06217093 0.21200001 8.5767201e-39
0.038578957 0.062170926 0.21200001 8.7618302e-39
0.039602593 0.062000319 0.21200001 8.6707136e-39
0.035678655 0.063365169 0.21200001 8.76111e-39
0.03670229 0.063365169 0.21200001 8.3923289e-39
0.037555322 0.063365169 0.21200001 8.3923289e-39
0.038323045 0.063279867 0.21200001 8.5770789e-39
0.035576291 0.064320564 0.21200001 8.5767201e-39
0.036645424 0.064275078 0.21200001 8.3923289e-39
0.037214108 0.064047597 0.21200001 8.2079376e-39
0.035849258 0.065071233 0.21200001 8.7611114e-39
0.03670229 0.065241836 0.21200001 8.6696332e-39
0.037214108 0.065412439 0.21200001 8.2090166e-39
0.036787596 0.06635078 0.21200001 8.946939e-39
0.037384711 0.066436082 0.21200001 8.4852434e-39
0.038237743 0.066094868 0.21200001 8.7611114e-39
0.054957148 0.069848202 0.21200001 8.116821e-39
0.055298362 0.069848202 0.21200001 8.2090166e-39
0.055298362 0.070189416 0.21200001 8.0246253e-39
0.01270648 0.0098410537 0.21300001 1.5949487e-38
0.0094496729 0.028182017 0.21300001 1.382935e-38
0.0094496729 0.029210482 0.21300001 1.382935e-38
0.055902023 0.032810111 0.21300001 8.2115403e-39
0.056473393 0.032695834 0.21300001 8.0271491e-39
0.057387579 0.032695834 0.21300001 8.0271477e-39
0.054873556 0.033838574 0.21300001 8.8569097e-39
0.055673476 0.033610027 0.21300001 8.3959316e-39
0.056416254 0.033495754 0.21300001 8.0271491e-39
0.057616133 0.033495754 0.21300001 8.0267875e-39
0.058530319 0.033610027 0.21300001 8.3026542e-39
0.054599296 0.034387089 0.21300001 8.8569097e-39
0.055559203 0.034352809 0.21300001 8.5803229e-39
0.056416258 0.034352809 0.21300001 8.303736e-39
0.057616133 0.034352805 0.21300001 8.0271463e-39
0.058644593 0.034181397 0.21300001 8.2108187e-39
0.052473806 0.035895504 0.21300001 9.1320561e-39
0.053365141 0.035621244 0.21300001 8.9491054e-39
0.05453074 0.035552684 0.21300003 8.7647141e-39
0.055559199 0.03555268 0.21300001 8.6725185e-39
0.056359116 0.035324138 0.21300001 8.6725185e-39
0.05727331 0.035209861 0.21300001 8.1193447e-39
0.051673889 0.036695424 0.21300001 9.2238902e-39
0.052473806 0.036581151 0.21300001 9.2242503e-39
0.053330854 0.036581151 0.21300001 8.8569097e-39
0.054530736 0.036581151 0.21300001 8.6725185e-39
0.055216379 0.036238328 0.21300001 8.7647141e-39
0.060358703 0.036581151 0.21300001 8.0249855e-39
0.050416872 0.037609614 0.21300001 9.4075598e-39
0.051445335 0.037438203 0.21300001 9.1320533e-39
0.052473806 0.037438203 0.21300001 8.9483837e-39
0.053330857 0.037438203 0.21300001 8.8569083e-39
0.054302186 0.037381064 0.21300001 8.7647127e-39
0.048531353 0.038980901 0.21300001 9.2231685e-39
0.049594097 0.038706642 0.21300001 9.4997554e-39
0.050245464 0.038638078 0.21300001 9.131333e-39
0.051445335 0.038638078 0.21300003 8.8554664e-39
0.052473802 0.038638081 0.21300001 8.6717968e-39
0.053273719 0.038409531 0.21300001 8.5803215e-39
0.047331478 0.039323721 0.21300001 9.8674589e-39
0.048359942 0.039323721 0.21300001 9.315367e-39
0.049559817 0.039323721 0.21300001 9.316083e-39
0.050245464 0.039323721 0.21300001 8.9473005e-39
0.051445335 0.039323721 0.21300001 8.6714339e-39
0.052130982 0.039323721 0.21300001 8.9480236e-39
0.046760108 0.040466461 0.21300001 9.3157243e-39
0.047331478 0.040352188 0.21300001 9.316083e-39
0.048359945 0.040352192 0.21300003 9.316083e-39
0.049559817 0.040352188 0.21300001 9.2238888e-39
0.050245464 0.040352188 0.21300001 8.9473019e-39
0.051331062 0.040237915 0.21300001 8.7629106e-39
0.045617368 0.041552063 0.21300001 9.4075612e-39
0.046645835 0.041552063 0.21300001 9.3157257e-39
0.047331478 0.041552063 0.21300001 9.2238902e-39
0.048359942 0.041552063 0.21300001 9.1316946e-39
0.049559817 0.041552063 0.21300001 8.8551077e-39
0.050188329 0.041494925 0.21300001 8.8551077e-39
0.045445956 0.042237706 0.21300001 9.2238874e-39
0.046645835 0.042237703 0.21300001 9.2238874e-39
0.047331478 0.042237706 0.21300001 9.2238874e-39
0.048359945 0.042237703 0.21300001 9.0394961e-39
0.049502682 0.042180568 0.21300001 8.8551063e-39
0.044760313 0.043523289 0.21300001 9.7756234e-39
0.04544596 0.043437585 0.21300001 9.4990366e-39
0.046645831 0.043437582 0.21300003 9.2231685e-39
0.047331478 0.043437582 0.21300001 8.8547461e-39
0.048359942 0.043437582 0.21300003 8.8551049e-39
0.049388409 0.043094762 0.21300001 8.7629092e-39
0.043788988 0.044580322 0.21300001 9.6834264e-39
0.044588901 0.044466045 0.21300001 9.9596546e-39
0.045445956 0.044466045 0.21300001 9.6830677e-39
0.046645835 0.044466048 0.21300001 9.590872e-39
0.047331478 0.044466048 0.21300001 9.0380584e-39
0.048188534 0.044466048 0.21300001 8.9469418e-39
0.042531971 0.045494512 0.21300001 1.0144402e-38
0.043560434 0.045323104 0.21300001 9.6830663e-39
0.044588901 0.0453231 0.21300001 9.6830677e-39
0.045445956 0.045323104 0.21300001 9.4986764e-39
0.046645835 0.045323104 0.21300001 9.4064808e-39
0.047331478 0.045323104 0.21300001 9.1298939e-39
0.04818853 0.045323104 0.21300001 9.3153642e-39
0.041846327 0.04669439 0.21300001 1.005185e-38
0.042360559 0.046522975 0.21300001 1.042027e-38
0.043560438 0.046522975 0.21300003 9.8670988e-39
0.044588905 0.046522975 0.21300001 9.5905119e-39
0.04544596 0.046522975 0.21300001 9.4064808e-39
0.046645831 0.046522975 0.21300003 9.4986764e-39
0.047331478 0.046522979 0.21300001 9.6830677e-39
0.048102826 0.046437271 0.21300001 9.6834278e-39
0.040817864 0.047894266 0.21300001 9.4997554e-39
0.041503504 0.047551446 0.21300001 1.005221e-38
0.042360559 0.047551446 0.21300001 9.9596546e-39
0.043560434 0.047551442 0.21300001 9.6830677e-39
0.044588901 0.047551442 0.21300001 9.4986764e-39
0.045445956 0.047551442 0.21300001 9.3142852e-39
0.046645831 0.047551442 0.21300001 9.1306128e-39
0.047331478 0.047208622 0.21300001 9.0387773e-39
0.040543605 0.048442781 0.21300001 9.4997554e-39
0.041503504 0.048408497 0.21300001 9.6837865e-39
0.042360559 0.048408493 0.21300001 9.5908734e-39
0.043560434 0.048408497 0.21300001 9.5908734e-39
0.044588901 0.048408493 0.21300001 9.4064808e-39
0.045445956 0.048408497 0.21300001 9.2220895e-39
0.046474423 0.048237085 0.21300001 8.9465816e-39
0.038760934 0.049951196 0.21300001 9.7752633e-39
0.039360873 0.049694076 0.21300001 9.9600133e-39
0.040475044 0.049608372 0.21300003 9.8678163e-39
0.041503504 0.049608368 0.21300001 9.5908706e-39
0.042360559 0.049608376 0.21300001 9.590872e-39
0.043560442 0.049608372 0.21300003 9.590872e-39
0.044474628 0.049379826 0.21300001 9.6830677e-39
0.045274548 0.049265552 0.21300001 9.1298939e-39
0.037732467 0.050979659 0.21300001 9.7745444e-39
0.038418114 0.050636835 0.21300001 9.4990366e-39
0.039275166 0.050636835 0.21300001 9.8681778e-39
0.040475041 0.050636839 0.21300001 9.4993939e-39
0.041503504 0.050636835 0.21300001 9.6837837e-39
0.042360559 0.050636835 0.21300001 9.4990337e-39
0.043217614 0.050294016 0.21300001 9.2220895e-39
0.037618194 0.051551029 0.21300001 9.6830677e-39
0.038418114 0.051493891 0.21300001 9.4071997e-39
0.039275166 0.051493891 0.21300001 9.4075598e-39
0.040475044 0.051493894 0.21300001 9.315004e-39
0.041503504 0.051493894 0.21300001 1.0329873e-38
0.042189151 0.051493891 0.21300001 9.9600105e-39
0.037458211 0.052556641 0.21300001 9.590872e-39
0.038418114 0.052522354 0.21300001 9.8674589e-39
0.039275166 0.052522358 0.21300001 9.8674589e-39
0.040475041 0.052522361 0.21300001 9.3142852e-39
0.041389231 0.052465219 0.21300001 9.9596532e-39
0.037389647 0.053208005 0.21300001 9.4071997e-39
0.038418114 0.053208001 0.21300001 1.0512828e-38
0.039275166 0.053208001 0.21300001 1.0143686e-38
0.040406477 0.053173721 0.21300001 9.4064808e-39
0.036275476 0.054493584 0.21300001 8.8540273e-39
0.037389651 0.054407876 0.21300003 9.4068409e-39
0.038418114 0.054407876 0.21300001 9.6830677e-39
0.039275166 0.05440788 0.21300001 9.4986764e-39
0.040132221 0.054407876 0.21300001 9.4986764e-39
0.036189772 0.055607751 0.21300001 9.039136e-39
0.037389647 0.055607751 0.21300001 9.5919496e-39
0.038418114 0.055607751 0.21300001 9.2220895e-39
0.039275166 0.055607751 0.21300001 8.9455026e-39
0.040132221 0.055436343 0.21300001 9.4986764e-39
0.034989893 0.056464806 0.21300001 9.1316946e-39
0.035675537 0.056293398 0.21300001 8.762912e-39
0.036189772 0.056293394 0.21300001 9.4082787e-39
0.037161097 0.056236256 0.21300001 1.0052565e-38
0.034818485 0.057321861 0.21300001 8.8547461e-39
0.035675537 0.057493273 0.21300001 8.946583e-39
0.036189772 0.057493269 0.21300001 9.7759822e-39
0.037046824 0.057493273 0.21300001 9.9592916e-39
0.038760934 0.057836093 0.21300001 9.1298939e-39
0.039275166 0.057836093 0.21300001 9.4064808e-39
0.036246907 0.05863601 0.21300001 9.9596532e-39
0.037389647 0.058693152 0.21300001 9.774543e-39
0.038418114 0.058693148 0.21300001 9.1295352e-39
0.039275166 0.058693148 0.21300001 9.2220895e-39
0.031561676 0.059550203 0.21300001 9.9592916e-39
0.03224732 0.059550203 0.21300001 9.4068367e-39
0.03636118 0.059378792 0.21300001 1.0328794e-38
0.037389647 0.059378788 0.21300001 9.4983163e-39
0.038418114 0.059378788 0.21300001 9.0376983e-39
0.039103754 0.05920738 0.21300001 9.2220895e-39
0.036224052 0.060647231 0.21300001 9.7759794e-39
0.037346791 0.060535818 0.21300003 8.7625505e-39
0.034989893 0.061949953 0.21300001 9.0376983e-39
0.035675537 0.06160713 0.21300001 9.0380556e-39
0.036132634 0.061492857 0.21300001 8.94586e-39
0.034715638 0.062498473 0.21300001 8.8536629e-39
0.035675537 0.062292777 0.21300001 8.9458586e-39
0.03396143 0.063492656 0.21300001 8.3001332e-39
0.034647074 0.063492656 0.21300001 8.5767201e-39
0.033618607 0.064178295 0.21300001 8.4848818e-39
0.03457851 0.064144015 0.21300001 8.4845245e-39
0.029676158 0.06572099 0.21300001 8.8540259e-39
0.032727271 0.065515302 0.21300001 8.9454998e-39
0.033618607 0.065378167 0.21300001 8.6692731e-39
0.034532797 0.065263897 0.21300001 8.8533056e-39
0.035675537 0.065378174 0.21300001 8.5767201e-39
0.03601836 0.06572099 0.21300001 8.853307e-39
0.029504746 0.066578045 0.21300001 8.6699947e-39
0.030533213 0.066578045 0.21300001 8.7621904e-39
0.031561676 0.066749461 0.21300001 8.7621904e-39
0.03259014 0.066578053 0.21300001 8.7614701e-39
0.033618607 0.066578045 0.21300001 8.484163e-39
0.03430425 0.066578045 0.21300001 8.9458586e-39
0.03636118 0.066749461 0.21300001 1.0236595e-38
0.029590452 0.067177981 0.21300001 8.4848846e-39
0.030418938 0.067206554 0.21300001 8.4852448e-39
0.031447399 0.067206554 0.21300001 8.4856035e-39
0.03259014 0.067263685 0.21300001 8.5777991e-39
0.033618607 0.067263693 0.21300001 8.2075789e-39
0.034418523 0.067320831 0.21300001 8.6692731e-39
0.03259014 0.068206452 0.21300001 8.578155e-39
0.033790018 0.06837786 0.21300001 8.1153846e-39
0.03430425 0.068120748 0.21300001 8.5767229e-39
0.058849208 0.021698842 0.215 8.2097355e-39
0.059368268 0.021698842 0.215 8.3019311e-39
0.057811085 0.022390924 0.215 9.316083e-39
0.05850317 0.022217903 0.215 8.8551049e-39
0.059368268 0.022217903 0.215 8.2097341e-39
0.060579415 0.022217905 0.21500002 8.2097341e-39
0.061617535 0.022217903 0.215 8.2104543e-39
0.062309615 0.022390924 0.215 8.1182601e-39
0.057638064 0.023429044 0.21500002 9.4079185e-39
0.058503166 0.023429045 0.21500002 9.2235287e-39
0.059368268 0.023429045 0.21500002 8.486321e-39
0.060579419 0.023429045 0.21500002 7.9335087e-39
0.061617535 0.023429044 0.21500002 7.9338674e-39
0.06248264 0.023429045 0.21500002 7.9338688e-39
0.063347735 0.023602065 0.215 7.9338702e-39
0.0093653826 0.024813209 0.215 1.2446063e-38
0.057638064 0.024640189 0.215 9.2238874e-39
0.058503166 0.024640188 0.215 8.9473005e-39
0.059368268 0.024640188 0.215 8.6710737e-39
0.060579415 0.024640189 0.21500002 8.1182601e-39
0.061617535 0.024640188 0.215 7.8416732e-39
0.062482636 0.024640188 0.215 7.7494776e-39
0.063347735 0.024640188 0.215 7.8416732e-39
0.057811085 0.025159249 0.215 9.1316946e-39
0.05850317 0.025332268 0.215 8.7629106e-39
0.059368268 0.025332268 0.215 8.5792383e-39
0.060579415 0.02533227 0.21500002 8.3026528e-39
0.061617535 0.025332268 0.215 7.9338716e-39
0.062482636 0.025332268 0.215 7.6572834e-39
0.063347735 0.025332268 0.215 7.7494776e-39
0.052447453 0.026889453 0.215 8.6714339e-39
0.058618516 0.026312718 0.21499999 8.5792411e-39
0.059578255 0.026474647 0.21444446 8.578518e-39
0.060642082 0.026419953 0.214 8.3026514e-39
0.061503161 0.026419953 0.214 7.9338688e-39
0.062355399 0.026440263 0.21416669 7.7494776e-39
0.063347735 0.026543414 0.21499999 7.657282e-39
0.0090193413 0.027927576 0.215 1.3829347e-38
0.051467005 0.027812228 0.21499999 9.1316918e-39
0.052620474 0.027754553 0.21500002 8.9476606e-39
0.053312555 0.027927576 0.215 9.316083e-39
0.05995322 0.027108815 0.21400002 8.4863224e-39
0.060642082 0.027453246 0.21400002 8.2100956e-39
0.061503161 0.027453246 0.21400002 8.0260645e-39
0.062364239 0.027453246 0.21400002 7.8416732e-39
0.063053101 0.027108815 0.21400002 7.7494776e-39
0.008673301 0.028446637 0.215 1.3921544e-38
0.010157218 0.028459936 0.21466668 1.382935e-38
0.049592618 0.028533146 0.215 9.777064e-39
0.050544232 0.028446637 0.215 9.5926699e-39
0.051409334 0.028446637 0.215 9.2242475e-39
0.052620474 0.028446637 0.21500002 9.0398563e-39
