# .PCD v0.7 - Point Cloud Data file format
VERSION 0.7
FIELDS x y z rgb
SIZE 4 4 4 4
TYPE F F F F
COUNT 1 1 1 1
WIDTH 985
HEIGHT 1
VIEWPOINT 0 0 0 1 0 0 0
POINTS 985
DATA ascii
0.048517019 0.051464595 0.22220001 1.0606825e-38
0.049510054 0.051525846 0.22200002 1.0606825e-38
0.050581977 0.051525846 0.22200002 1.0606825e-38
0.051296588 0.051525846 0.22200002 1.0606825e-38
0.052427683 0.051584072 0.22225001 1.0790497e-38
0.053322237 0.05139903 0.223 1.0974887e-38
0.043452028 0.052296322 0.223 1.0790497e-38
0.044708237 0.052296322 0.223 1.0974888e-38
0.045426071 0.052296322 0.223 1.0790856e-38
0.04649286 0.05245636 0.22266668 1.0698662e-38
0.047544863 0.052419115 0.22200002 1.0606465e-38
0.048616786 0.052419119 0.22200002 1.0606465e-38
0.049510054 0.052419119 0.22200002 1.0422075e-38
0.050581977 0.052419119 0.22200002 1.0698662e-38
0.051296584 0.052419119 0.22200002 1.0790857e-38
0.052189857 0.052419119 0.22200002 1.0790497e-38
0.039623585 0.053612348 0.223 1.0790494e-38
0.040437132 0.053444851 0.223 1.0790494e-38
0.041477989 0.053373069 0.223 1.0790496e-38
0.042195827 0.053373069 0.223 1.0790496e-38
0.043452024 0.053373069 0.22300002 1.06983e-38
0.044708237 0.053373069 0.223 1.0790497e-38
0.045438908 0.053461768 0.22262503 1.051391e-38
0.046298441 0.053422906 0.22214286 1.0606106e-38
0.047544863 0.053491034 0.22200002 1.051391e-38
0.048616786 0.053491041 0.22200002 1.0514269e-38
0.049474321 0.053419579 0.22200003 1.0422075e-38
0.050403323 0.053312384 0.22200002 1.0790497e-38
0.051332317 0.053419579 0.22200003 1.0882693e-38
0.052148581 0.053570818 0.22233336 1.0790497e-38
0.038666476 0.054689098 0.223 1.0606103e-38
0.039503947 0.054629277 0.223 1.0606103e-38
0.040401239 0.054629281 0.223 1.0606103e-38
0.041477989 0.054629277 0.223 1.0606103e-38
0.042195823 0.054629277 0.223 1.0698299e-38
0.043526284 0.054670844 0.22285715 1.0606103e-38
0.044607863 0.05468531 0.22250003 1.0513907e-38
0.045401022 0.054741614 0.22200002 1.0421712e-38
0.046294287 0.054741614 0.22200002 1.0513907e-38
0.047544863 0.05474161 0.22200002 1.0421715e-38
0.048616786 0.05456296 0.22200002 1.0422073e-38
0.037350446 0.055526569 0.223 1.069722e-38
0.0384272 0.055347111 0.223 1.069722e-38
0.039503947 0.055347107 0.223 1.0698299e-38
0.040401239 0.055347107 0.223 1.0698299e-38
0.041547984 0.055476122 0.22280002 1.0513549e-38
0.042446516 0.055521488 0.22257146 1.0605384e-38
0.043500513 0.055479139 0.22233336 1.0789775e-38
0.044507753 0.055634882 0.22200002 1.0513907e-38
0.045401022 0.055634882 0.22200002 1.0513907e-38
0.046294287 0.055634882 0.22200002 1.0606103e-38
0.047187556 0.055277575 0.22200002 1.0698301e-38
0.034838028 0.056962233 0.223 1.042027e-38
0.035555862 0.056962233 0.223 1.0328074e-38
0.03684796 0.056675099 0.223 1.0973445e-38
0.037350446 0.056603316 0.223 1.0788694e-38
0.0384272 0.05660332 0.22300002 1.0696501e-38
0.039503947 0.056603316 0.223 1.0789415e-38
0.040401239 0.056603316 0.223 1.0605024e-38
0.041495629 0.056488939 0.22237501 1.0236241e-38
0.042721216 0.056528151 0.22200002 1.069722e-38
0.043495383 0.056468602 0.22200002 1.069722e-38
0.044507753 0.056349497 0.22200002 1.0329156e-38
0.034479111 0.05732115 0.223 1.0604661e-38
0.035555862 0.05732115 0.223 1.042027e-38
0.036812071 0.05732115 0.223 1.0973444e-38
0.037350446 0.05732115 0.223 1.0789052e-38
0.038427196 0.05732115 0.223 1.0604661e-38
0.039564002 0.057473674 0.22266668 1.0789773e-38
0.04039998 0.057549935 0.22250001 1.0789414e-38
0.041470643 0.057421416 0.22200002 1.0420993e-38
0.042661667 0.057302315 0.22200002 1.0328797e-38
0.032564893 0.058637176 0.223 1.0881248e-38
0.033617713 0.058469683 0.223 1.0328074e-38
0.034479111 0.058397904 0.223 1.042027e-38
0.035555862 0.058397904 0.22300002 1.0881248e-38
0.036812071 0.0583979 0.223 1.0604662e-38
0.03753468 0.05835589 0.22250001 1.0604302e-38
0.038385499 0.058221698 0.22250003 1.0696858e-38
0.039433368 0.058259547 0.22220001 1.0697577e-38
0.040398721 0.058314689 0.22200002 1.0789773e-38
0.041399181 0.058278956 0.22200003 1.0790133e-38
0.030889945 0.059833568 0.223 1.0972365e-38
0.03184706 0.05971393 0.223 1.0788332e-38
0.032505073 0.059654109 0.223 1.0512105e-38
0.033581819 0.059654109 0.223 1.0789771e-38
0.034479111 0.059654109 0.223 1.0789412e-38
0.035469469 0.05966894 0.22283335 1.060502e-38
0.036533542 0.059643261 0.22212501 1.0143683e-38
0.037718914 0.059565257 0.22200002 1.0236597e-38
0.038433526 0.059565265 0.22200002 1.0144402e-38
0.039505452 0.059565261 0.22200002 1.0236597e-38
0.040327258 0.059493799 0.22200003 1.0328793e-38
0.041113336 0.059207954 0.22200002 1.0513184e-38
0.030602813 0.060407836 0.223 1.0603582e-38
0.031787239 0.060371943 0.223 1.0603582e-38
0.032505073 0.060371943 0.223 1.0419551e-38
0.033581819 0.060371943 0.223 1.0696857e-38
0.03451965 0.060496449 0.22280002 1.0697215e-38
0.035213601 0.060548246 0.22220001 1.042063e-38
0.036468342 0.06063718 0.22200002 1.0052206e-38
0.037718914 0.060637183 0.22200002 1.0144402e-38
0.038433529 0.060637183 0.22200002 1.0144402e-38
0.039505452 0.060637183 0.22200002 1.0052206e-38
0.040041413 0.060279876 0.22200002 1.0236597e-38
0.029454282 0.061628152 0.223 1.0327711e-38
0.030531028 0.061628155 0.22300002 1.0235518e-38
0.031787239 0.061628152 0.223 1.0051486e-38
0.032505073 0.061628152 0.223 1.0051486e-38
0.033581819 0.061628152 0.223 1.0235879e-38
0.034426559 0.061478209 0.22220001 1.0328074e-38
0.035217766 0.061530448 0.22200002 1.0144402e-38
0.036468342 0.061530452 0.22200002 1.0052206e-38
0.037718914 0.061530448 0.22200002 1.0144402e-38
0.038433529 0.061530448 0.22200002 9.9600105e-39
0.039326798 0.061351795 0.22200002 1.0052206e-38
0.02945428 0.062704898 0.223 1.014368e-38
0.030531028 0.062704898 0.223 1.0051484e-38
0.031787239 0.062704898 0.223 1.0051484e-38
0.032635137 0.062730275 0.22266668 1.014368e-38
0.033468675 0.062672667 0.22225001 9.8678149e-39
0.034503151 0.062602371 0.22200002 9.9600105e-39
0.035217766 0.062602371 0.22200002 1.0052206e-38
0.036468342 0.062602364 0.22200002 1.0144402e-38
0.037718914 0.062602371 0.22200002 1.0052206e-38
0.038254876 0.062423717 0.22200002 1.0052206e-38
0.028736446 0.063781649 0.223 9.7748976e-39
0.029274821 0.063422732 0.223 9.6827019e-39
0.030531028 0.063422732 0.22300002 9.9596504e-39
0.031787239 0.063422732 0.223 1.0236595e-38
0.032595944 0.06332323 0.22240002 1.0052203e-38
0.033431228 0.063316986 0.22200002 1.0052206e-38
0.034503151 0.063316986 0.22200002 1.0052206e-38
0.035217766 0.063316986 0.22200002 9.9600105e-39
0.036468342 0.063316979 0.22200002 1.0144402e-38
0.037659362 0.063257433 0.22200002 1.0052206e-38
0.028736446 0.064678937 0.223 9.4986722e-39
0.029274821 0.064678937 0.223 9.3139208e-39
0.030531028 0.064678937 0.223 9.6830635e-39
0.031715833 0.064712442 0.22250003 9.6837823e-39
0.032716617 0.064567558 0.22200002 9.5915853e-39
0.033431228 0.064567558 0.22200002 9.5915867e-39
0.034503151 0.064567558 0.22200002 9.6837837e-39
0.035217766 0.064567558 0.22200002 9.9603706e-39
0.036468342 0.064567558 0.22200002 9.8681736e-39
0.037540261 0.064210251 0.22200002 1.0052206e-38
0.028736446 0.065576233 0.223 9.3142824e-39
0.029274821 0.065576233 0.223 9.2220867e-39
0.030448392 0.065586507 0.22283335 9.5908678e-39
0.031466041 0.065818138 0.22200002 9.31536e-39
0.032716617 0.065818131 0.22200002 9.4079157e-39
0.033431228 0.065818131 0.22200002 9.5001113e-39
0.034503151 0.065818131 0.22200002 9.5001113e-39
0.035158213 0.065758578 0.22200002 9.5919468e-39
0.036468342 0.065639481 0.22200002 9.4990323e-39
0.028616806 0.066533349 0.223 9.4061179e-39
0.029355759 0.066521101 0.22280002 9.314281e-39
0.030206794 0.06648501 0.22220001 9.4986736e-39
0.031466041 0.066532746 0.22200002 9.4990323e-39
0.032716617 0.066532746 0.22200002 9.6834236e-39
0.033431228 0.066532746 0.22200002 9.591228e-39
0.034443598 0.066473193 0.22200002 9.4990323e-39
0.028556988 0.067370817 0.223 9.6827019e-39
0.029419754 0.067486122 0.22220001 9.5905077e-39
0.030215465 0.067604676 0.22200002 9.5905063e-39
0.031466041 0.067604676 0.22200002 9.3142782e-39
0.032716617 0.067604676 0.22200002 9.4990309e-39
0.033252575 0.067426018 0.22200002 9.4990295e-39
0.027659696 0.068447568 0.223 1.0881245e-38
0.028514301 0.068463825 0.22266668 1.014368e-38
0.029500851 0.068497941 0.22200002 9.5905063e-39
0.030215465 0.068497941 0.22200002 9.5905063e-39
0.031376716 0.068319291 0.22200002 9.2217238e-39
0.026941862 0.069883235 0.223 9.8660114e-39
0.027609438 0.069471076 0.22260001 9.7745374e-39
0.028428929 0.069569863 0.22200002 9.4061164e-39
0.02950085 0.069569863 0.22200002 9.406115e-39
0.030036811 0.069212556 0.22200002 9.4983107e-39
0.025865112 0.070959985 0.223 9.5905063e-39
0.026582945 0.070601068 0.223 9.5901462e-39
0.027480237 0.070601068 0.223 9.0373325e-39
0.028428929 0.070641778 0.22200002 9.128452e-39
0.029322198 0.070641778 0.22200002 9.3128432e-39
0.026702583 0.071438543 0.223 9.2220839e-39
0.027480237 0.071498357 0.223 8.760747e-39
0.028377529 0.071318902 0.223 9.128452e-39
0.04581004 -0.024261231 0.22400001 1.8300825e-38
0.046531092 -0.024441494 0.22400001 1.5993054e-38
0.047432408 -0.024261231 0.22400001 1.5804337e-38
0.040582411 -0.023179654 0.22400001 1.7746939e-38
0.041603904 -0.023299828 0.22400002 1.7471787e-38
0.042204779 -0.023359917 0.22400001 1.7932768e-38
0.045449514 -0.023179654 0.22400001 1.7193405e-38
0.046531092 -0.023359917 0.22400001 1.7284876e-38
0.047432408 -0.023359917 0.22400001 1.562318e-38
0.048333723 -0.023359917 0.22400001 1.5077195e-38
0.0406425 -0.022578776 0.22400002 1.7838417e-38
0.041483726 -0.022638865 0.22400001 1.7285958e-38
0.042204779 -0.022638865 0.22400001 1.7748737e-38
0.046531092 -0.022819128 0.22400001 1.6456196e-38
0.047432408 -0.022819128 0.22400001 1.5347675e-38
0.048513986 -0.022819128 0.22400001 1.4983928e-38
0.039681096 -0.021557286 0.22400001 1.8389077e-38
0.040582411 -0.021557286 0.22400001 1.6639871e-38
0.041363552 -0.021617373 0.22400002 1.691753e-38
0.050857406 -0.020295445 0.22400001 1.4520082e-38
0.051578458 -0.020295445 0.22400001 1.5260164e-38
0.050857406 -0.019934919 0.22400001 1.4059823e-38
0.051578458 -0.019754656 0.22400001 1.4154177e-38
0.037878465 -0.018132288 0.22400001 1.7378165e-38
0.044187672 -0.018312551 0.22400001 1.6823184e-38
0.037878465 -0.017411236 0.22400001 1.6637722e-38
0.038599517 -0.017771762 0.22400001 1.5623934e-38
0.044007409 -0.017411236 0.22400001 1.6269297e-38
0.051938985 -0.017411236 0.22400001 1.4334626e-38
0.052299511 -0.01705071 0.22400001 1.6090656e-38
0.03643636 -0.016329657 0.22400001 1.5806874e-38
0.037397761 -0.016449833 0.22400002 1.5436293e-38
0.037157413 -0.015608605 0.22400001 1.4977476e-38
0.04581004 -0.015248079 0.22400001 1.5064993e-38
0.050136354 -0.015248079 0.22400001 1.4249262e-38
0.037157413 -0.01470729 0.22400001 1.5160787e-38
0.045449514 -0.014887553 0.22400001 1.5157191e-38
0.036165964 -0.01353558 0.22400001 1.451506e-38
0.037157413 -0.013805974 0.22400001 1.4975318e-38
0.040762674 -0.013084921 0.22400001 1.5438091e-38
0.041483726 -0.013445448 0.22400001 1.5717193e-38
0.042204779 -0.013265185 0.22400001 1.5250823e-38
0.036256097 -0.012724395 0.22400001 1.405552e-38
0.037698202 -0.012003343 0.22400001 1.3687456e-38
0.038839865 -0.012243693 0.22400002 1.4516855e-38
0.039500833 -0.012724395 0.22400001 1.4884915e-38
0.042745568 -0.012363869 0.22400001 1.4421784e-38
0.037698202 -0.011462553 0.22400001 1.3227558e-38
0.038599517 -0.011642816 0.22400001 1.3503788e-38
0.045449514 -0.011642816 0.22400001 1.3870049e-38
0.037698202 -0.010561238 0.22400001 1.2951693e-38
0.038599517 -0.010380975 0.22400001 1.2676185e-38
0.038599517 -0.0098401858 0.22400001 1.2768381e-38
0.047252145 -0.0096599227 0.22400001 1.203406e-38
0.037878465 -0.0087586073 0.22400001 1.2859858e-38
0.047252145 -0.0085783442 0.22400001 1.130009e-38
0.03643636 -0.0069559766 0.22400001 1.2309917e-38
0.064917922 0.02765453 0.22400001 1.2910994e-38
0.064677574 0.028495759 0.22400002 1.2081233e-38
0.065398626 0.028495759 0.22400002 1.1989037e-38
0.066360027 0.028736109 0.22400001 1.2542214e-38
0.063836344 0.029457161 0.22400001 1.1435864e-38
0.064557396 0.029276898 0.22400001 1.1804646e-38
0.065458715 0.029276898 0.22400001 1.1528062e-38
0.066540286 0.029276898 0.22400001 1.2081955e-38
0.067081079 0.029457161 0.22400001 1.2358542e-38
0.06369213 0.030610844 0.22400001 1.115928e-38
0.064557396 0.03053874 0.22399999 1.0882693e-38
0.065458708 0.03053874 0.22399999 1.0883053e-38
0.066540286 0.03053874 0.22399999 1.1528782e-38
0.067261346 0.03053874 0.22399999 1.198976e-38
0.068478115 0.030583806 0.22399999 1.281916e-38
0.062394239 0.031980842 0.22400001 1.1067803e-38
0.063475817 0.031620316 0.22399999 1.1067444e-38
0.064557396 0.031620316 0.22400001 1.0790857e-38
0.065458715 0.031620316 0.22400001 1.0699022e-38
0.066540286 0.031620316 0.22400001 1.0791219e-38
0.067261338 0.031620316 0.22400001 1.0791217e-38
0.068433054 0.031440053 0.22400001 1.0882691e-38
0.061673187 0.032701895 0.22400001 1.1067803e-38
0.062213972 0.032521632 0.22400001 1.0975607e-38
0.063475817 0.032521632 0.22399999 1.0975607e-38
0.064557396 0.032521632 0.22400001 1.0791216e-38
0.065458715 0.032521632 0.22400001 1.0606827e-38
0.066540286 0.032521632 0.22400001 1.0606827e-38
0.067261338 0.032341368 0.22400001 1.0422435e-38
0.068523191 0.032521632 0.22399999 9.5919538e-39
0.06972494 0.032581721 0.22400002 9.5004771e-39
0.06083196 0.033543121 0.22400002 1.1159998e-38
0.061673187 0.033422947 0.22400001 1.1067803e-38
0.062213976 0.033422947 0.22400001 1.0975607e-38
0.063475817 0.033422947 0.22399999 1.0883412e-38
0.064557396 0.033422947 0.22400001 1.0883412e-38
0.065458715 0.033062421 0.22400001 1.0606827e-38
0.068523191 0.033062421 0.22400002 1.0145486e-38
0.069785029 0.033062421 0.22400001 9.777064e-39
0.070506081 0.033062421 0.22400001 1.0238042e-38
0.059870556 0.034504525 0.22400001 1.134439e-38
0.060591608 0.034324262 0.22399999 1.1159998e-38
0.061673187 0.034324262 0.22400001 1.1067803e-38
0.062213976 0.034324262 0.22400001 1.0975607e-38
0.063385688 0.034234129 0.22400001 1.069902e-38
0.058668803 0.035826456 0.22400002 1.1159278e-38
0.059510034 0.035586104 0.22399999 1.1067801e-38
0.060546543 0.035541039 0.22399999 1.0975606e-38
0.061673187 0.035405841 0.22400001 1.0791216e-38
0.062213976 0.035225578 0.22400001 1.0975607e-38
0.057707399 0.036307156 0.22400001 1.1528062e-38
0.058608714 0.036307156 0.22400001 1.1343668e-38
0.05951003 0.036307156 0.22400001 1.1159638e-38
0.060231082 0.036307156 0.22400001 1.1252194e-38
0.056986347 0.037749261 0.22400001 1.1251475e-38
0.05752714 0.037388731 0.22399999 1.1435865e-38
0.058608714 0.037388735 0.22399999 1.1159277e-38
0.059510034 0.037388735 0.22399999 1.1251474e-38
0.060231082 0.037028208 0.22400001 1.115928e-38
0.055634376 0.038740709 0.22400001 1.0882693e-38
0.05680608 0.038650576 0.22400001 1.115928e-38
0.057527136 0.038650576 0.22400001 1.1251475e-38
0.058608718 0.038650576 0.22400001 1.0974888e-38
0.059149504 0.038470313 0.22400001 1.115928e-38
0.053741612 0.039551891 0.22400001 1.1343668e-38
0.054282404 0.039371628 0.22400001 1.1067083e-38
0.055544239 0.039371625 0.22399999 1.1528061e-38
0.05680608 0.039371628 0.22400001 1.1159277e-38
0.057527136 0.039371628 0.22400001 1.1159278e-38
0.058428451 0.039191365 0.22400001 1.0882693e-38
0.051938985 0.040993996 0.22400001 1.2264545e-38
0.052539859 0.040873822 0.22400002 1.2080151e-38
0.053561345 0.04063347 0.22399999 1.1803564e-38
0.054282397 0.04063347 0.22399999 1.1158556e-38
0.055544239 0.04063347 0.22400001 1.1251471e-38
0.056806076 0.04063347 0.22399999 1.088269e-38
0.057491086 0.040561367 0.22400001 1.0974887e-38
0.051578458 0.041715048 0.22400001 1.3094662e-38
0.052479774 0.041715048 0.22400001 1.3002463e-38
0.053561348 0.041715048 0.22400001 1.1987953e-38
0.054282401 0.041715048 0.22400001 1.1066721e-38
0.055544242 0.041715045 0.22400002 1.0790497e-38
0.056806084 0.041715048 0.22400001 1.1159277e-38
0.050617054 0.042556275 0.22399999 1.2264543e-38
0.051578462 0.042436104 0.22399999 1.1987954e-38
0.052479774 0.042436104 0.22399999 1.1987595e-38
0.053561345 0.042436104 0.22399999 1.1343306e-38
0.054282408 0.042436104 0.22399999 1.0790496e-38
0.055544242 0.042255837 0.22399999 1.0974887e-38
0.056745995 0.042195749 0.22400002 1.1343668e-38
0.048694249 0.043878205 0.22400001 1.1158201e-38
0.049295127 0.043758031 0.22400002 1.1434787e-38
0.05049688 0.043697942 0.22399999 1.134259e-38
0.051578458 0.043697938 0.22400001 1.1066004e-38
0.052479774 0.043697938 0.22400001 1.0973808e-38
0.053381085 0.043517679 0.22400001 1.1066002e-38
0.047612671 0.044959784 0.22400001 9.9589357e-39
0.048513986 0.044599257 0.22400001 1.1434787e-38
0.049235038 0.044599257 0.22400001 1.1434787e-38
0.050496876 0.044599254 0.22399999 1.1067084e-38
0.051578458 0.044599257 0.22400001 1.0790497e-38
0.052299511 0.044238731 0.22400001 1.0790497e-38
0.046891619 0.045680836 0.22400001 1.1251475e-38
0.047432408 0.045500569 0.22400001 1.1066005e-38
0.048513986 0.045500569 0.22400001 1.161882e-38
0.049235038 0.045500569 0.22400001 1.1342952e-38
0.05049688 0.045500573 0.22399999 1.0790497e-38
0.051217932 0.04532031 0.22400001 1.0882693e-38
0.04581004 0.046762414 0.22400001 1.2265624e-38
0.046531092 0.046401888 0.22400001 1.2265624e-38
0.047432408 0.046401888 0.22400001 1.2634045e-38
0.048513986 0.046401888 0.22400001 1.171173e-38
0.049235038 0.046401888 0.22400001 1.1251472e-38
0.050316617 0.046041362 0.22400001 1.0606106e-38
0.045521621 0.047339261 0.22400001 1.1250754e-38
0.046531092 0.047303203 0.22400001 1.2540769e-38
0.047432408 0.047303207 0.22400001 1.2264181e-38
0.048513986 0.047303207 0.22400001 1.1619176e-38
0.049054775 0.04712294 0.22400001 1.152698e-38
0.042745568 0.048925571 0.22400001 1.152698e-38
0.043646883 0.048745308 0.22400001 1.1526982e-38
0.044187669 0.048565049 0.22399999 1.1342951e-38
0.04544951 0.048565045 0.22400001 1.1343309e-38
0.046531092 0.048565045 0.22399999 1.1251115e-38
0.047396354 0.048492938 0.22400001 1.1435504e-38
0.048333723 0.048204519 0.22400001 1.1251472e-38
0.042565305 0.049286097 0.22400002 1.1250395e-38
0.043646883 0.049286097 0.22400001 1.1434787e-38
0.044187672 0.049286097 0.22400001 1.1434787e-38
0.045449514 0.049286097 0.22400002 1.1066005e-38
0.046531092 0.049286097 0.22400001 1.0974169e-38
0.039681096 0.050728202 0.22400001 1.1711372e-38
0.0406425 0.050608028 0.22400002 1.2633684e-38
0.041555829 0.050439782 0.22400001 1.171137e-38
0.042565305 0.050367679 0.22400001 1.1251115e-38
0.043646883 0.050367672 0.22400002 1.115928e-38
0.044187669 0.050367672 0.22399999 1.1159278e-38
0.045346506 0.050316174 0.22399999 1.0790497e-38
0.046170566 0.050187413 0.22400001 1.0698301e-38
0.037878465 0.05180978 0.22400001 1.1618813e-38
0.03877978 0.051629521 0.22400001 1.1342589e-38
0.039500833 0.051629517 0.22400001 1.152698e-38
0.040582411 0.051629517 0.22400001 1.1158198e-38
0.041483726 0.051629517 0.22400001 1.1250393e-38
0.042565305 0.051629514 0.22399999 1.0882691e-38
0.043646883 0.051629517 0.22400001 1.1067084e-38
0.044187672 0.051629517 0.22400001 1.0974888e-38
0.045269251 0.051449254 0.22400001 1.069902e-38
0.037590045 0.052386619 0.22400001 1.1434423e-38
0.03877978 0.05235057 0.22400001 1.1158198e-38
0.039500833 0.052350566 0.22400001 1.1342589e-38
0.040582411 0.05235057 0.22400001 1.152698e-38
0.041483726 0.05235057 0.22400001 1.134259e-38
0.042493202 0.05231452 0.22400001 1.0790497e-38
0.043646883 0.052170306 0.22400001 1.0882693e-38
0.044007409 0.052170306 0.22400001 1.0790497e-38
0.036316186 0.053852763 0.22400002 1.1434422e-38
0.037517939 0.053612411 0.22400001 1.1066359e-38
0.03877978 0.053612411 0.22399999 1.0790494e-38
0.039440747 0.053372059 0.22400002 1.0790494e-38
0.040402148 0.053251885 0.22400001 1.0974885e-38
0.035535045 0.054693989 0.22400001 1.1803204e-38
0.036256097 0.054693989 0.22400001 1.125003e-38
0.037517939 0.054693986 0.22400002 1.0698299e-38
0.038599517 0.054693989 0.22400001 1.0698299e-38
0.052660037 0.054693989 0.22400001 1.069902e-38
0.031388991 0.055775568 0.22400001 1.1156756e-38
0.032470569 0.055595309 0.22399999 1.0881248e-38
0.033552147 0.055595301 0.22400001 1.0881248e-38
0.034489516 0.055487145 0.22400001 1.0973444e-38
0.035535045 0.055415038 0.22399999 1.1065639e-38
0.036256097 0.055415038 0.22399999 1.1065639e-38
0.037397761 0.055294868 0.22399999 1.0789773e-38
0.031208728 0.056676883 0.22400001 1.060466e-38
0.032470569 0.056676883 0.22399999 1.0789052e-38
0.033552147 0.056676883 0.22400001 1.0881248e-38
0.034453463 0.05667688 0.22400001 1.0881248e-38
0.035535045 0.05667688 0.22400001 1.0696857e-38
0.036196008 0.056616794 0.22400002 1.0881248e-38
0.029826714 0.057698373 0.22400002 1.0972003e-38
0.03066794 0.057578199 0.22400001 1.0420268e-38
0.031208729 0.057578199 0.22400001 1.0789051e-38
0.032470569 0.057578195 0.22399999 1.0696857e-38
0.033552147 0.057578199 0.22400001 1.0696857e-38
0.0342732 0.057217672 0.22400001 1.1065639e-38
0.028504783 0.058659777 0.22400001 1.0972362e-38
0.029586362 0.058479507 0.22399999 1.0881245e-38
0.03066794 0.058479514 0.22400001 1.125003e-38
0.031208728 0.05847951 0.22400001 1.1526617e-38
0.032398462 0.058443457 0.22400001 1.1157835e-38
0.033191621 0.058299251 0.22400001 1.0604661e-38
0.026702153 0.059741355 0.22400001 1.0603579e-38
0.027603468 0.059380829 0.22400001 1.0695775e-38
0.028504783 0.059380829 0.22400001 1.0695775e-38
0.029586362 0.059380829 0.22399999 1.0604298e-38
0.03066794 0.059380829 0.22400001 1.1157833e-38
0.031208728 0.059380829 0.22400001 1.1065639e-38
0.032110043 0.059020303 0.22400001 1.1065639e-38
0.024719259 0.060462408 0.22400001 1.0419907e-38
0.025800837 0.060462408 0.22400001 1.0786891e-38
0.026521889 0.060282148 0.22400001 1.0603579e-38
0.027603468 0.060282145 0.22400001 1.0419188e-38
0.028504783 0.060282148 0.22400001 1.0511384e-38
0.029586362 0.060282141 0.22399999 1.0695775e-38
0.03066794 0.060101882 0.22400001 1.0972365e-38
0.024584062 0.061498925 0.22399999 1.0143321e-38
0.025800837 0.061543986 0.22399999 1.0234797e-38
0.026521891 0.061543986 0.22399999 1.0326992e-38
0.02760347 0.061543986 0.22399999 1.014296e-38
0.028504783 0.061543986 0.22399999 1.0142961e-38
0.029315967 0.061453857 0.22400001 1.0327351e-38
0.024719259 0.062625565 0.22400001 1.0050766e-38
0.025800837 0.062625565 0.22400001 9.9589287e-39
0.026521889 0.062625565 0.22400001 9.8670932e-39
0.027603468 0.062625565 0.22400001 9.8670932e-39
0.028504783 0.062625565 0.22400001 9.9592888e-39
0.029225836 0.062625565 0.22400001 1.014368e-38
0.024899522 0.063526884 0.22400001 9.867096e-39
0.025800837 0.063526884 0.22400001 9.6830649e-39
0.026521889 0.063526884 0.22400001 9.7752591e-39
0.027603468 0.063526884 0.22400001 9.6827019e-39
0.028504783 0.063526884 0.22400001 9.7748976e-39
0.024899522 0.064428195 0.22400001 9.6827033e-39
0.025800837 0.064428195 0.22400001 9.6830635e-39
0.026521889 0.064428195 0.22400001 9.9596518e-39
0.027603468 0.064428195 0.22400001 9.1295296e-39
0.028144257 0.064428195 0.22400001 9.2217252e-39
0.025800837 0.065329507 0.22400001 9.4990295e-39
0.026521889 0.065329507 0.22400001 9.7752577e-39
0.027603468 0.065329507 0.22400001 8.5763572e-39
0.028144257 0.065329507 0.22400001 9.2217266e-39
0.026702153 0.066230826 0.22400001 9.2224455e-39
0.027603468 0.066591352 0.22399999 8.7611072e-39
0.028144257 0.066411093 0.22400001 9.4983135e-39
0.027603468 0.067312405 0.22400001 8.9454956e-39
0.027567416 0.068321876 0.22400001 1.014368e-38
0.020693382 0.070436962 0.22400002 9.4057549e-39
0.021294259 0.07055714 0.22400001 9.7748976e-39
0.020645311 0.071566604 0.22400001 9.3135579e-39
0.021294259 0.071458459 0.22400001 9.5905035e-39
0.046376683 -0.02436954 0.22500001 1.839302e-38
0.046286151 -0.023464201 0.22500001 1.7932407e-38
0.039858241 -0.02273993 0.22500001 1.8297237e-38
0.040220376 -0.022920998 0.22500001 1.8115364e-38
0.049635906 -0.02273993 0.22500001 1.4983213e-38
0.049998041 -0.021834591 0.22500001 1.6002055e-38
0.045290276 -0.019299641 0.22500001 1.6366146e-38
0.046014547 -0.019299641 0.22500001 1.6547669e-38
0.051808719 -0.018213235 0.22500001 1.4337141e-38
0.037685428 -0.017126828 0.22500001 1.5437372e-38
0.044566005 -0.017126828 0.22500001 1.5531369e-38
0.05253299 -0.017851099 0.22500001 1.5074704e-38
0.036508486 -0.016312024 0.22500001 1.5899071e-38
0.044837609 -0.016493091 0.22500001 1.6453323e-38
0.045290276 -0.01622149 0.22500001 1.7467834e-38
0.046014547 -0.016040422 0.22500001 1.5342305e-38
0.035512615 -0.01531615 0.22500001 1.5346257e-38
0.036417954 -0.01531615 0.22500001 1.5808672e-38
0.044928141 -0.01531615 0.22500001 1.5433056e-38
0.045290276 -0.01531615 0.22500001 1.5525252e-38
0.035512615 -0.014954015 0.22500001 1.5345537e-38
0.036417954 -0.014772947 0.22500001 1.5437731e-38
0.041306786 -0.013143335 0.22500001 1.5899069e-38
0.036780089 -0.012056929 0.22500001 1.3596339e-38
0.039677173 -0.012056929 0.22500001 1.4423942e-38
0.040582515 -0.0127812 0.22500001 1.4976393e-38
0.036840443 -0.011574081 0.22500001 1.3688535e-38
0.038409699 -0.011332657 0.22500001 1.3319397e-38
0.039315037 -0.011513726 0.22500001 1.3503788e-38
0.044747073 -0.011694794 0.22500001 1.4331025e-38
0.036961157 -0.010427319 0.22500001 1.3320476e-38
0.03913397 -0.010427319 0.22500001 1.2952772e-38
0.036961157 -0.0098841153 0.22500001 1.2861655e-38
0.03913397 -0.0098841153 0.22500001 1.2952772e-38
0.046738818 -0.0097030476 0.22500001 1.2126974e-38
0.038409699 -0.008797708 0.22500001 1.2767662e-38
0.046738818 -0.0086166402 0.22500001 1.1300451e-38
0.036236886 -0.0069870302 0.22500001 1.2860211e-38
0.064362757 0.027657278 0.22500001 1.2450016e-38
0.037685428 0.028864397 0.22500001 1.3000668e-38
0.063517772 0.028622972 0.22500001 1.1804646e-38
0.064242043 0.028381549 0.22500001 1.1896123e-38
0.062672786 0.0294076 0.22500001 1.0974887e-38
0.063397057 0.0294076 0.22500001 1.1067083e-38
0.064121328 0.029226532 0.22500001 1.1435864e-38
0.06774269 0.029588668 0.22500001 1.2542214e-38
0.061465669 0.030554362 0.22500001 1.0974527e-38
0.062491719 0.030494006 0.22500001 1.1250755e-38
0.063276343 0.030433649 0.22500001 1.1343312e-38
0.059594635 0.031399347 0.22500001 1.1343668e-38
0.060681038 0.031218279 0.22500001 1.1528061e-38
0.061405316 0.031218277 0.22500001 1.1251474e-38
0.062491719 0.031218277 0.22500001 1.115928e-38
0.063034922 0.03103721 0.22500001 1.0974888e-38
0.057783954 0.032666821 0.22500001 1.1620255e-38
0.058327157 0.032485753 0.22500001 1.1435864e-38
0.059413571 0.032485753 0.22500001 1.1252193e-38
0.060681041 0.032485753 0.22500001 1.1159998e-38
0.061369102 0.032413326 0.22499999 1.1252194e-38
0.062310655 0.032123618 0.22500001 1.1159998e-38
0.056516483 0.033934295 0.22500001 1.1803567e-38
0.057602894 0.033753231 0.22500001 1.1619895e-38
0.058327161 0.033753227 0.22500001 1.1343668e-38
0.059413567 0.033753227 0.22500001 1.1159998e-38
0.060620684 0.03369287 0.22500001 1.1159998e-38
0.055792212 0.034658566 0.22500001 1.1528059e-38
0.056335412 0.034477498 0.22500001 1.1711372e-38
0.057602894 0.034477498 0.22500001 1.1435864e-38
0.058327161 0.034477498 0.22500001 1.1251472e-38
0.05934114 0.034441285 0.22499999 1.1159998e-38
0.055430077 0.035563905 0.22500001 1.2172708e-38
0.056335412 0.035563905 0.22500001 1.1527699e-38
0.057602894 0.035563905 0.22500001 1.1251472e-38
0.058327161 0.035563905 0.22500001 1.1159278e-38
0.059051432 0.035382837 0.22500001 1.1159996e-38
0.055430077 0.036288176 0.22500001 1.2542208e-38
0.056335416 0.036288176 0.22500001 1.1528059e-38
0.057530463 0.036251962 0.22499999 1.1251475e-38
0.048549499 0.037917785 0.22500001 1.1435141e-38
0.049454838 0.037917785 0.22500001 1.2356378e-38
0.054585088 0.037797075 0.22500001 1.1528062e-38
0.055430073 0.03755565 0.22500001 1.1528061e-38
0.056335419 0.03755565 0.22500001 1.1528062e-38
0.057240754 0.037374582 0.22500001 1.1251475e-38
0.048549499 0.038642056 0.22500001 1.1803923e-38
0.049635906 0.038642056 0.22500001 1.1711727e-38
0.053981531 0.038642056 0.22500001 1.1159996e-38
0.054524735 0.038642056 0.22500001 1.1067443e-38
0.055430077 0.038642056 0.22500001 1.051391e-38
0.048549499 0.039366331 0.22500001 1.1066359e-38
0.049635902 0.039366331 0.22500001 9.9596532e-39
0.050722312 0.039366331 0.22500001 9.2213679e-39
0.051401317 0.039411597 0.22500001 9.4979533e-39
0.052714061 0.039366331 0.22500001 1.1435504e-38
0.053546973 0.039293904 0.22499999 1.1343668e-38
0.054524735 0.039004192 0.22500001 1.1158918e-38
0.048549499 0.040633805 0.22500001 1.0789415e-38
0.049635906 0.040633809 0.22500001 1.0791213e-38
0.050722312 0.040633805 0.22500001 1.088269e-38
0.051446583 0.040633805 0.22500001 1.0974885e-38
0.0526537 0.040573448 0.22500001 1.1619176e-38
0.047825228 0.041901279 0.22500001 1.1434785e-38
0.048368432 0.041539144 0.22500001 1.0789777e-38
0.049635906 0.041539144 0.22500001 1.1619895e-38
0.050722312 0.041539144 0.22500001 1.2173429e-38
0.051205158 0.041418433 0.22500001 1.2173427e-38
0.046618104 0.042866975 0.22500001 1.1065999e-38
0.047644157 0.042625546 0.22500001 1.1434785e-38
0.048368428 0.04262555 0.22500001 1.0974885e-38
0.049590643 0.04258028 0.22500001 1.1712092e-38
0.050722312 0.042263415 0.22500001 1.3279053e-38
0.045290276 0.043711957 0.22500001 1.1434785e-38
0.046376687 0.043711957 0.22500001 1.1342589e-38
0.047644161 0.043711957 0.22500001 1.1434785e-38
0.048368432 0.043711957 0.22500001 1.1158198e-38
0.04927377 0.043711957 0.22500001 1.1066005e-38
0.043479599 0.044436228 0.22500001 1.1619176e-38
0.044638433 0.044291373 0.22499999 1.1342589e-38
0.045290276 0.04425516 0.22500001 1.1158199e-38
0.046376687 0.044255164 0.22500001 1.1619176e-38
0.047644161 0.04425516 0.22500001 1.152698e-38
0.048187364 0.044074092 0.22500001 1.1342592e-38
0.041487854 0.045884769 0.22500001 1.1526979e-38
0.04257426 0.045703702 0.22500001 1.1066002e-38
0.043298528 0.045522634 0.22500001 1.152734e-38
0.044566005 0.045522634 0.22500001 1.1250395e-38
0.045290276 0.045522634 0.22500001 1.0236247e-38
0.046331413 0.045477364 0.22500001 1.1251115e-38
0.047463089 0.045160498 0.22500001 9.9589357e-39
0.040703226 0.046729755 0.22500001 1.1434064e-38
0.041487854 0.04660904 0.22500001 1.1619175e-38
0.042574264 0.04660904 0.22500001 1.1619533e-38
0.043298531 0.04660904 0.22500001 1.1619893e-38
0.044566005 0.04660904 0.22500001 1.0974885e-38
0.045290276 0.04660904 0.22500001 1.1159278e-38
0.046014547 0.046246905 0.22500001 1.0974888e-38
0.039858241 0.047695447 0.22500001 1.1434422e-38
0.040582515 0.047514379 0.22500001 1.1987597e-38
0.041487854 0.047514379 0.22500001 1.1527338e-38
0.04257426 0.047514379 0.22500001 1.2633685e-38
0.043298528 0.047514379 0.22500001 1.1988314e-38
0.044493578 0.047478165 0.22499999 1.1159275e-38
0.038409699 0.048781857 0.22500001 1.1710653e-38
0.039568532 0.048637003 0.22499999 1.1434426e-38
0.040582515 0.048600785 0.22500001 1.1619172e-38
0.041487854 0.048600785 0.22500001 1.1434783e-38
0.042574264 0.048600785 0.22500001 1.1711372e-38
0.043238174 0.048540428 0.22500001 1.1803567e-38
0.036780089 0.049506128 0.22500001 1.0325913e-38
0.037685428 0.04932506 0.22500001 1.1433704e-38
0.038228631 0.049325064 0.22500001 1.1526261e-38
0.039496105 0.04932506 0.22500001 1.1434066e-38
0.040582515 0.049325064 0.22500001 1.1250035e-38
0.041487854 0.049325064 0.22500001 1.1342589e-38
0.042393193 0.049143992 0.22500001 1.1711372e-38
0.034788344 0.05095467 0.22500001 1.152698e-38
0.035512615 0.050773602 0.22500001 1.1250392e-38
0.036599025 0.050592538 0.22500001 1.1341866e-38
0.037685428 0.050592531 0.22500001 1.1711007e-38
0.038228627 0.050592531 0.22500001 1.1896119e-38
0.039450835 0.050547268 0.22500001 1.1250393e-38
0.040461801 0.050351113 0.22500001 1.1619176e-38
0.041306786 0.050230399 0.22500001 1.1711372e-38
0.034607276 0.051678941 0.22500001 1.3001391e-38
0.035512615 0.051678941 0.22500001 1.3370168e-38
0.036599021 0.051678941 0.22500001 1.3185057e-38
0.037685428 0.051678941 0.22500001 1.2263101e-38
0.038047563 0.051678941 0.22500001 1.1711009e-38
0.032977663 0.052765347 0.22500001 1.170993e-38
0.03355708 0.052475639 0.22499999 1.1893961e-38
0.034607276 0.052403212 0.22500001 1.1524818e-38
0.035512615 0.052403212 0.22500001 1.2816276e-38
0.036553755 0.052357946 0.22500001 1.2354937e-38
0.037685428 0.052041076 0.22500001 1.2078709e-38
0.031529121 0.053851753 0.22500001 1.1341147e-38
0.032796595 0.053670689 0.22500001 1.1617734e-38
0.033520866 0.053670689 0.22500001 1.1525538e-38
0.034607276 0.053670689 0.22500001 1.106456e-38
0.035512615 0.053670689 0.22500001 1.1065279e-38
0.036357597 0.053610329 0.22500001 1.1433703e-38
0.052895125 0.053851753 0.22500001 1.0882693e-38
0.029718444 0.05493816 0.22500001 1.106456e-38
0.030261647 0.05493816 0.22500001 1.1248951e-38
0.031601548 0.054648452 0.22499999 1.1248951e-38
0.032796595 0.054576024 0.22500001 1.125003e-38
0.033520866 0.054576024 0.22500001 1.1065639e-38
0.034607276 0.054576024 0.22500001 1.0973445e-38
0.035512615 0.054213889 0.22500001 1.1434423e-38
0.028511323 0.05554172 0.22500001 1.0787972e-38
0.029537376 0.055481363 0.22500001 1.0972363e-38
0.030261647 0.055481363 0.22500001 1.1156754e-38
0.031456698 0.055445146 0.22499999 1.106456e-38
0.032796595 0.055300295 0.22500001 1.1065639e-38
0.033520866 0.055300295 0.22500001 1.1065639e-38
0.034426209 0.055300295 0.22500001 1.0973444e-38
0.026821358 0.056748837 0.22500001 1.078797e-38
0.027545629 0.056386702 0.22500001 1.0880166e-38
0.028450968 0.056386702 0.22500001 1.1341144e-38
0.029537376 0.056386702 0.22500001 1.1617731e-38
0.030261647 0.056386702 0.22500001 1.1064559e-38
0.031166986 0.056024566 0.22500001 1.1064557e-38
0.026531648 0.057328247 0.22499999 1.0880166e-38
0.027545629 0.057292037 0.22500001 1.0972362e-38
0.028450968 0.057292037 0.22500001 1.1340784e-38
0.029537376 0.057292037 0.22500001 1.1432261e-38
0.030261647 0.057110973 0.22500001 1.1248949e-38
0.025282282 0.05865005 0.22500001 1.0696494e-38
0.026459223 0.058559518 0.22500001 1.0695415e-38
0.027545629 0.058559518 0.22500001 1.0787252e-38
0.028450968 0.058378451 0.22500001 1.0972002e-38
0.029356308 0.058197383 0.22500001 1.0972362e-38
0.023924273 0.059283789 0.22500001 9.7738214e-39
0.024648543 0.059283789 0.22500001 1.1803204e-38
0.025191747 0.059283789 0.22500001 1.2079786e-38
0.026459223 0.059283789 0.22500001 1.1249306e-38
0.023607405 0.060415465 0.22500001 1.0512463e-38
0.024648543 0.060189128 0.22500001 1.1157832e-38
0.025191749 0.060189128 0.22500001 1.0695772e-38
0.026217798 0.060128774 0.22500001 1.0971643e-38
0.022837866 0.06163767 0.22500001 9.6827019e-39
0.023381069 0.06163767 0.22500001 1.0328071e-38
0.02157039 0.062543012 0.22500001 9.958207e-39
0.022475731 0.062361941 0.22500001 9.7748962e-39
0.023562139 0.062361944 0.22500001 1.0328071e-38
0.020665051 0.063267283 0.22500001 1.032699e-38
0.02157039 0.063448355 0.22500001 1.0142961e-38
0.022113595 0.063267283 0.22500001 1.0235876e-38
0.023665605 0.063577689 0.22500001 9.8670946e-39
0.024648543 0.063810483 0.22500001 9.5905091e-39
0.023562139 0.064715825 0.22500001 9.4983107e-39
0.024648543 0.064715825 0.22500001 9.5905063e-39
0.023833741 0.065349564 0.22500001 9.5905063e-39
0.024648542 0.065440096 0.22500001 9.4990295e-39
0.025010679 0.065621167 0.22500001 9.5912252e-39
0.048401527 -0.024477849 0.22600001 1.534946e-38
0.04912902 -0.023386614 0.22600001 1.4986083e-38
0.050402127 -0.02302287 0.22600001 1.4427515e-38
0.051311489 -0.02302287 0.22600001 1.3970489e-38
0.050584 -0.022659125 0.22600001 1.4426798e-38
0.051311489 -0.022659125 0.22600001 1.4152003e-38
0.050584 -0.021931633 0.22600001 1.5165449e-38
0.044764075 -0.018294184 0.22600001 1.6639508e-38
0.045400631 -0.018566992 0.22600001 1.6639866e-38
0.037489172 -0.017930437 0.22600001 1.5438091e-38
0.044764075 -0.017930437 0.22600001 1.6547316e-38
0.04512782 -0.017202947 0.22600001 1.5162586e-38
0.035670448 -0.016111713 0.22600001 1.507039e-38
0.050584 -0.015020477 0.22600001 1.4249262e-38
0.035670448 -0.014656732 0.22600001 1.4609412e-38
0.050402127 -0.014656732 0.22600001 1.4338943e-38
0.041854117 -0.013201751 0.22600001 1.5345896e-38
0.050220255 -0.013565496 0.22600001 1.3968723e-38
0.036397938 -0.012110515 0.22600001 1.4148434e-38
0.040581007 -0.012110515 0.22600001 1.4607614e-38
0.041672245 -0.01247426 0.22600001 1.4424301e-38
0.042339113 -0.012353011 0.22600001 1.4146995e-38
0.04985651 -0.012110515 0.22600001 1.350847e-38
0.050220255 -0.012838005 0.22600001 1.3785056e-38
0.03657981 -0.011564897 0.22600001 1.378037e-38
0.040399134 -0.011564898 0.22600003 1.4056243e-38
0.044036586 -0.01174677 0.22600001 1.4329946e-38
0.04985651 -0.01174677 0.22600001 1.3599946e-38
0.036761682 -0.010473662 0.22600001 1.3320476e-38
0.040217262 -0.010655534 0.22600001 1.3320836e-38
0.038944155 -0.0095642991 0.22600001 1.3044249e-38
0.03858041 -0.0084730638 0.22600001 1.258399e-38
0.06028387 0.028750183 0.22600001 1.1343671e-38
0.061132606 0.028992681 0.22600001 1.1896845e-38
0.062587589 0.028992681 0.22600001 1.1528059e-38
0.058950134 0.02972017 0.22600001 1.1435866e-38
0.059677627 0.029538298 0.22600001 1.0790497e-38
0.060223244 0.029538298 0.22600001 1.1712453e-38
0.061496351 0.029538298 0.22600003 1.2173429e-38
0.062223841 0.029538298 0.22600001 1.1620255e-38
0.055312682 0.030811407 0.22600001 1.1158198e-38
0.057495154 0.030811407 0.22600001 1.1896842e-38
0.058586389 0.030629536 0.22600003 1.1435864e-38
0.059677627 0.030629534 0.22600001 1.1435866e-38
0.060223244 0.030629534 0.22600001 1.198904e-38
0.061253857 0.030568911 0.22600001 1.1527701e-38
0.054948937 0.031538896 0.22600001 1.1803567e-38
0.055494554 0.031357024 0.22600001 1.1803567e-38
0.056585792 0.031357024 0.22600001 1.1987958e-38
0.057495154 0.031357024 0.22600001 1.1987958e-38
0.058586389 0.031357024 0.22600003 1.1619176e-38
0.059677627 0.031175151 0.22600001 1.1435866e-38
0.060041372 0.031175151 0.22600001 1.1528062e-38
0.054767061 0.032630131 0.22600003 1.2080513e-38
0.055494558 0.032630131 0.22600003 1.2264544e-38
0.056585789 0.032630131 0.22600003 1.1711372e-38
0.057313282 0.032539196 0.22600001 1.1619896e-38
0.058222644 0.032266386 0.22600001 1.1804646e-38
0.053857703 0.033721369 0.22600001 1.1434785e-38
0.054767065 0.033721369 0.22600001 1.0973806e-38
0.055494554 0.033721369 0.22600001 1.152698e-38
0.056585792 0.033721369 0.22600001 1.1711372e-38
0.052402724 0.034812603 0.22600001 1.1988314e-38
0.053539429 0.034494329 0.22600004 1.1343308e-38
0.054767061 0.034448858 0.22600003 1.0974527e-38
0.055458177 0.034376107 0.22600003 1.1343308e-38
0.05640392 0.034085114 0.22600001 1.1987958e-38
0.051675234 0.035903838 0.22600001 1.226418e-38
0.052220851 0.035721965 0.22600001 1.1804285e-38
0.053493958 0.035721969 0.22600003 1.1251475e-38
0.054767065 0.035721965 0.22600001 1.1620256e-38
0.048765272 0.036995072 0.22600001 1.1618813e-38
0.049492765 0.036995072 0.22600001 1.1802485e-38
0.050462753 0.036752578 0.22600001 1.2263462e-38
0.051493362 0.036631327 0.22600001 1.2079074e-38
0.052220851 0.036631327 0.22600001 1.1619536e-38
0.053493958 0.036631327 0.22600003 1.115928e-38
0.054767065 0.036631327 0.22600001 1.2080874e-38
0.048474275 0.037577067 0.22600003 1.1526617e-38
0.049492765 0.037540693 0.22600001 1.1711009e-38
0.050402127 0.037540689 0.22600001 1.18954e-38
0.051493362 0.037540689 0.22600001 1.1987595e-38
0.052220851 0.037540689 0.22600001 1.1618816e-38
0.053493958 0.037540689 0.22600003 1.1158919e-38
0.054706439 0.037480067 0.22600001 1.1712453e-38
0.048219655 0.038450055 0.22600001 1.1527336e-38
0.050462753 0.038328808 0.22600001 1.1803204e-38
0.051493362 0.038450055 0.22600001 1.1711369e-38
0.052220851 0.038450055 0.22600001 1.1342589e-38
0.053421207 0.038377307 0.22600003 1.1159278e-38
0.046946548 0.039541289 0.22600001 1.1342589e-38
0.047310293 0.039359417 0.22600001 1.152698e-38
0.048219658 0.039359417 0.22600001 1.1803564e-38
0.052038979 0.039177544 0.22600001 1.0789415e-38
0.045582503 0.040905334 0.22600001 1.1711372e-38
0.046764672 0.040632524 0.22600003 1.1895763e-38
0.047310293 0.040632524 0.22600001 1.152698e-38
0.048219655 0.040632524 0.22600003 1.0973806e-38
0.045673441 0.041360013 0.22600001 1.1895763e-38
0.046764676 0.041360013 0.22600001 1.152698e-38
0.047310293 0.041360013 0.22600001 1.1434785e-38
0.048037782 0.041360013 0.22600001 1.1342589e-38
0.043672841 0.042814996 0.22600001 1.1803204e-38
0.044400331 0.042633124 0.22600001 1.1711372e-38
0.045491569 0.042451248 0.22600004 1.1895763e-38
0.046728306 0.042378504 0.22600003 1.152698e-38
0.047310293 0.042087507 0.22600001 1.152698e-38
0.042581607 0.04390623 0.22600001 1.2263826e-38
0.043490969 0.043542486 0.22600001 1.171101e-38
0.044400331 0.043542486 0.22600001 1.1619176e-38
0.045400631 0.043360613 0.22600001 1.1434785e-38
0.040399134 0.04463372 0.22600001 1.2264187e-38
0.041672245 0.044451848 0.22600001 1.1619176e-38
0.042399734 0.044451848 0.22600001 1.1803567e-38
0.043430343 0.044391226 0.22600001 1.1619176e-38
0.044036586 0.044269975 0.22600001 1.1803567e-38
0.038762283 0.045724954 0.22600001 1.2171984e-38
0.0393079 0.045543082 0.22600001 1.161881e-38
0.040399134 0.045543086 0.22600003 1.1895401e-38
0.041672245 0.045543082 0.22600001 1.1342229e-38
0.042399734 0.04536121 0.22600001 1.1711011e-38
0.036761682 0.046452448 0.22600001 1.2448218e-38
0.037367925 0.046331197 0.22600001 1.3001749e-38
0.03858041 0.046270575 0.22600003 1.2632243e-38
0.0393079 0.046270572 0.22600001 1.2170905e-38
0.040326387 0.046234198 0.22600003 1.2079431e-38
0.032396741 0.047725555 0.22600001 1.134223e-38
0.033487976 0.047907427 0.22600001 1.1434785e-38
0.034579214 0.047725551 0.22600001 1.152698e-38
0.035524949 0.04761643 0.22600003 1.152698e-38
0.03657981 0.047543678 0.22600003 1.1710293e-38
0.0373073 0.047543678 0.22600003 1.3277255e-38
0.038580406 0.047543682 0.22600004 1.2447493e-38
0.0393079 0.047543686 0.22600001 1.189468e-38
0.040035389 0.04736181 0.22600001 1.1157117e-38
0.031669252 0.048816789 0.22600001 1.1434426e-38
0.032214869 0.048816785 0.22600001 1.1618817e-38
0.033487976 0.048816789 0.22600003 1.1342589e-38
0.034579214 0.048816785 0.22600001 1.1342589e-38
0.035488576 0.048816789 0.22600001 1.152698e-38
0.03657981 0.048816789 0.22600001 1.1618817e-38
0.0373073 0.048816789 0.22600001 1.1618457e-38
0.038489476 0.048725851 0.22600001 1.1710653e-38
0.030820511 0.049604904 0.22600001 1.1617734e-38
0.031669252 0.049544279 0.22600001 1.1617734e-38
0.032214869 0.049544282 0.22600001 1.171029e-38
0.033487976 0.049544279 0.22600003 1.1250749e-38
0.034579214 0.049544282 0.22600001 1.0512827e-38
0.035488576 0.049544279 0.22600001 1.0327357e-38
0.036519185 0.049483657 0.22600001 1.0972363e-38
0.037125427 0.049362406 0.22600001 1.1434422e-38
0.030578015 0.050635513 0.22600003 1.1617734e-38
0.031669252 0.050635517 0.22600001 1.1618094e-38
0.032214869 0.050635513 0.22600001 1.1618453e-38
0.033487976 0.050635517 0.22600003 1.0328437e-38
0.034579214 0.050635517 0.22600001 1.0605024e-38
0.035488576 0.050453641 0.22600001 1.0604661e-38
0.030578015 0.051544875 0.22600003 1.1617734e-38
0.031669252 0.051544879 0.22600001 1.1711009e-38
0.032214869 0.051544879 0.22600001 1.1618813e-38
0.033487976 0.051544879 0.22600003 1.1065999e-38
0.034215469 0.051181134 0.22600001 1.1711372e-38
0.054585192 0.051181134 0.22600001 1.079085e-38
0.027668055 0.052999862 0.22600001 1.1617734e-38
0.028638041 0.052878607 0.22600001 1.1525538e-38
0.029559528 0.052708864 0.22600003 1.1433343e-38
0.030578014 0.052636113 0.22600004 1.1433343e-38
0.031669252 0.052636117 0.22600001 1.1341507e-38
0.032214865 0.052636117 0.22600003 1.1433703e-38
0.033245478 0.052393615 0.22600001 1.124967e-38
0.027486183 0.053727351 0.22600001 1.1341147e-38
0.028577417 0.053727351 0.22600001 1.170993e-38
0.029486779 0.053727351 0.22600001 1.1617734e-38
0.030578015 0.053727347 0.22600001 1.1341147e-38
0.031669252 0.053727351 0.22600001 1.1341147e-38
0.032032996 0.053727351 0.22600001 1.170993e-38
0.026819317 0.054333594 0.22600001 1.106456e-38
0.027486183 0.054272968 0.22600001 1.1248951e-38
0.028577417 0.054272968 0.22600001 1.1341147e-38
0.029486779 0.054272965 0.22600001 1.1341147e-38
0.030578015 0.054272968 0.22600003 1.1248951e-38
0.032032996 0.054091096 0.22600001 1.1433343e-38
0.025728079 0.055788577 0.22600001 1.1156396e-38
0.026758693 0.055546075 0.22600003 1.1064199e-38
0.027486183 0.055546075 0.22600003 1.1156754e-38
0.028516794 0.055303577 0.22600001 1.1156397e-38
0.029123034 0.05518233 0.22600001 1.106456e-38
0.025485583 0.056273568 0.22600001 1.1341144e-38
0.026758691 0.056273568 0.22600001 1.0972362e-38
0.024303412 0.057455737 0.22600001 1.0695775e-38
0.025440115 0.057319336 0.22600004 1.0880166e-38
0.026576819 0.057001058 0.22600001 1.1064557e-38
0.023666857 0.058819782 0.22600001 1.0419188e-38
0.024212476 0.05863791 0.22600001 9.9585714e-39
0.025121838 0.05863791 0.22600001 9.9589301e-39
0.023545608 0.059426025 0.22600001 1.0419189e-38
0.024212476 0.059183527 0.22600001 9.4979533e-39
0.022575622 0.06063851 0.22600001 1.0235873e-38
0.023303112 0.060274765 0.22600001 1.0235876e-38
0.021848133 0.061729744 0.22600001 1.0419188e-38
0.022333125 0.061244752 0.22600001 1.014368e-38
0.020575024 0.062639102 0.22600001 1.0234794e-38
0.021484388 0.062275365 0.22600001 1.0142598e-38
0.022211878 0.062093489 0.22600001 1.0143677e-38
0.049529083 -0.023672773 0.22700001 1.4986439e-38
0.051903885 -0.023307417 0.22700001 1.3971206e-38
0.052451923 -0.023307417 0.22700001 1.3329794e-38
0.051903885 -0.022759385 0.22700001 1.4152003e-38
0.05245192 -0.022759385 0.22700001 1.3602425e-38
0.045571074 -0.018131562 0.22700001 1.5716837e-38
0.045692857 -0.017279066 0.22700001 1.5072909e-38
0.051173177 -0.014721585 0.22700001 1.5354174e-38
0.035828281 -0.01362552 0.22700001 1.3872568e-38
0.050807822 -0.013808198 0.22700001 1.4246752e-38
0.035828281 -0.012529457 0.22700001 1.4147355e-38
0.050625145 -0.012164102 0.22700001 1.3785417e-38
0.035828281 -0.011798747 0.22700001 1.3780731e-38
0.036193635 -0.011433392 0.22700001 1.3780731e-38
0.0413086 -0.01161607 0.22700001 1.3689258e-38
0.043866083 -0.011798747 0.22700001 1.4238829e-38
0.04971176 -0.011433392 0.22700001 1.2954207e-38
0.050625145 -0.01161607 0.22700001 1.3415914e-38
0.039847184 -0.010337329 0.22700001 1.3044968e-38
0.040821463 -0.010459113 0.22700001 1.322864e-38
0.039725397 -0.0097284047 0.22700001 1.2768381e-38
0.040577892 -0.0097892964 0.22700001 1.2585429e-38
0.038751118 -0.008145201 0.22700001 1.2125888e-38
0.039436158 -0.0085562244 0.22700001 1.2308483e-38
0.040577892 -0.0088759102 0.22700001 1.1759271e-38
0.038751118 -0.0074144918 0.22700001 1.1299727e-38
0.060307045 0.02765955 0.22700001 1.1435866e-38
0.059454549 0.028268473 0.22700001 1.1620255e-38
0.060428828 0.02814669 0.22700001 1.115928e-38
0.058754284 0.029577661 0.22700001 1.1620255e-38
0.059332762 0.029242754 0.22700001 1.1435865e-38
0.052817274 0.030947741 0.22700001 1.1987958e-38
0.053730659 0.030765064 0.22700001 1.2080154e-38
0.05427869 0.030765064 0.22700001 1.217235e-38
0.055313867 0.03070417 0.22700001 1.1619176e-38
0.057749562 0.030582387 0.22700001 1.2173429e-38
0.051903885 0.031678449 0.22700001 1.2633328e-38
0.052634597 0.031495772 0.22700001 1.2080154e-38
0.053730659 0.031495772 0.22700001 1.1895763e-38
0.05427869 0.031495772 0.22700001 1.2080154e-38
0.055192079 0.031313095 0.22700001 1.1158198e-38
0.050807822 0.032774515 0.22700001 1.1988314e-38
0.051538531 0.032591838 0.22700001 1.2080511e-38
0.052634597 0.032591838 0.22700001 1.1895761e-38
0.053730659 0.032591838 0.22700001 1.1619533e-38
0.054096013 0.032591838 0.22700001 1.1895761e-38
0.048981048 0.033870578 0.22700001 1.0974162e-38
0.049529083 0.033505224 0.22700001 1.1619175e-38
0.050625145 0.033505224 0.22700001 1.0974165e-38
0.051538531 0.033505224 0.22700001 1.1711372e-38
0.052634597 0.033505224 0.22700001 1.1895763e-38
0.053730659 0.033505224 0.22700001 1.1619176e-38
0.054096013 0.03313987 0.22700001 1.1987958e-38
0.047884986 0.034783967 0.22700001 1.2264543e-38
0.048798371 0.034601286 0.22700001 1.0881607e-38
0.049529079 0.034601286 0.22700001 1.0788696e-38
0.050625145 0.034601286 0.22700001 1.1434426e-38
0.051538527 0.034601286 0.22700001 1.1895761e-38
0.052512813 0.034479503 0.22700001 1.1895761e-38
0.047702309 0.035697352 0.22700001 1.1987595e-38
0.048798371 0.035697352 0.22700001 1.1434422e-38
0.049529083 0.035697352 0.22700001 1.2632609e-38
0.050625145 0.035697352 0.22700001 1.3553841e-38
0.051538531 0.035697352 0.22700001 1.290883e-38
