# .PCD v0.7 - Point Cloud Data file format
VERSION 0.7
FIELDS x y z rgb
SIZE 4 4 4 4
TYPE F F F F
COUNT 1 1 1 1
WIDTH 152
HEIGHT 1
VIEWPOINT 0 0 0 1 0 0 0
POINTS 152
DATA ascii
-0.036113258 0.042504836 0.10710932 1.6965079e-38
-0.033807628 0.043455314 0.10628334 3.8732997e-39
-0.035601929 0.045035124 0.109 3.5977932e-39
-0.040381063 0.04242295 0.11332431 2.3142542e-38
-0.037235316 0.043654002 0.11230063 1.2078711e-38
-0.035572097 0.045304187 0.11294445 3.2290107e-39
-0.034108527 0.045711931 0.11262261 3.0442579e-39
-0.041867316 0.042301092 0.11772953 2.3142182e-38
-0.038062755 0.044122402 0.11657833 9.7738214e-39
-0.035869263 0.045926627 0.11717241 2.9524224e-39
-0.033809468 0.047582161 0.11724358 3.8736584e-39
-0.046196941 0.039933853 0.12200001 1.9548017e-38
-0.045815222 0.040793769 0.12235719 2.0654719e-38
-0.04277917 0.042521201 0.12164994 2.2681567e-38
-0.03966501 0.044273023 0.12020832 1.3738591e-38
-0.04063433 0.045378353 0.12400001 9.3113999e-39
-0.037192442 0.046030246 0.12054053 3.0446194e-39
-0.034090396 0.047979653 0.12 3.1357332e-39
-0.046687637 0.041407101 0.12547059 2.1298995e-38
-0.042906832 0.043598324 0.125 2.2498259e-38
-0.034603812 0.053088676 0.13325001 1.8254384e-38
-0.04542416 0.046592575 0.13653848 2.0930227e-38
-0.043571003 0.048600011 0.13761908 7.4692922e-39
-0.038442951 0.04915249 0.13900003 7.1923395e-39
-0.04092839 0.05069124 0.13765001 2.5836384e-39
-0.036090687 0.054184627 0.13809092 1.5858374e-38
-0.035320628 0.055794965 0.13800001 1.8716083e-38
-0.034717906 0.05599919 0.13780001 1.8348018e-38
-0.055907488 0.041811623 0.1437632 6.5469813e-39
-0.053259432 0.043649595 0.14386845 1.9455453e-38
-0.049353193 0.042466689 0.14233334 1.8071071e-38
-0.051317152 0.046077833 0.14383338 2.2129479e-38
-0.046823334 0.047786199 0.14247014 1.2631893e-38
-0.044283353 0.049303945 0.14221624 2.7676724e-39
-0.042149853 0.052047092 0.14229575 2.8598666e-39
-0.038167138 0.054249313 0.14210004 1.152554e-38
-0.040723026 0.055975653 0.14300001 2.9520608e-39
-0.036828376 0.055765502 0.14191428 1.0695418e-38
-0.034119137 0.057352185 0.14281897 5.9019608e-39
-0.060791936 0.038301129 0.14513998 3.0456998e-39
-0.058838908 0.038483679 0.14509538 2.9527839e-39
-0.060763258 0.040435776 0.14555556 3.3215664e-39
-0.057432495 0.0408457 0.1452001 5.4420673e-39
-0.052333366 0.043334294 0.14517345 1.8717165e-38
-0.049460758 0.044716306 0.145 1.7886681e-38
-0.051691834 0.04604654 0.145 2.0654356e-38
-0.048380613 0.046576273 0.14543135 1.6597022e-38
-0.045572117 0.050217882 0.14600001 2.7680325e-39
-0.041507497 0.052950542 0.14563261 4.7952602e-39
-0.039302994 0.054198898 0.14581078 1.2078714e-38
-0.036789816 0.056168269 0.1466842 3.3208433e-39
-0.034009006 0.058877867 0.14550002 2.5821993e-39
-0.06299606 0.042178188 0.15000001 3.413046e-39
-0.051148742 0.04389175 0.15320003 6.2700245e-39
-0.050701916 0.045554299 0.1537143 1.0420268e-38
-0.047958873 0.047522817 0.15264706 2.951342e-39
-0.050052114 0.051730238 0.15400001 7.8387893e-39
-0.045841351 0.050987948 0.153 2.4907239e-39
-0.0426507 0.052590176 0.15300001 1.7535176e-39
-0.039565478 0.054144427 0.15318184 1.6623996e-39
-0.040261574 0.055572093 0.15400001 1.6620395e-39
-0.038007598 0.056464151 0.15273134 1.7542365e-39
-0.03074988 0.063410722 0.15400003 2.3992444e-39
-0.027546266 0.063454099 0.15400003 2.4914344e-39
-0.054236274 0.039846603 0.15900001 2.5836356e-39
-0.061337754 0.040422399 0.15900001 3.3212049e-39
-0.052595939 0.043107022 0.15806249 3.5974288e-39
-0.048094451 0.044580922 0.15900001 2.399966e-39
-0.051275298 0.047028113 0.15718517 4.7959762e-39
-0.0470591 0.048647866 0.15760317 1.662401e-39
-0.044255815 0.047523879 0.15900001 2.3999632e-39
-0.052828774 0.052130241 0.15900001 1.9456536e-38
-0.046295393 0.051693831 0.15729091 1.938269e-39
-0.042184643 0.053714965 0.15789416 2.1226589e-39
-0.039254591 0.054368179 0.15808329 2.2148531e-39
-0.045503274 0.055235423 0.15800001 4.9789424e-39
-0.042338654 0.055924218 0.15710343 2.9516979e-39
-0.037534773 0.057164118 0.15680994 2.030822e-39
-0.033255335 0.058549374 0.15657279 2.5836356e-39
-0.036538675 0.061111104 0.15757143 1.9386278e-39
-0.032164585 0.06204747 0.15634902 2.3996045e-39
-0.028675916 0.063124239 0.15741888 2.6754697e-39
-0.02608626 0.065181613 0.15900001 2.8594981e-39
-0.07128901 0.033558022 0.16400002 5.4409869e-39
-0.066921182 0.033625498 0.16366668 3.8743773e-39
-0.06416975 0.034116562 0.16365795 3.8743773e-39
-0.057951551 0.034773074 0.16383334 4.8885292e-39
-0.070690706 0.035773423 0.16276924 1.1802134e-38
-0.06802392 0.036786482 0.16383313 3.136815e-39
-0.062229466 0.037359249 0.1621027 3.9662128e-39
-0.057736311 0.037669037 0.16338678 3.6892657e-39
-0.054526825 0.039260264 0.1621111 3.2282862e-39
-0.06523028 0.041789848 0.16319999 3.0446194e-39
-0.061601445 0.041913863 0.16060992 9.4975988e-39
-0.057626959 0.042410973 0.1613072 9.3124803e-39
-0.052689772 0.042742949 0.16167742 2.8598638e-39
-0.048899423 0.043557666 0.16237141 3.3208405e-39
-0.060399216 0.045314007 0.1618 1.7518258e-38
-0.057503309 0.046163552 0.16123532 1.7886679e-38
-0.051340006 0.046898242 0.16031907 3.0446166e-39
-0.047536388 0.047289927 0.1607511 2.123019e-39
-0.044426531 0.048315972 0.16156872 2.307769e-39
-0.050388407 0.051067505 0.16000001 2.39925e-39
-0.046601623 0.052123863 0.16040576 1.6616821e-39
-0.042470992 0.052261014 0.16157551 2.1233764e-39
-0.039062209 0.053783592 0.16262504 3.0446138e-39
-0.045602728 0.055829957 0.16042107 8.9451425e-39
-0.04379883 0.056747165 0.1605 1.2540775e-38
-0.038012754 0.056144956 0.16310872 2.8598624e-39
-0.032662559 0.058189645 0.16105826 3.4123173e-39
-0.037445571 0.063692264 0.16081819 2.0304647e-39
-0.030967291 0.060559683 0.16010346 3.0442537e-39
-0.029112393 0.061615299 0.1604324 3.0438949e-39
-0.038146947 0.065544561 0.16325 2.4896449e-39
-0.027155153 0.067070656 0.16233332 2.3995989e-39
-0.075123623 0.028208464 0.16900001 5.7179311e-39
-0.074006803 0.028798075 0.16862963 5.8097666e-39
-0.069887541 0.029296482 0.16900001 6.9157512e-39
-0.071798071 0.032083776 0.1651684 5.2565928e-39
-0.067752071 0.032498498 0.16598928 4.7959734e-39
-0.063028537 0.032773841 0.16662605 5.6250152e-39
-0.072695181 0.036892585 0.16679998 1.5214091e-38
-0.067971997 0.037618212 0.16548645 3.1371738e-39
-0.060936656 0.035672184 0.16499999 3.9665729e-39
-0.056446511 0.037306339 0.16541666 4.519025e-39
-0.050379906 0.039969966 0.16700001 6.3625775e-39
-0.049976729 0.039969966 0.16700001 6.3625775e-39
-0.068733372 0.040552098 0.16608332 3.0449823e-39
-0.058779247 0.040978454 0.16500001 2.8598638e-39
-0.052746419 0.040594045 0.16626668 4.6112206e-39
-0.049398746 0.042356357 0.16675001 5.1640343e-39
-0.047573436 0.04597155 0.16566667 3.2282848e-39
-0.043639537 0.049099836 0.16551998 2.8605827e-39
-0.042315293 0.051498313 0.16597995 2.9524182e-39
-0.038914897 0.054203648 0.16500001 3.229005e-39
-0.038755439 0.059039641 0.16612501 2.2152118e-39
-0.040000994 0.060488902 0.16800001 2.215572e-39
-0.029280271 0.068998761 0.16700001 2.4917945e-39
-0.066218741 0.029698819 0.17169231 8.4830769e-39
-0.067524843 0.030551203 0.17044443 7.284175e-39
-0.06385351 0.031076767 0.17069229 7.4685649e-39
-0.060625792 0.036079705 0.1735 5.8094037e-39
-0.057022069 0.037306417 0.17206518 5.9937949e-39
-0.054705106 0.038772698 0.17 6.0859906e-39
-0.041151948 0.053019926 0.17052633 3.6892643e-39
-0.040720504 0.056309979 0.17252381 3.2286463e-39
-0.039427988 0.056236908 0.17184617 3.5052304e-39
-0.040299926 0.0607871 0.17216666 2.3996031e-39
-0.039642908 0.060779657 0.17033334 2.3992444e-39
-0.061759528 0.034467623 0.17500001 6.6388042e-39
-0.061618689 0.0355708 0.175 6.0859906e-39
-0.041505091 0.055844389 0.17550001 3.6889042e-39
