# .PCD v0.7 - Point Cloud Data file format
VERSION 0.7
FIELDS x y z rgb
SIZE 4 4 4 4
TYPE F F F F
COUNT 1 1 1 1
WIDTH 977
HEIGHT 1
VIEWPOINT 0 0 0 1 0 0 0
POINTS 977
DATA ascii
-0.00072149164 -0.0062372233 0.12 2.2697442e-38
1.2436625e-05 -0.006623501 0.12 2.1959879e-38
0.0038752172 -0.0063820775 0.12 2.2143201e-38
0.0042293053 -0.0063337926 0.12 2.2235392e-38
0.0067723026 -0.006623501 0.12 2.1873442e-38
-0.0052023171 -0.0052715284 0.12 2.1033609e-38
-0.0043331916 -0.0054646675 0.12 2.1775494e-38
-0.0014940477 -0.0053294702 0.12 2.2885443e-38
-0.00088887877 -0.0053037186 0.12 2.3348221e-38
0.0038752172 -0.0056578061 0.12 2.1962411e-38
0.0045512039 -0.0054324772 0.12 2.2144996e-38
0.0053375554 -0.0053267106 0.12 2.2794327e-38
0.0063860244 -0.0056578061 0.12 2.3259622e-38
0.0075273006 -0.0053242026 0.12 2.2799726e-38
-0.0014897557 -0.0044775116 0.12 2.2594462e-38
-0.00087048457 -0.0043886071 0.12 2.3052563e-38
0.00078499271 -0.0043058335 0.12 2.3157004e-38
0.0047443425 -0.0044024028 0.12 2.3348578e-38
0.0055362126 -0.0044989721 0.12 2.2331188e-38
0.0069010616 -0.0043380233 0.12 2.297584e-38
0.0075448579 -0.0044024028 0.12 2.3261782e-38
0.0086485101 -0.0043058335 0.12 2.1870928e-38
0.0095728179 -0.0041770744 0.12 1.9745013e-38
0.010248804 -0.0043058335 0.12 1.9286198e-38
-0.0013395365 -0.0034367079 0.12 2.2778863e-38
-0.00066354999 -0.0034367077 0.12 2.3335645e-38
0.00032628755 -0.0034729214 0.12 2.2971183e-38
0.0056283246 -0.0034738497 0.12 2.2606341e-38
0.0067196283 -0.0034279288 0.12 2.1493156e-38
0.0072873402 -0.0035010874 0.12 2.1778024e-38
0.0095728179 -0.0034367074 0.12 1.9652821e-38
0.010248804 -0.0034367079 0.12 1.9010692e-38
-0.0051057478 -0.0021813042 0.12 2.3446534e-38
-0.0013395365 -0.0024710125 0.12 2.2970453e-38
-0.00076011947 -0.0025675823 0.12 2.2964701e-38
1.2436625e-05 -0.0027607211 0.12 2.34318e-38
0.0058066077 -0.0024710128 0.12 2.2604903e-38
0.0066274484 -0.0024710125 0.12 2.269314e-38
0.007406902 -0.0023468521 0.12 2.2331555e-38
0.0086795501 -0.0023985857 0.12 2.1584984e-38
0.0092831096 -0.0027607211 0.12 2.029568e-38
0.010331579 -0.0024296257 0.12 1.8827747e-38
-0.0014682958 -0.001440938 0.12 2.3164562e-38
0.00078499271 -0.0010224702 0.12 2.2793618e-38
0.0015736438 -0.0013604636 0.12 2.2610305e-38
0.0024266741 -0.0012928648 0.12 2.3066946e-38
0.0031026609 -0.0010224702 0.12 2.2594451e-38
0.0045512035 -0.0011512296 0.12 2.2697458e-38
0.0056661423 -0.0013560739 0.12 2.2789653e-38
0.0066564186 -0.001460252 0.12 2.2973686e-38
0.0075706095 -0.0014860036 0.12 2.288797e-38
0.0085963933 -0.0016662668 0.12 2.1034688e-38
0.0096050082 -0.0012799889 0.12 1.9194008e-38
0.01032606 -0.0016405148 0.12 1.8645519e-38
-0.0013395365 -0.00082933123 0.12 2.3435757e-38
-0.0007118347 -0.00039476852 0.12 2.3066609e-38
0.00047824247 -0.00043169214 0.12 2.2788221e-38
0.0015092641 -0.00049133797 0.12 2.2703584e-38
0.0024749592 -0.00049133797 0.12 2.3052926e-38
0.0034406544 -0.00049133797 0.12 2.3148355e-38
0.0044288826 -0.00048168105 0.12 2.2883289e-38
0.0055112182 -0.00051121996 0.12 2.3065163e-38
0.007496574 -0.0005879075 0.12 2.3350028e-38
0.0088968314 -0.00024991424 0.12 2.0387512e-38
0.0095728179 -5.677525e-05 0.12 1.9748625e-38
-0.0004945533 0.00037778748 0.12 2.3347158e-38
0.00043734242 0.00047435699 0.11999998 2.2784625e-38
0.001509264 0.00047435705 0.12 2.3063732e-38
0.002474959 0.00047435702 0.12 2.2869262e-38
0.0034406544 0.00047435705 0.12 2.3238401e-38
0.0045512035 0.00039388239 0.12 2.3159159e-38
0.0054544131 0.00049991952 0.12 2.3347867e-38
0.0077862819 0.00049849937 0.12 2.2966843e-38
0.0086071221 0.00050654687 0.12 2.0571179e-38
0.0095406286 0.00026512309 0.12 2.0211047e-38
0.010331579 0.00052264176 0.12 1.8462571e-38
-0.0014682958 0.0015849061 0.12 2.2601313e-38
-0.00064423599 0.0015655921 0.12 2.3247406e-38
0.00043734247 0.0014400519 0.11999998 2.2778143e-38
0.001509264 0.0014400518 0.12 2.3240925e-38
0.0024749592 0.0014400518 0.12 2.2964338e-38
0.0034116835 0.0014110811 0.12 2.3152688e-38
0.0047443425 0.0014400518 0.12 2.2963975e-38
0.0055118166 0.0014171802 0.11999998 2.3062644e-38
0.007866757 0.0011664383 0.12 2.2408626e-38
0.0084622689 0.0014883367 0.12 2.1215837e-38
0.0095406286 0.0017458554 0.12 1.9840098e-38
0.010345374 0.0011986282 0.12 1.8188507e-38
-0.00037384141 0.0022608927 0.12 2.2875032e-38
0.00024420343 0.0021063813 0.12 2.277707e-38
0.0016734321 0.0021450091 0.12 2.3243087e-38
0.0024374044 0.0021965131 0.12 2.287142e-38
0.0032636102 0.0023252722 0.12 2.3146202e-38
0.0047443425 0.0024540315 0.12 2.1856897e-38
0.0054203295 0.0024057471 0.12 2.1306239e-38
0.0085105533 0.0020677536 0.12 2.1957366e-38
0.0038752172 0.0030334487 0.12 2.3330587e-38
0.0045512035 0.0034841066 0.12 2.1768653e-38
0.0053130295 0.0031836675 0.12 2.0571909e-38
0.0088968314 0.0038060045 0.12 2.0020532e-38
0.0095245335 0.0038542892 0.12 1.8734471e-38
0.0088002626 0.0046751299 0.12 1.9469873e-38
0.0095835486 0.0047716992 0.12 1.827529e-38
0.0096693877 0.005544255 0.12 1.7999784e-38
0.010248804 0.0053511164 0.12 1.7632801e-38
0.0095728189 0.01037273 0.12 1.6904236e-38
0.0036738124 -0.012443252 0.12100001 1.8323072e-38
0.0029337681 -0.011352661 0.12100001 2.1067009e-38
0.0034206393 -0.011255287 0.12100001 2.0694628e-38
0.0018626512 -0.01018417 0.12100001 2.1879891e-38
0.0022521482 -0.01018417 0.12100001 2.1513624e-38
0.0038101363 -0.010963163 0.12100001 2.0502682e-38
0.0041022589 -0.010443834 0.12100001 2.0491897e-38
-0.004505625 -0.009093578 0.12100001 2.2061026e-38
0.0005967858 -0.0096388748 0.12100001 2.1409203e-38
0.0017003607 -0.0098595889 0.121 2.0862511e-38
0.0022413288 -0.0095350081 0.121 2.0773199e-38
0.0038101363 -0.0094830748 0.12100001 1.9656762e-38
0.0041022589 -0.0094830748 0.12100001 2.0024463e-38
-0.0043414799 -0.0084314337 0.12100001 2.1864054e-38
-0.00057170528 -0.0080419369 0.12100001 2.344292e-38
0.00066170195 -0.0083665177 0.12100001 2.2788555e-38
0.0015705284 -0.0082853716 0.12100001 2.2232148e-38
0.002154774 -0.0088209305 0.12100001 2.0767455e-38
0.0038101363 -0.0083827469 0.121 2.1316314e-38
0.0044500241 -0.008320149 0.12100001 2.039291e-38
0.0054005831 -0.0083016008 0.12100001 2.0303235e-38
0.0065950402 -0.0084119588 0.12100001 1.9654622e-38
0.0072506932 -0.0081717689 0.121 1.9656426e-38
-0.0040771784 -0.007847188 0.12100001 2.2041611e-38
-0.0036876814 -0.007409004 0.12100001 2.2041252e-38
-0.0013506993 -0.007068194 0.12100001 2.2229987e-38
-0.00068855437 -0.0073018922 0.12100001 2.3153737e-38
0.0044917562 -0.0074576912 0.12100001 2.2793245e-38
0.0055767843 -0.0072073 0.121 1.984262e-38
0.0076442482 -0.007409004 0.12100002 1.9654988e-38
0.0086983237 -0.0073797917 0.12100002 2.1784844e-38
0.0094253859 -0.0073278588 0.121 2.280907e-38
-0.0040771784 -0.0066786972 0.12100001 2.2133453e-38
-0.0036876814 -0.0063865744 0.12100001 2.296574e-38
-0.0023244419 -0.0060944515 0.12100001 2.3441139e-38
-0.0016010903 -0.0064561279 0.121 2.3169222e-38
-0.00080540346 -0.0066007981 0.12100001 2.2603086e-38
0.0045696553 -0.0064449981 0.12100001 2.279109e-38
0.0055433982 -0.0062113008 0.12100001 2.187273e-38
0.0060497443 -0.0064839488 0.12100001 2.1139481e-38
0.007665012 -0.0064037587 0.12100002 2.0767102e-38
0.0086788489 -0.0063865744 0.12100002 2.0211762e-38
0.0096001597 -0.0063341414 0.12100001 2.1596135e-38
0.010334211 -0.0060944515 0.12100001 2.0402988e-38
-0.0052456693 -0.0051207091 0.12100001 2.1036129e-38
-0.0042935652 -0.0052721803 0.121 2.2425543e-38
-0.0036876814 -0.0054128319 0.12100001 2.3346776e-38
-0.0024759127 -0.0053370963 0.121 2.325135e-38
-0.0019349448 -0.0056075808 0.12100001 2.3443656e-38
0.0053194375 -0.0056562675 0.12100001 2.2703213e-38
0.0065366151 -0.0054128319 0.12100001 2.3166703e-38
0.007763532 -0.0055102059 0.12100001 2.308063e-38
0.0086788498 -0.0054128314 0.12100002 2.0493746e-38
0.0096525913 -0.0054128314 0.12100002 2.0112719e-38
0.010334211 -0.0054128319 0.12100001 2.0580901e-38
-0.0060895793 -0.004374173 0.121 2.2984111e-38
-0.0053819935 -0.0045754132 0.12100001 2.3078109e-38
-0.0043073357 -0.0045364639 0.12100001 2.2331909e-38
-0.0036097821 -0.0043806648 0.12100001 2.326214e-38
-0.0025748329 -0.0044112685 0.12100001 2.3252426e-38
-0.0018700286 -0.0042118826 0.12100001 2.2510908e-38
0.0064879283 -0.0045364639 0.12100001 2.1677537e-38
0.0079972297 -0.0044390894 0.12100001 2.3451931e-38
0.0086371172 -0.0045642848 0.121 2.178341e-38
0.0096039046 -0.004609494 0.121 1.9836488e-38
0.010480273 -0.0044390894 0.12100001 1.9378034e-38
-0.00520672 -0.0032511237 0.12100001 2.3357214e-38
-0.0043073352 -0.003367973 0.12100001 2.2707533e-38
-0.0034929328 -0.003465347 0.12100001 2.3261424e-38
-0.0026165647 -0.0034653468 0.12100002 2.3074152e-38
-0.0018375705 -0.0034653468 0.121 2.3071997e-38
0.0077700228 -0.0034004308 0.12100001 2.2892644e-38
0.0085991789 -0.003474199 0.12100001 2.2144278e-38
-0.005316487 -0.0025358654 0.12100001 2.3164188e-38
-0.0043693008 -0.0024916043 0.12100002 2.3180381e-38
-0.003492933 -0.0024916043 0.12100001 2.3364414e-38
-0.0025748329 -0.0024637829 0.12100001 2.3178588e-38
-0.0018375705 -0.0024916045 0.121 2.3174991e-38
0.0077051069 -0.0025889785 0.12100001 2.2612102e-38
0.0084354132 -0.0026376657 0.12100001 2.2327229e-38
-0.0052673081 -0.0016585137 0.121 2.2706094e-38
-0.0043414799 -0.0015317729 0.12100001 2.3271139e-38
-0.0034929328 -0.0014691749 0.12100001 2.2988076e-38
-0.0026165647 -0.0014691747 0.12100002 2.2992402e-38
-0.0019349448 -0.0014691749 0.12100001 2.2801176e-38
0.0097499667 -0.0010309907 0.12100001 1.9010341e-38
0.010464043 -0.0011608232 0.12100001 1.86448e-38
-0.0040771784 -0.00083624228 0.12100001 2.3257105e-38
-0.0034496554 -0.00059821637 0.121 2.2418714e-38
-0.0026165645 -0.00049543253 0.12100002 2.31696e-38
-0.0017579008 -0.00046444975 0.12100001 2.2416932e-38
0.004881253 -0.00064149383 0.12100001 2.2783537e-38
0.0064923554 -0.00053526741 0.12100001 2.3065884e-38
0.0072182352 -0.00039805821 0.12100001 2.306661e-38
0.0096451025 -0.00059655186 0.12100001 1.947132e-38
0.010511256 -0.00046444972 0.12100001 1.846077e-38
-0.0025748331 0.00044353347 0.12100001 2.335003e-38
-0.0016428222 0.00047830987 0.12100002 2.2603117e-38
-0.00091251521 0.00067305844 0.12100001 2.3435756e-38
0.0064716991 0.00051076798 0.12100001 2.2879698e-38
0.0071904142 0.00047135464 0.121 2.2874303e-38
0.010684758 0.000410148 0.12100001 1.8184901e-38
-0.0024759127 0.0013492686 0.121 2.316168e-38
-0.0017401964 0.0012781697 0.121 2.2975852e-38
-0.00083136995 0.0011761588 0.12100001 2.3341399e-38
0.0065366155 0.0014033653 0.12100001 2.2967215e-38
0.0074292128 0.0014845105 0.12100001 2.2778502e-38
0.0098473402 0.0018902365 0.12100001 1.9563873e-38
0.010528959 0.0014617899 0.12100001 1.8464372e-38
-0.0015454476 0.0022797335 0.121 2.269315e-38
-0.00072151178 0.0024744819 0.12100001 2.3152335e-38
0.00050590315 0.0025264153 0.12100002 2.2959656e-38
0.00137578 0.0024257947 0.12100001 2.323984e-38
0.0024144386 0.0026043144 0.12100001 2.2872502e-38
0.0031285165 0.002863979 0.12100001 2.2775618e-38
0.0062444932 0.0024257947 0.121 2.2225306e-38
0.0078673968 0.0022148173 0.121 2.2688814e-38
0.0086058183 0.0023527639 0.121 2.1681499e-38
-0.0014480737 0.0031561016 0.12100001 2.1863389e-38
-0.00066907954 0.0034482242 0.12100002 2.3255323e-38
0.00020728879 0.0033597024 0.12100001 2.2687749e-38
0.0036153879 0.0034482242 0.12100001 2.305472e-38
0.005521141 0.0036707942 0.121 2.0480077e-38
0.0060497443 0.0034482244 0.12100001 2.1123273e-38
0.0086204251 0.0035066488 0.12100001 2.0758459e-38
0.0097110169 0.0036819228 0.12100001 1.8642997e-38
0.010412111 0.003642973 0.12100001 1.8091981e-38
-0.0014805318 0.004649173 0.121 2.3345718e-38
-0.00064960471 0.0044479328 0.12100002 2.3352552e-38
1.2540264e-05 0.0040324698 0.12100001 2.1408884e-38
0.0038296115 0.0042272182 0.12100001 2.2966847e-38
0.0045334878 0.0044776085 0.12100001 2.2047762e-38
0.0053356662 0.0044219666 0.12100001 2.075558e-38
0.0083867265 0.0041298438 0.12100001 1.9929404e-38
0.0099447146 0.0044868831 0.12100001 1.7907948e-38
0.010334211 0.0040324698 0.12100001 1.7999785e-38
-0.0015211042 0.0052253045 0.121 2.3253519e-38
-0.0006956362 0.0052363696 0.12100001 2.2788943e-38
0.004783879 0.0059799547 0.12100001 2.0295674e-38
0.0054654991 0.0058825803 0.121 1.9560993e-38
0.0089709722 0.0052009607 0.12100001 1.9102892e-38
0.010431586 0.0051035862 0.12100001 1.7632801e-38
0.004783879 0.0064992835 0.121 1.9836492e-38
0.0053573051 0.006434368 0.121 1.9102167e-38
0.0097499657 0.0098749241 0.12100001 1.6902078e-38
0.0097499667 0.010264421 0.12100001 1.6719126e-38
0.0036724426 -0.015455009 0.12242857 1.2351563e-38
-0.00062551961 -0.014784568 0.12199999 1.2162847e-38
6.2187595e-05 -0.01484476 0.1225 1.2623823e-38
0.00060665002 -0.013322015 0.123 1.4370162e-38
0.0038219895 -0.012192644 0.122 1.877758e-38
0.0043510813 -0.012479209 0.1225 1.8683947e-38
0.0036943564 -0.011618298 0.12199999 1.9779506e-38
0.0043510813 -0.011444106 0.1225 2.0047459e-38
-0.004276548 -0.010220525 0.123 2.1533391e-38
-0.0039466023 -0.010154536 0.123 2.1715622e-38
0.0047358465 -0.010437532 0.12272728 2.0489024e-38
0.0054238588 -0.010220525 0.123 2.0303562e-38
0.0069416105 -0.010352504 0.123 1.8095561e-38
0.0076147001 -0.010471285 0.12300002 1.9208035e-38
0.0085649434 -0.01019413 0.123 1.9124121e-38
0.0097131552 -0.010946405 0.123 1.62815e-38
0.010307058 -0.010946405 0.123 1.3796897e-38
-0.0043729614 -0.0095897261 0.12228572 2.2347322e-38
-0.0037818116 -0.0094465865 0.12280001 2.2430886e-38
-0.00058115495 -0.0092636822 0.123 2.3343522e-38
0.00034127446 -0.0093218042 0.12224999 2.2424445e-38
0.0013413184 -0.0094871065 0.12237501 2.0581972e-38
0.0047577806 -0.0094981864 0.12283335 2.0300335e-38
0.0056449967 -0.0095292693 0.12293335 2.0488336e-38
0.0066175908 -0.0094523299 0.1225 1.8827017e-38
0.0075643137 -0.0094624916 0.12240001 1.9293755e-38
0.0085895779 -0.0094733825 0.1225 1.9211276e-38
0.0094903046 -0.0094638737 0.1229091 1.828968e-38
0.010241068 -0.0092966771 0.123 1.8286442e-38
-0.0037277804 -0.0084751183 0.12233334 2.1861537e-38
-0.00057801371 -0.0086666085 0.12225001 2.3256012e-38
0.00040765465 -0.0088438038 0.12240001 2.2240421e-38
0.0012500444 -0.0087687634 0.123 2.1310185e-38
0.0047252364 -0.0088938307 0.12200001 2.0022676e-38
0.0055193803 -0.0087513234 0.12220001 2.0856768e-38
0.0076509705 -0.0085796583 0.12199999 1.9381994e-38
0.0085542174 -0.0084520252 0.12199999 2.0312949e-38
0.0094741117 -0.0084311999 0.12207691 1.9581144e-38
0.010406042 -0.0085213045 0.12300002 1.8467237e-38
0.011098928 -0.0081748608 0.123 1.8373603e-38
-0.0033644852 -0.0074328445 0.12242857 2.2226008e-38
-0.0026796104 -0.0072246171 0.123 2.3342096e-38
-0.0017239356 -0.0073988969 0.1226 2.2788197e-38
0.0082596801 -0.0079120407 0.12200001 1.9564949e-38
0.0097650914 -0.0075520515 0.122 2.1703082e-38
0.010428703 -0.0075336569 0.12246155 1.8467242e-38
0.011098928 -0.0075314664 0.123 1.8186695e-38
-0.0033490916 -0.0064852382 0.12287501 2.3245936e-38
-0.0026693617 -0.0065253777 0.12250002 2.3346421e-38
-0.0019509362 -0.006733893 0.12200001 2.3448688e-38
0.0049215942 -0.0065375348 0.12200001 2.3256387e-38
0.0053230226 -0.0065485737 0.12220001 2.1134802e-38
0.0098305447 -0.006733893 0.12200001 2.3449763e-38
0.010439253 -0.0064982637 0.12199999 1.9205526e-38
0.01118377 -0.0064497157 0.12300001 1.8091978e-38
-0.005878096 -0.0051630288 0.12200001 2.3447612e-38
-0.0034236209 -0.0054575666 0.12199999 2.3347137e-38
-0.0028672738 -0.0056866505 0.12200001 2.315807e-38
0.010615977 -0.0054575661 0.12200001 1.9290164e-38
0.011197912 -0.0055022999 0.12300001 1.8552595e-38
-0.0069161146 -0.0042155115 0.123 2.345121e-38
-0.0055246516 -0.0042205108 0.122 2.345049e-38
-0.0047392198 -0.0042597824 0.122 2.2885083e-38
-0.0034432567 -0.0046132267 0.122 2.3166345e-38
0.010615977 -0.0047703129 0.12200001 1.9561706e-38
0.011395879 -0.0045124623 0.12300002 1.9013939e-38
0.012167952 -0.0043738857 0.123 1.8556197e-38
-0.0072089667 -0.0034176246 0.12199999 2.3163466e-38
-0.0064882184 -0.0034965742 0.12208333 2.3079908e-38
-0.0056460365 -0.0035921654 0.12199999 2.2892276e-38
-0.0047392198 -0.0037099801 0.122 2.2520978e-38
0.0082596801 -0.0033958072 0.12200001 2.3265019e-38
0.010615977 -0.0034939861 0.12200001 1.9010692e-38
0.011395879 -0.0035226254 0.12300002 1.8829906e-38
0.012154754 -0.0035886148 0.123 1.8373607e-38
-0.0075444458 -0.0024775444 0.12275001 2.2701053e-38
-0.0065930602 -0.0024727322 0.12250001 2.3150511e-38
-0.005878096 -0.0027085543 0.12200001 2.2139236e-38
0.010615977 -0.0022176593 0.12200001 1.8644436e-38
0.011395879 -0.002483296 0.12300002 1.9754386e-38
-0.0075665787 -0.0015288104 0.12300002 2.2428421e-38
-0.0066615851 -0.0014581076 0.12300002 2.305723e-38
-0.0056521026 -0.0012375735 0.12220001 2.3264308e-38
-0.0047981273 -0.0010395113 0.12200001 2.3452657e-38
0.010812335 -0.0017267643 0.12200001 1.8552243e-38
0.011296895 -0.0015699464 0.12300002 1.9477443e-38
-0.0075100162 -0.00050362147 0.12300002 2.3067311e-38
-0.0067181471 -0.00047887547 0.12300001 2.3061202e-38
-0.0056371582 -0.00046728281 0.12285715 2.3360105e-38
-0.0046335636 -0.0005112121 0.12223077 2.2989159e-38
-0.0038490631 -0.00018862681 0.12200001 2.2604547e-38
0.0067869956 -5.7721503e-05 0.12200001 2.2787501e-38
0.011098928 -0.00050362141 0.123 1.8460769e-38
-0.0075100171 0.00048621595 0.12300002 2.3160588e-38
-0.0066898661 0.00030945922 0.12300001 2.3067323e-38
-0.0056293267 0.00048621593 0.12300002 2.3352907e-38
-0.0045627132 0.00048321768 0.12225 2.2982328e-38
-0.0036620558 0.00051732687 0.12199999 2.2880771e-38
0.0066888165 0.00013863647 0.12200001 2.2420156e-38
0.011242373 0.00042087928 0.1227143 1.8276375e-38
-0.0073120496 0.0011296101 0.123 2.335038e-38
-0.0063222125 0.0011296101 0.123 2.3065528e-38
-0.0056023304 0.0013095808 0.12300002 2.3349305e-38
-0.0045970674 0.0014689832 0.12300002 2.3075239e-38
-0.003569582 0.0014385738 0.12207691 2.3077756e-38
-0.0028672733 0.0017749531 0.12200001 2.2790376e-38
0.0067869956 0.0019058583 0.12200001 2.2961448e-38
0.010746881 0.0017749531 0.12200001 1.8741678e-38
0.011301654 0.0015505394 0.12233335 1.8091984e-38
-0.0044217245 0.0024559926 0.12300001 2.3357944e-38
-0.0035218 0.0024949324 0.12199999 2.3265391e-38
-0.0026578249 0.0025211133 0.12199999 2.2694229e-38
-0.0018527572 0.0027894694 0.12200001 2.3436829e-38
0.0015875575 0.0028935657 0.12225001 2.3335282e-38
0.002761656 0.0026912903 0.12200001 2.268487e-38
0.0067666313 0.0025220099 0.12222222 2.2408618e-38
0.0074400725 0.0025988272 0.12225001 2.2226754e-38
0.0087505756 0.0027894694 0.12200001 2.168222e-38
0.0095360074 0.0024949324 0.12199999 1.9561712e-38
0.010517797 0.0024949324 0.12199999 1.8739515e-38
0.011263013 0.0024198354 0.12220001 1.8000866e-38
-0.0041445699 0.0031092849 0.123 2.3262147e-38
-0.0035348088 0.0033808362 0.12244446 2.307416e-38
-0.0026185536 0.0034505411 0.12199999 2.2782469e-38
-0.0018036678 0.0036239906 0.12199999 2.3344993e-38
0.00071392249 0.0035047734 0.12199999 2.3240196e-38
0.0012665418 0.0033732413 0.123 2.3149089e-38
0.0066247024 0.0033957507 0.12262501 2.1673921e-38
0.0076284995 0.0034344308 0.1226 2.0755205e-38
0.0087505756 0.0030840063 0.12200001 2.1405271e-38
0.0095360074 0.0031821851 0.12199999 1.9286209e-38
0.010640522 0.0033049088 0.12199999 1.8370007e-38
0.011202196 0.003567952 0.1224 1.809378e-38
-0.0025212739 0.0043692682 0.12225001 2.2873222e-38
-0.001726527 0.0042060516 0.12199999 2.3342837e-38
-0.0001837141 0.0045894175 0.12200001 2.3346431e-38
0.00040670979 0.0045254314 0.12223528 2.2880037e-38
0.001002585 0.0044950573 0.123 2.2965036e-38
0.0036125409 0.0047857747 0.12200001 2.130661e-38
0.0059033842 0.0048512276 0.12200001 2.0663743e-38
0.0064924583 0.0041639749 0.12200001 2.1215105e-38
0.0078324638 0.0043960735 0.123 1.9561333e-38
0.0084560383 0.0048512276 0.12200001 1.9378387e-38
0.01047317 0.004494214 0.12199999 1.7816113e-38
0.011098928 0.0044950573 0.123 1.7724638e-38
-0.0067181475 0.0053529162 0.123 2.0122464e-38
-0.0023532573 0.005463805 0.1225 2.3151606e-38
-0.0016073096 0.0057839286 0.12200001 2.2978007e-38
-0.00043617442 0.0056086085 0.12199999 2.2598792e-38
0.00040844246 0.0054684738 0.12262501 2.2689532e-38
0.0029162709 0.0058148406 0.123 1.9928692e-38
0.0037434462 0.0054403017 0.12199999 2.0204926e-38
0.0045550601 0.0054141204 0.12199999 2.1216921e-38
0.0055597578 0.005309396 0.12199999 2.0295682e-38
0.0060997424 0.0050475858 0.12200001 2.0388596e-38
0.0086755008 0.0053237244 0.12233334 1.8919214e-38
0.0092414701 0.0058330176 0.12200001 1.8275655e-38
0.010659484 0.0053652236 0.1225 1.7632801e-38
0.011098928 0.0051879431 0.123 1.7541324e-38
-0.001373025 0.0063163578 0.123 2.2516309e-38
-0.00059485057 0.0065383734 0.12285715 2.1766865e-38
0.00035211298 0.006485342 0.12292858 2.1765419e-38
0.0028832764 0.0065242234 0.12300001 2.0203834e-38
0.0036377909 0.0064566713 0.12233334 1.9836858e-38
0.0041361623 0.0064220917 0.12200001 2.0296393e-38
0.0057952469 0.0067075207 0.12220001 1.8551156e-38
0.0063477075 0.0062767644 0.123 1.8643355e-38
0.0095360074 0.0060293758 0.12200001 1.8000145e-38
-0.0015349983 0.0075005633 0.12300002 2.1678269e-38
-0.00063015037 0.0075101671 0.12293752 2.1123288e-38
6.2239415e-05 0.0073160934 0.123 2.1306596e-38
0.0029162709 0.0072006122 0.123 2.0663732e-38
0.0035101734 0.007068634 0.123 2.0203837e-38
0.0045880531 0.0070255329 0.12225001 1.9744654e-38
0.0055558369 0.007068634 0.123 1.8551156e-38
0.010265158 0.0097011942 0.1225 1.6349264e-38
0.0088223014 0.010830016 0.123 1.644146e-38
0.0093172202 0.010830016 0.123 1.6443258e-38
0.0034921051 -0.015374906 0.12466667 1.3270638e-38
0.0046530161 -0.015426094 0.12400001 1.2624905e-38
-0.0016907442 -0.014586176 0.12450001 1.2346883e-38
-0.00078703166 -0.014466994 0.12433334 1.2254684e-38
0.0043493933 -0.014066768 0.12433334 1.6396298e-38
-0.0003863028 -0.013031171 0.12400001 1.4827918e-38
1.2954818e-05 -0.013941006 0.125 1.2804637e-38
0.0047064084 -0.013562054 0.12475 1.7127401e-38
-0.00099297764 -0.012733888 0.125 1.6576401e-38
0.0047705295 -0.012412255 0.1242 1.8678556e-38
0.0076965648 -0.012033286 0.12400001 1.6645587e-38
0.0080604134 -0.012130328 0.125 1.6740301e-38
-0.0037360317 -0.011107543 0.12425001 2.0069413e-38
0.0048026987 -0.011434555 0.12400001 2.0134979e-38
0.0052337181 -0.011152443 0.12475 2.0034157e-38
0.0066246954 -0.011079898 0.12450001 1.8096992e-38
0.0074983235 -0.011433324 0.12418181 1.7922319e-38
0.0083837369 -0.011365941 0.12463636 1.8023156e-38
0.0092520611 -0.011226987 0.1248 1.728882e-38
-0.0041782656 -0.010636247 0.12400001 2.0895218e-38
-0.0035106661 -0.010416264 0.12430768 2.2355956e-38
-0.0012947572 -0.010118464 0.125 2.2790669e-38
-0.0007854568 -0.010037516 0.12400001 2.3065824e-38
0.0056901933 -0.01049374 0.1242 1.975147e-38
0.006405564 -0.010422444 0.12412501 1.8277793e-38
0.0085122008 -0.010607797 0.12425 1.8848616e-38
0.0094161155 -0.010483567 0.12475 1.7926652e-38
0.010388698 -0.010434967 0.12493334 1.6823535e-38
0.011325825 -0.010397028 0.125 1.4707704e-38
-0.0031883933 -0.0093641011 0.12433333 2.2699924e-38
-0.002468345 -0.0094143106 0.125 2.2512657e-38
-0.0015043371 -0.0093582952 0.12424999 2.2876766e-38
-0.00093513954 -0.0094886795 0.12400001 2.3249154e-38
0.00081115915 -0.0091394195 0.12400001 2.1036113e-38
0.0010107361 -0.009239208 0.12400001 2.0853164e-38
0.01077098 -0.0094184764 0.12416667 1.7918017e-38
0.011476582 -0.0094089918 0.12461539 1.7272283e-38
0.012285329 -0.0093807802 0.125 1.5619231e-38
-0.0032113374 -0.0084830662 0.12425001 2.1767908e-38
-0.0025173479 -0.0084755607 0.1248 2.1584242e-38
-0.0015575382 -0.008479136 0.12414286 2.2227818e-38
0.010989585 -0.008540689 0.12400001 1.8374322e-38
0.011524177 -0.0084913746 0.12437501 1.8005175e-38
0.01213444 -0.0084586749 0.125 1.782042e-38
-0.0032801691 -0.0078421691 0.12400001 2.1765747e-38
-0.0026281348 -0.0076717949 0.12411112 2.2506207e-38
-0.0017168162 -0.0078421691 0.12400001 2.2134905e-38
0.011596099 -0.0075505408 0.12427273 1.8187049e-38
0.01249209 -0.0075700702 0.1244375 1.7913335e-38
0.013314976 -0.007588828 0.12475 1.6627991e-38
0.011743543 -0.0065781823 0.12400001 1.8277087e-38
0.012536307 -0.0065449202 0.12399998 1.7729307e-38
0.013287439 -0.006629575 0.12433334 1.736088e-38
0.011787893 -0.0055470346 0.12400001 1.8736987e-38
0.012536307 -0.0055470346 0.12399998 1.8098091e-38
0.01198747 -0.0048485147 0.12400001 1.8370366e-38
0.012632466 -0.0046224366 0.12427273 1.8649834e-38
0.012386624 -0.0034514759 0.12400001 1.8465442e-38
0.01198747 -0.0025034857 0.12400001 1.837577e-38
0.012246941 -0.0024169895 0.12420001 1.8374327e-38
0.011854419 -0.0014224438 0.12400001 1.9112261e-38
0.012520819 -0.0015136953 0.12466667 1.8094505e-38
0.013140373 -0.0014171493 0.125 1.7542406e-38
0.018723298 -0.0010650731 0.125 1.774007e-38
-0.0066729784 -0.00055761018 0.12400001 2.269134e-38
0.011654842 -0.00050771591 0.12399999 1.8831354e-38
0.012487357 -0.00055147317 0.12463637 1.8000868e-38
0.013090076 -0.00086388667 0.125 1.7725718e-38
0.018768005 -0.00046151376 0.125 1.7641403e-38
0.01912567 -0.00026032733 0.125 1.7825433e-38
-0.007171921 0.00093921705 0.12400001 2.3441497e-38
-0.0067328513 0.00073964003 0.124 2.2883292e-38
0.011816404 0.00048304111 0.12400001 1.8276374e-38
0.012246017 0.00042293017 0.12460001 1.8091978e-38
0.018579591 0.00025700923 0.125 1.7637093e-38
0.01912567 0.00014204557 0.125 1.7915832e-38
-0.0086380644 0.0013491643 0.125 2.2879322e-38
-0.0076242951 0.001564558 0.12399998 2.3166349e-38
-0.0066960063 0.0016147082 0.12399999 2.2790016e-38
-0.0056251991 0.0019371017 0.12400001 2.3348586e-38
0.011786544 0.0014851595 0.12428571 1.8184538e-38
0.018836338 0.001697335 0.12475 1.8553305e-38
0.01912567 0.0015503507 0.125 1.855438e-38
-0.0075045489 0.0025358328 0.12399999 2.3171388e-38
-0.0066230833 0.0025358326 0.12399998 2.2418354e-38
-0.0056251981 0.0025358328 0.12399998 2.3259269e-38
-0.0049765734 0.0028351981 0.12400001 2.2710055e-38
0.002407775 0.0029349865 0.12400001 2.2230375e-38
0.011753055 0.0026765056 0.12433334 1.8000506e-38
0.017918551 0.0029586558 0.125 1.7541308e-38
-0.0072721192 0.0035544704 0.12469999 2.2336954e-38
-0.0064793346 0.0035894557 0.12463637 2.2418357e-38
-0.0055677793 0.0035113359 0.12413333 2.3349664e-38
-0.0046897824 0.0035547444 0.12409091 2.2797571e-38
-0.0038789003 0.0039328714 0.12400001 2.3441864e-38
0.0014597843 0.0035836115 0.12400001 2.3055097e-38
0.0027570347 0.0035337172 0.12400001 2.2968301e-38
0.0067984685 0.003833083 0.12400001 2.1490249e-38
0.0071976222 0.003833083 0.12400001 2.0938509e-38
0.011735637 0.0035479662 0.12450001 1.7724998e-38
0.012084144 0.0036963394 0.125 1.7633161e-38
0.017788649 0.003342835 0.12433334 1.7450195e-38
0.018174358 0.0034006659 0.12400001 1.7818261e-38
-0.007171921 0.0048309676 0.12400001 2.1978245e-38
-0.0061735292 0.0042160712 0.125 2.2971528e-38
-0.005338605 0.0045413226 0.125 2.2975845e-38
-0.0044466788 0.0044675539 0.125 2.2972607e-38
-0.0034368713 0.0045142574 0.12460001 2.2792897e-38
-0.0029808036 0.0049307561 0.12400001 2.1583917e-38
0.0015683587 0.0046511358 0.12422223 2.2960729e-38
0.0026907444 0.0045791487 0.12420001 2.2596987e-38
0.0066986801 0.0045316024 0.12400001 2.0939241e-38
0.0073193423 0.0046234303 0.12466666 2.011199e-38
0.011628713 0.00454047 0.12424999 1.7726075e-38
0.012084144 0.0044340231 0.125 1.7450207e-38
0.016912619 0.0049705203 0.125 1.7819343e-38
-0.0051173 0.0053728935 0.125 2.205353e-38
-0.0043125548 0.0055338428 0.125 2.2787498e-38
-0.0035329571 0.0057249693 0.125 2.3347506e-38
-0.0029309094 0.005529487 0.12400001 2.1583557e-38
0.001331739 0.0055487379 0.12441667 2.2684477e-38
0.0025667641 0.0055529904 0.12450001 2.1214032e-38
0.0064404388 0.0056061144 0.12409091 1.9653549e-38
0.0072922478 0.005500921 0.125 1.9285479e-38
0.008245077 0.005614033 0.12475 1.8642988e-38
0.010740113 0.005878747 0.12400001 1.7632801e-38
0.011588315 0.0055722543 0.12399999 1.7266176e-38
0.012084143 0.0055740797 0.125 1.7175059e-38
-0.0031389666 0.0064123566 0.125 2.2324362e-38
-0.0024866089 0.0066360915 0.12477778 2.2598432e-38
-0.0016978087 0.006726949 0.12400001 2.3160958e-38
0.00081115915 0.0068267374 0.12400001 2.0938891e-38
0.0014700284 0.0066205394 0.1248125 2.1122915e-38
0.002407775 0.0065772659 0.12400001 2.0938517e-38
0.0063993149 0.0067269485 0.12400001 1.8367849e-38
0.0071215439 0.0065800119 0.125 1.8459689e-38
0.0086639728 0.0063788258 0.125 1.7816479e-38
0.0093887635 0.0066718315 0.12483334 1.7541692e-38
0.010427749 0.0063664694 0.12475 1.7633161e-38
0.011448777 0.0064607291 0.12445455 1.699067e-38
-0.0022918894 0.0074542025 0.12450001 2.1308049e-38
0.00051484193 0.0077032954 0.12457142 2.029568e-38
0.0014614974 0.0076664183 0.125 1.9653544e-38
0.0025025909 0.0077016065 0.12433334 2.0755926e-38
0.0033310005 0.0076977001 0.12420001 2.0571539e-38
0.0048414306 0.0077871308 0.125 1.9377315e-38
0.0054721585 0.0077689243 0.12469999 1.8458959e-38
0.0064003728 0.0075312569 0.12450001 1.8183458e-38
0.0073227305 0.0075635901 0.125 1.7817197e-38
0.0081274761 0.0077200686 0.125 1.7082516e-38
-0.0014404681 0.0082573388 0.12450001 2.0296771e-38
-0.00050416356 0.0085302265 0.12433333 1.9836868e-38
0.00046561149 0.0086337822 0.12487499 1.9745024e-38
0.0014057843 0.0085764015 0.125 1.9102167e-38
0.002527786 0.008189504 0.125 2.0664808e-38
0.0048414306 0.0083906902 0.125 1.8734832e-38
0.0053108656 0.0083236285 0.125 1.8367486e-38
0.0063503291 0.0089942496 0.125 1.8092349e-38
-0.00018823166 0.0091954358 0.125 1.8918873e-38
0.00053603965 0.0092759104 0.125 1.9102534e-38
0.0010188873 0.0091954358 0.125 1.9102167e-38
0.0064509218 0.0092960289 0.125 1.7817203e-38
0.0096028438 0.0097319335 0.125 1.6993191e-38
0.010072279 0.0095978091 0.125 1.6625491e-38
0.005536438 0.010384264 0.125 1.7725372e-38
0.0086944494 0.0106187 0.12400001 1.6533296e-38
0.0094581274 0.010333413 0.12485714 1.6717685e-38
0.010072279 0.010201368 0.125 1.6718047e-38
0.00021585442 -0.015066514 0.126 1.3176635e-38
0.0032577941 -0.015472106 0.126 1.3179162e-38
-0.0032027063 -0.014197388 0.126 1.2253614e-38
-0.0026232891 -0.014559524 0.126 1.2069943e-38
0.00021585442 -0.01425533 0.126 1.3174851e-38
0.0043934514 -0.014498685 0.126 1.5844562e-38
0.0051336563 -0.014204631 0.126 1.5382153e-38
-0.0032896188 -0.013473118 0.126 1.4646739e-38
0.0050829574 -0.013444147 0.126 1.7123452e-38
0.0050829574 -0.012531566 0.126 1.8950467e-38
-0.003434473 -0.011348587 0.126 2.0712622e-38
0.0050829574 -0.011720381 0.126 2.0133185e-38
0.0065025296 -0.011416187 0.126 1.8190621e-38
0.0087332856 -0.011720381 0.126 1.7382092e-38
0.0092402752 -0.011618983 0.126 1.6740671e-38
-0.003028881 -0.010402206 0.126 2.3177435e-38
-0.0024880918 -0.010334608 0.126 2.2986927e-38
-0.0016093093 -0.01030081 0.126 2.2978297e-38
0.011775224 -0.010605003 0.126 1.3976604e-38
0.012637108 -0.0085263448 0.126 1.7545271e-38
0.013465191 -0.0083742477 0.126 1.433605e-38
0.013803184 -0.0076644616 0.126 1.5619593e-38
0.014107379 -0.0076644621 0.126 1.2502922e-38
0.013803184 -0.00675188 0.126 1.7452357e-38
0.01400598 -0.0068532778 0.126 1.5986217e-38
0.012992 -0.0053323088 0.126 1.7638191e-38
0.012992 -0.0049267169 0.126 1.7453447e-38
0.012789205 -0.003608543 0.126 1.8278892e-38
0.018786171 -0.0035071452 0.126 1.3262788e-38
0.019177279 -0.0035578441 0.126 1.3908158e-38
0.012789205 -0.0020875735 0.126 1.8186699e-38
0.014107378 -0.0020875735 0.126 1.708718e-38
0.018786171 -0.0026090487 0.126 1.5376818e-38
0.019315548 -0.0025853454 0.12600002 1.6112584e-38
0.013575039 -0.0015805836 0.126 1.7543485e-38
0.01407358 -0.0016819816 0.126 1.6994984e-38
0.018873084 -0.0014791857 0.126 1.7287371e-38
0.01939456 -0.0013343313 0.126 1.7836226e-38
0.012890602 -5.9614013e-05 0.126 1.7999785e-38
0.013296194 -0.0007693998 0.126 1.7817914e-38
0.019684268 -0.00056660385 0.12600002 1.9030443e-38
0.012789205 0.00014318193 0.126 1.8000141e-38
0.018525435 0.00083848234 0.126 1.7636019e-38
0.019499909 0.00058564584 0.12600002 1.8473326e-38
0.018467491 0.0014178992 0.126 1.7818254e-38
0.019430773 0.0012078605 0.126 1.80988e-38
0.017453512 0.0029823252 0.126 1.7449839e-38
0.018737886 0.00223874 0.126 1.8184521e-38
0.012180816 0.0031851211 0.126 1.8000504e-38
-0.0072875964 0.0045032948 0.126 2.1142008e-38
-0.0065980903 0.0047263703 0.126 2.0670956e-38
-0.0041442588 0.0048074885 0.126 2.3160241e-38
0.0017368242 0.0046046926 0.126 2.2868899e-38
0.0022438141 0.0044018966 0.126 2.3054374e-38
0.012180816 0.0046046926 0.126 1.7542403e-38
-0.0072875968 0.0052806791 0.126 2.1881734e-38
-0.006389501 0.0054158764 0.12600002 2.0484764e-38
-0.0054624327 0.0056862705 0.126 2.1407082e-38
-0.004245657 0.0052637793 0.126 2.2790376e-38
0.0017875232 0.0056186724 0.126 2.286815e-38
0.0022438141 0.0051116822 0.126 2.2224235e-38
0.016642328 0.0050102845 0.126 1.653292e-38
-0.0063547357 0.0060648234 0.126 1.993159e-38
-0.005361035 0.0060242643 0.126 2.057552e-38
-0.0043615405 0.0062270607 0.126 2.1681872e-38
-0.0035358712 0.0067340499 0.126 2.1866265e-38
0.0073137134 0.0064298562 0.126 1.864336e-38
0.0085980883 0.0068354481 0.126 1.7541334e-38
0.0099500613 0.0068354481 0.126 1.7542408e-38
0.010355653 0.0068354481 0.126 1.7541688e-38
0.011876622 0.0064298562 0.126 1.6806997e-38
-0.0030795799 0.007443836 0.126 2.0482966e-38
0.0044745696 0.0078494279 0.126 1.9836491e-38
0.0077193053 0.0071396418 0.126 1.8001594e-38
0.0085460888 0.0073658372 0.12600002 1.7266547e-38
0.0094937701 0.007443836 0.12600002 1.717579e-38
0.010374089 0.007351656 0.12600002 1.7267981e-38
0.011268235 0.007038244 0.126 1.726834e-38
-0.0025218911 0.0081536211 0.126 1.9837953e-38
-0.0015079114 0.0087620094 0.126 1.9930152e-38
0.0018382223 0.0088634072 0.126 1.9102523e-38
0.0024466102 0.0086606117 0.126 2.0021597e-38
0.0030549981 0.0082550198 0.126 2.0939955e-38
0.0044745696 0.0085338643 0.126 1.89185e-38
0.0054885494 0.008718553 0.126 1.8091984e-38
0.0064011319 0.0084578153 0.12600002 1.8000145e-38
0.0073917117 0.008379817 0.12600002 1.7449131e-38
0.0085304901 0.0082550198 0.12600002 1.699104e-38
0.0094937691 0.0081536211 0.126 1.6901721e-38
0.01051165 0.008426616 0.12600002 1.6904596e-38
0.011166837 0.0088634072 0.126 1.700183e-38
-0.0012037174 0.0090662036 0.126 1.9286224e-38
-0.00059532945 0.0094210962 0.126 1.9011074e-38
0.00049976882 0.0097962683 0.126 1.8735551e-38
0.0013819312 0.0094210971 0.126 1.9102167e-38
0.0036633858 0.0097759888 0.126 1.85508e-38
0.0043731718 0.0095224949 0.12600002 1.8185264e-38
0.0053871516 0.0095224939 0.12600002 1.7909402e-38
0.0064771799 0.009674591 0.126 1.7726088e-38
0.0071109175 0.0092689991 0.126 1.7449131e-38
0.0099500613 0.0094717955 0.126 1.6809882e-38
0.010484704 0.0093980515 0.12600002 1.6534375e-38
0.0036633858 0.010282978 0.126 1.8275297e-38
0.0044021425 0.010485774 0.12600002 1.8187782e-38
0.0052857534 0.010620971 0.126 1.7910843e-38
0.0063465321 0.010470175 0.12600002 1.7635333e-38
0.0054885489 0.011094163 0.126 1.7633892e-38
0.0060969372 0.011094163 0.126 1.7726444e-38
0.00062637846 -0.015390495 0.127 1.262454e-38
0.0036924602 -0.015288291 0.127 1.4926916e-38
-0.002603228 -0.014409348 0.127 1.2438004e-38
-0.0016220816 -0.014572873 0.127 1.2715664e-38
0.00021756756 -0.014572873 0.127 1.326776e-38
0.001546203 -0.014777279 0.127 1.3268836e-38
0.0052766022 -0.014623974 0.127 1.483185e-38
-0.0028485146 -0.013653049 0.127 1.4554544e-38
0.0053277039 -0.013550847 0.127 1.6846866e-38
0.0053277039 -0.012631021 0.127 1.848913e-38
0.006962948 -0.012324413 0.127 1.7465994e-38
0.0072695557 -0.012528819 0.127 1.682961e-38
-0.0027025107 -0.011477591 0.12699999 2.2087275e-38
0.0055321092 -0.011608995 0.127 1.9484943e-38
0.0063497312 -0.011711196 0.127 1.8101298e-38
0.0088025974 -0.011915603 0.127 1.6925418e-38
0.0090070022 -0.011915603 0.127 1.6833223e-38
-0.0024737711 -0.010757305 0.12699999 2.299304e-38
-0.0018264871 -0.010484764 0.127 2.3073727e-38
0.012788503 -0.009053926 0.127 1.6076974e-38
0.012788502 -0.0087473188 0.127 1.6994256e-38
0.013503922 -0.0087473188 0.12699999 1.2775918e-38
0.013708328 -0.0063966555 0.127 1.7635669e-38
0.013095112 -0.0056812363 0.127 1.7546355e-38
0.012890706 -0.004148196 0.127 1.8833147e-38
0.012788503 -0.0031261686 0.127 1.791299e-38
0.014934761 -0.0031261686 0.127 1.6354281e-38
0.015445774 -0.0034327768 0.12699999 1.4888139e-38
0.01973829 -0.0035860809 0.12699999 1.4737921e-38
0.012788503 -0.0027173578 0.12699999 1.8005186e-38
0.013401721 -0.0023851991 0.12699999 1.7543486e-38
0.014566831 -0.0025947145 0.12699999 1.6632309e-38
0.015139166 -0.0029217633 0.127 1.5895101e-38
0.019636087 -0.0021041415 0.127 1.6932268e-38
0.01452595 -0.0017975334 0.127 1.6816345e-38
0.019636087 -0.0018997361 0.127 1.7572239e-38
0.020044897 -0.0010821143 0.127 1.810849e-38
0.01340172 -0.00057110074 0.127 1.7726435e-38
0.020351507 -0.00031559396 0.127 1.8848213e-38
0.012737403 0.0006042305 0.127 1.8000141e-38
0.018000843 0.00096194004 0.127 1.6992451e-38
0.01227749 0.0017795617 0.127 1.8368571e-38
0.018000843 0.0012685482 0.127 1.7174684e-38
0.012073085 0.0022905753 0.127 1.8276372e-38
0.018103044 0.0024438794 0.127 1.7724622e-38
0.001546203 0.0035170079 0.127 2.3055097e-38
0.0020572166 0.0036192108 0.127 2.3430721e-38
0.017183222 0.0032103998 0.127 1.8100249e-38
0.0016484057 0.0041302242 0.127 2.2778867e-38
0.0020572166 0.0040280214 0.127 2.3426762e-38
0.012686301 0.0041302242 0.127 1.7174342e-38
-0.0067322184 0.005254454 0.127 2.0022705e-38
0.0020572166 0.005663265 0.127 2.2591923e-38
0.0077805696 0.0058676703 0.127 1.8918498e-38
-0.0064256098 0.0064808866 0.127 1.9746839e-38
-0.0056079882 0.0064808875 0.12699999 1.983759e-38
-0.0046881638 0.0066852923 0.127 2.0390766e-38
-0.0038705419 0.0068896976 0.127 2.1497482e-38
0.0078827729 0.0064808866 0.12699999 1.8275658e-38
0.0081893802 0.0064808866 0.127 1.8091626e-38
-0.0035639335 0.0071963058 0.127 2.1221254e-38
0.0077805696 0.0070941029 0.127 1.8276741e-38
0.010846651 0.0076391846 0.127 1.7364494e-38
0.011404121 0.0076144082 0.12699999 1.6627649e-38
0.012073085 0.007911725 0.127 1.56135e-38
-0.002235298 0.008729347 0.127 1.9470249e-38
-0.0018264871 0.0089337518 0.127 2.0115621e-38
0.0021594195 0.0089337518 0.127 1.937839e-38
0.0038968658 0.0089337518 0.127 1.9009977e-38
0.007882772 0.0088315494 0.127 1.7173986e-38
0.0083937859 0.0088826511 0.127 1.6990678e-38
0.0096883541 0.0087974817 0.127 1.7086112e-38
0.010369706 0.0086612115 0.127 1.6903876e-38
0.011459868 0.0084022982 0.12699999 1.6537975e-38
-0.001349541 0.0094788326 0.127 1.9288023e-38
-0.00064093538 0.009874016 0.127 1.8828124e-38
1.3162095e-05 0.0099557787 0.127 1.8554775e-38
0.0014440004 0.009838976 0.12699999 1.910253e-38
0.0020572166 0.0091381576 0.127 1.9194719e-38
0.0032836497 0.0098024756 0.127 1.9010337e-38
0.006962948 0.0098535763 0.127 1.7265829e-38
0.0073717581 0.0096053695 0.12699999 1.7265463e-38
0.0093749315 0.0095060868 0.127 1.7083951e-38
0.010846651 0.0097513739 0.127 1.6350343e-38
0.0003197703 0.010160184 0.127 1.8461489e-38
0.0011373921 0.010160184 0.127 1.9102892e-38
0.0033603017 0.010620097 0.12699999 1.8367853e-38
0.0041012713 0.010977807 0.127 1.8184901e-38
0.0068811858 0.010691638 0.127 1.7359468e-38
0.0073921992 0.010650756 0.12699999 1.7360542e-38
0.0084619215 0.01050086 0.127 1.6808085e-38
0.0056002443 0.011591022 0.127 1.7541692e-38
0.0066284658 0.011591023 0.12699999 1.7358382e-38
0.0075250622 0.01148882 0.12699999 1.7269784e-38
0.0088025974 0.011591023 0.127 1.6257069e-38
0.006145326 0.012204239 0.127 1.7540974e-38
0.010335637 0.014554901 0.127 1.3593828e-38
0.012073085 0.014861509 0.127 1.240033e-38
0.00063131063 -0.015305665 0.12800001 1.2900408e-38
0.0020734153 -0.015305665 0.12800001 1.2625262e-38
0.0032064975 -0.015408672 0.12800001 1.4190428e-38
-0.001222824 -0.01468762 0.12800001 1.2992247e-38
-0.0003300925 -0.014756292 0.12800001 1.2161418e-38
0.0003737919 -0.014893635 0.12800001 1.3360313e-38
0.0014553705 -0.014893635 0.12800001 1.3452863e-38
0.0020734153 -0.014893635 0.12800001 1.4282262e-38
0.0057816845 -0.014584612 0.12800001 1.5017325e-38
-0.0026649288 -0.013503035 0.12800001 1.5291396e-38
-0.0017378614 -0.013245516 0.12800001 1.5565479e-38
0.0057816845 -0.013760554 0.12800001 1.6572431e-38
-0.0025104173 -0.012009426 0.12800001 2.0436387e-38
0.0058228876 -0.012380253 0.12800001 1.8479779e-38
0.0064684008 -0.012352784 0.12800001 1.7833692e-38
0.0088032372 -0.012490127 0.12800001 1.5646532e-38
0.0093869455 -0.012249778 0.12800001 1.5556138e-38
-0.0022116958 -0.011638599 0.12800001 2.1993639e-38
0.0058503561 -0.011734739 0.12800001 1.9023605e-38
-0.0020468838 -0.010876345 0.12800001 2.2898325e-38
0.013816268 -0.0066530379 0.12800001 1.7635669e-38
0.013198223 -0.0052109333 0.12800001 1.754564e-38
0.013198223 -0.0041808588 0.12800001 1.8464365e-38
0.020408746 -0.0045242175 0.12800001 1.2436969e-38
0.013198223 -0.0039748438 0.12800001 1.8555479e-38
0.014743336 -0.003356799 0.12800001 1.6997853e-38
0.015258372 -0.0039233398 0.12800001 1.6629066e-38
0.020408746 -0.0036143176 0.12800001 1.5844272e-38
0.013558749 -0.0028417618 0.12800001 1.7635322e-38
0.014228297 -0.0029447693 0.12800001 1.6903145e-38
0.015670402 -0.0029447693 0.12800001 1.6356435e-38
0.020408746 -0.0029447693 0.12800001 1.7405123e-38
0.014640328 -0.0017086797 0.12800001 1.617529e-38
0.019790702 -0.0017086797 0.12800001 1.7751952e-38
0.020408746 -0.0012966498 0.12800001 1.8198885e-38
0.013610253 -0.00067860505 0.12800001 1.7910109e-38
0.020511754 -0.00088461995 0.12800001 1.8104174e-38
0.012992208 0.00076349947 0.12800001 1.8183812e-38
0.013198223 0.00014545466 0.12800001 1.8092337e-38
0.01262138 0.0015051533 0.12800001 1.8000141e-38
0.017936567 0.0017935741 0.12800001 1.7541308e-38
0.019172657 0.0019995889 0.12800001 1.8552945e-38
0.017661881 0.0026863057 0.12800001 1.7449481e-38
0.012580178 0.0034416935 0.12800001 1.7726794e-38
0.012786194 0.0047807908 0.12800001 1.6991028e-38
-0.0076092877 0.0059138727 0.12800001 2.0863985e-38
0.012683185 0.0050898129 0.12800001 1.6991747e-38
-0.0056006419 0.0069439472 0.12800001 1.9561717e-38
-0.0047250781 0.0069439472 0.12800001 1.9930141e-38
-0.0056374301 0.0072971149 0.12800001 1.9562078e-38
-0.004519063 0.0071499622 0.12800001 2.0206729e-38
-0.003798011 0.0075619919 0.12800001 2.0575875e-38
0.011962133 0.0075619919 0.12800001 1.5890084e-38
0.012374163 0.007871015 0.12800001 1.5337992e-38
-0.0032829735 0.0083860513 0.12800001 2.0022337e-38
-0.0027679363 0.0087980814 0.12800001 2.0300007e-38
0.0028974751 0.0085920664 0.12800001 2.0756642e-38
0.0038245423 0.0086950734 0.12800001 1.974466e-38
0.012168149 0.0081800371 0.12800001 1.5430188e-38
-0.0022528986 0.0091071036 0.12800001 1.9564244e-38
-0.0017721973 0.0097594848 0.12800001 1.9657524e-38
0.0018674004 0.0097251488 0.12800001 1.9010695e-38
0.0023481019 0.0097594848 0.12800001 1.910253e-38
0.0032064975 0.0094161266 0.12800001 1.9745376e-38
0.0077388268 0.0097251488 0.12800001 1.7358376e-38
0.0082244333 0.0095044179 0.12800001 1.7175066e-38
0.0091809314 0.0090040965 0.12800001 1.6991758e-38
0.010932058 0.0096221417 0.12800001 1.6535454e-38
0.011550103 0.0090040965 0.12800001 1.6909634e-38
0.015670402 0.0097766519 0.12800001 1.5432347e-38
-0.0013258314 0.010343193 0.12800001 1.8829563e-38
-0.00060477911 0.010487404 0.12800001 1.8462581e-38
0.00046649863 0.010693419 0.12800001 1.8463649e-38
0.0014095893 0.010560653 0.12800001 1.8827752e-38
0.002554117 0.010377529 0.12800001 1.8552605e-38
0.0077388268 0.010377529 0.12800001 1.7359821e-38
0.0081302552 0.010240186 0.12800001 1.7268344e-38
0.010211006 0.010137178 0.12800001 1.6717687e-38
0.015670402 0.010034171 0.12800001 1.4607627e-38
0.0012493555 0.011064245 0.12800001 1.8828831e-38
0.00310349 0.011064245 0.12800001 1.8001236e-38
0.0045455946 0.011579283 0.12800001 1.8001952e-38
0.0055756695 0.011888306 0.12800001 1.7541692e-38
0.0061937142 0.011888306 0.12800001 1.7541329e-38
0.0076358193 0.011476276 0.12800001 1.7270503e-38
0.0092839384 0.011064245 0.12800001 1.6534735e-38
0.0056693126 0.012487621 0.12800001 1.7449498e-38
0.0063997293 0.012583606 0.12800001 1.7357301e-38
0.0074298037 0.012197329 0.12800001 1.7084673e-38
0.0049576247 0.013948455 0.12800001 1.7358384e-38
0.0051636398 0.013948455 0.12800001 1.7358384e-38
0.011962133 0.013124395 0.12800001 1.2215938e-38
0.0048752185 0.014442891 0.12800001 1.6991037e-38
0.0052323113 0.014291813 0.12800001 1.7082512e-38
0.0058268541 -0.014179494 0.12900001 1.6116845e-38
0.0057230415 -0.013348997 0.12900001 1.7483607e-38
0.0060760034 -0.013515095 0.12900001 1.6934024e-38
0.0063014245 -0.012815104 0.12900001 1.7748685e-38
0.0070726005 -0.012933747 0.12900001 1.729238e-38
0.013508959 -0.0044211461 0.12900001 1.7727158e-38
0.020775814 -0.0042827297 0.12900001 1.3911389e-38
0.013560864 -0.0034349305 0.12900001 1.7910109e-38
0.014754705 -0.0037982729 0.12900001 1.7087173e-38
0.013924208 -0.0029677753 0.12900001 1.7543842e-38
0.015377578 -0.0027601507 0.12900001 1.5620672e-38
0.016467607 -0.0028639629 0.12900001 1.2603753e-38
0.02056819 -0.0025755956 0.12900001 1.7490838e-38
0.014547081 -0.0013067799 0.12900001 1.708682e-38
0.020637397 -0.0015374735 0.12900001 1.8019893e-38
0.013508959 -0.00016484559 0.12900001 1.8000504e-38
0.020983439 -0.00089153106 0.12900001 1.8559035e-38
0.013301334 0.00056183984 0.12900001 1.8092696e-38
0.019945316 0.0007694643 0.12900001 1.8465416e-38
0.01267846 0.0026034799 0.12900001 1.8001224e-38
0.01309371 0.0028457085 0.12900001 1.745021e-38
0.017661447 0.0022228353 0.12900001 1.7635309e-38
0.012886086 0.0034685817 0.12900001 1.7450207e-38
0.013414583 0.0035063317 0.12899999 1.699067e-38
0.016830949 0.0034685817 0.12900001 1.6715874e-38
0.013370543 0.0044028917 0.12900001 1.6715522e-38
0.0164157 0.0049219527 0.12900001 1.5521289e-38
0.012782273 0.0056832419 0.12900001 1.6808435e-38
0.013492987 0.0056246817 0.12899998 1.6440013e-38
0.012697336 0.0066206977 0.12899999 1.6256343e-38
0.013527834 0.0064130737 0.12899999 1.5890436e-38
0.0164157 0.0061676991 0.12900001 1.5521289e-38
-0.0052810539 0.0077248821 0.12900001 1.9560992e-38
-0.0046322271 0.0076729758 0.12900001 1.9745381e-38
0.01256521 0.0075266957 0.12899999 1.5521302e-38
-0.0051772418 0.0080363192 0.12900001 1.9745018e-38
-0.0045543686 0.0080363192 0.12900001 1.9837215e-38
-0.0037584745 0.0085553797 0.12900001 1.9837578e-38
0.0029201116 0.0088668168 0.12900001 2.0389299e-38
0.0033872668 0.008607286 0.12900001 2.0479704e-38
0.012636937 0.0083685182 0.12900001 1.4970289e-38
-0.0033778299 0.0090744412 0.12900001 1.9562072e-38
-0.0026165403 0.0093512731 0.12900001 1.9841185e-38
0.0026663484 0.0093743438 0.12900001 1.9745733e-38
0.0031277363 0.0090744412 0.12900001 2.0204555e-38
0.0087335967 0.0096973153 0.12900001 1.6807364e-38
0.011432714 0.0092820656 0.12900001 1.6908555e-38
-0.0020628751 0.010216376 0.12900001 1.8554768e-38
-0.0010247529 0.010943061 0.12900001 1.8185274e-38
-0.00047108764 0.01094306 0.12900001 1.8740966e-38
0.0001171816 0.010943061 0.12900001 1.9020429e-38
0.0017781772 0.010839248 0.12900001 1.8829916e-38
0.0022972384 0.010631625 0.12900001 1.8645881e-38
0.0085259723 0.010112563 0.12900001 1.6807724e-38
0.0095640942 0.010943061 0.12900001 1.6718047e-38
0.015585204 0.010423999 0.12900001 1.5898006e-38
0.016000452 0.010112563 0.12900001 1.5337992e-38
-0.00042783257 0.01153998 0.12900001 1.8281064e-38
0.00042861828 0.011496726 0.12899999 1.8557288e-38
0.0014667406 0.011514029 0.12900001 1.8461493e-38
0.0025879126 0.011316785 0.12900001 1.8094873e-38
0.0034737771 0.011565934 0.12900001 1.8000871e-38
0.0088374093 0.011669746 0.12900001 1.625707e-38
0.0048233359 0.012534848 0.12900001 1.7818642e-38
0.0049548307 0.013517603 0.12900001 1.745058e-38
0.0054808129 0.013480692 0.12900001 1.7266189e-38
0.0063459151 0.013123117 0.12900001 1.7357664e-38
0.004331958 0.014555725 0.12900001 1.7175434e-38
0.00553618 0.014555725 0.12900001 1.7083231e-38
0.0047887317 0.01509555 0.12900001 1.699212e-38
0.0052039805 0.01509555 0.12900001 1.6807362e-38
0.013822913 -0.003618483 0.13000001 1.80945e-38
0.014241381 -0.003409249 0.13000001 1.7360528e-38
0.016508082 -0.0024676963 0.13000001 1.480458e-38
0.020936867 -0.0021538455 0.13000001 1.8033571e-38
0.021355335 -0.0026246221 0.13000001 1.8318436e-38
0.014450615 -0.0015261439 0.13000001 1.6814908e-38
0.015862944 -0.0013169099 0.13000001 1.5986219e-38
0.016423393 -0.0014962533 0.13000001 1.5898697e-38
