# .PCD v0.7 - Point Cloud Data file format
VERSION 0.7
FIELDS x y z rgb
SIZE 4 4 4 4
TYPE F F F F
COUNT 1 1 1 1
WIDTH 478
HEIGHT 1
VIEWPOINT 0 0 0 1 0 0 0
POINTS 478
DATA ascii
-0.0060708211 0.013629112 0.126 1.9576079e-38
-0.003028881 0.016975245 0.126 1.680986e-38
-0.0059145964 0.013839482 0.127 1.9390609e-38
-0.0034617309 0.016905565 0.127 1.6900977e-38
0.0059409207 0.027636852 0.127 1.2628485e-38
0.0055832108 0.028301168 0.127 1.2352265e-38
0.006145326 0.028147865 0.127 1.3182383e-38
-0.0063731978 0.013742439 0.12800001 2.0037057e-38
-0.0041391193 0.016756544 0.12900001 1.7546346e-38
0.0054635117 0.027812544 0.12900001 1.2443372e-38
0.0052039805 0.028175887 0.12900001 1.253557e-38
0.0049963561 0.029629257 0.12900001 1.2074982e-38
0.0066573517 0.029421633 0.12900001 1.2261146e-38
-0.0071004806 0.014375634 0.13000001 1.9025071e-38
-0.0043804394 0.016677206 0.13000001 1.8007324e-38
0.0048258537 0.029022006 0.13000001 1.2259726e-38
0.0046521323 0.028472161 0.13100001 1.2166429e-38
0.0056500514 0.028543895 0.13133334 1.2535569e-38
0.005962362 0.029149819 0.132 1.2905076e-38
0.0061514257 0.029463101 0.13150001 1.2721765e-38
0.0043222555 0.030806145 0.13166668 1.2260093e-38
0.0063872682 0.030105859 0.132 1.2168597e-38
0.0026491194 0.032478184 0.13100003 1.3180599e-38
0.0034924932 0.03247818 0.13100003 1.3089116e-38
0.0053653442 0.028407371 0.133 1.2996543e-38
0.0060075317 0.029691745 0.133 1.2629209e-38
0.0026538873 0.030690702 0.133 1.3273515e-38
0.0040809698 0.030333931 0.133 1.2812537e-38
0.0055135209 0.028513124 0.134 1.262776e-38
0.0058370288 0.029267976 0.134 1.2536649e-38
0.0026019504 0.030633898 0.134 1.2351922e-38
-0.0031728027 0.010220779 0.13500001 2.1905787e-38
-0.0030279486 0.011669322 0.13500001 2.2268446e-38
-0.0027020264 0.011560681 0.13500001 2.2175173e-38
-0.0098360991 0.012828156 0.13500001 2.1607983e-38
-0.0027020264 0.012103884 0.13500001 2.0421303e-38
-0.009763672 0.01337136 0.13500001 2.0043181e-38
0.0058081616 0.028689692 0.13500001 1.2166785e-38
0.0064455206 0.029399479 0.13500001 1.2536292e-38
0.0063151517 0.030681441 0.13500001 1.2168954e-38
0.0073938444 -0.0004552218 0.13600002 1.3824546e-38
0.008331948 -0.00050212699 0.13600002 1.2257226e-38
0.0073469398 0.00051936368 0.13600002 1.2534166e-38
-0.0015181414 0.0074509084 0.13600002 1.8966279e-38
-0.0039259414 0.0093479622 0.13600001 2.1722466e-38
-0.004144832 0.010223526 0.13600001 1.9042332e-38
-0.0036445099 0.010536226 0.13600002 1.9412548e-38
0.004364551 0.010196164 0.13600002 1.8227301e-38
-0.0061148503 0.011099089 0.13600001 1.9779182e-38
-0.0058959592 0.011099089 0.13600001 2.171529e-38
-0.0035723485 0.011402168 0.13600002 2.2363161e-38
-0.0024666684 0.011415263 0.13600002 2.2269526e-38
-0.0015181412 0.011482147 0.13600002 2.2360646e-38
-0.00056961417 0.011482147 0.13600002 2.1904355e-38
0.00039715393 0.011482147 0.13600002 1.8307285e-38
0.001546331 0.011482148 0.13600002 2.070617e-38
-0.0095076589 0.012631325 0.13600001 2.2438097e-38
-0.0035279577 0.012432334 0.13600002 2.1986821e-38
-0.0024875156 0.012474975 0.13600002 1.8945452e-38
-0.0015181415 0.012412435 0.13600002 1.9682655e-38
-0.00056961417 0.012412434 0.13600002 2.0698973e-38
0.00026425588 0.012318624 0.13600002 1.7656878e-38
0.0012179947 0.012193543 0.13600001 2.0337392e-38
0.0032661879 0.012474975 0.13600002 1.886514e-38
-0.0093544358 0.013353665 0.13600002 2.0595274e-38
-0.0034589742 0.013375552 0.13600002 2.0874726e-38
-0.0025396324 0.013397441 0.13600002 1.7467089e-38
-0.0015650467 0.013350538 0.13600002 1.8205007e-38
-0.00064257783 0.013156663 0.13600001 2.0142557e-38
0.0028596765 0.013287998 0.13600001 1.5628565e-38
0.0032775588 0.013367594 0.13600002 1.7381722e-38
-0.0083037587 0.014382452 0.13600001 1.8848232e-38
-0.0032692687 0.014448118 0.13600002 2.0316884e-38
-0.0025396324 0.014491898 0.13600002 1.9955653e-38
-0.0019559232 0.014491897 0.13600001 1.9958174e-38
-0.0031233411 0.015330979 0.13600001 1.9205865e-38
-0.0026125959 0.015345572 0.13600001 1.9854105e-38
0.0065808217 0.029048139 0.13600001 1.2073873e-38
0.0070186034 0.029485922 0.13600001 1.2351541e-38
0.0070186034 0.030252039 0.13600001 1.2722127e-38
0.0082829632 0.0019196848 0.13700001 1.2165731e-38
0.0078419624 0.0021401851 0.13700001 1.3088041e-38
0.0094012143 0.0085031958 0.13700001 1.4450529e-38
-0.0085853161 0.0095269475 0.13700001 1.9689135e-38
0.0062433342 0.0094718225 0.13700001 1.6577857e-38
0.0095692147 0.0094166975 0.13700001 1.4818954e-38
-0.004572209 0.010475099 0.13700001 2.1714569e-38
0.0047077066 0.010519199 0.13700001 1.720955e-38
0.0055267075 0.010408947 0.13699999 1.7489378e-38
0.0064488007 0.010439017 0.13699999 1.6754692e-38
0.0095959408 0.010378881 0.13699999 1.5092304e-38
-0.0085853171 0.0114012 0.13700001 2.3004228e-38
-0.0075930641 0.0114012 0.13699999 2.3000987e-38
-0.006534663 0.0114453 0.13699999 1.9223133e-38
-0.0053880611 0.0114012 0.13699999 2.2819477e-38
-0.004506059 0.0114012 0.13700001 2.282019e-38
0.0026602033 0.011533501 0.13700001 2.1813959e-38
0.0036424322 0.011421246 0.13699999 1.9419742e-38
0.0045712069 0.0114012 0.13700001 1.7114139e-38
0.005526707 0.0114012 0.13699999 1.6559158e-38
0.00648221 0.0114012 0.13700001 1.6284362e-38
0.0070702108 0.011511451 0.13700001 1.6563461e-38
0.0097897155 0.0112542 0.13700001 1.4810326e-38
0.010157216 0.0114012 0.13700001 1.4071685e-38
-0.0092468178 0.012062701 0.13700001 2.2628249e-38
-0.0085853161 0.012283201 0.13700001 2.1977839e-38
-0.0075930646 0.012393452 0.13699999 2.2345547e-38
-0.0064905626 0.012393451 0.13699999 1.9866702e-38
-0.0053880615 0.012393451 0.13699999 2.2632203e-38
-0.004506059 0.012393452 0.13700001 2.33694e-38
0.00067569962 0.012613952 0.13700001 1.8582072e-38
0.0016579286 0.012523746 0.13699999 2.0058643e-38
0.002488703 0.012356701 0.13700001 2.0153357e-38
0.0037426597 0.012323291 0.13699999 1.8955171e-38
0.0045712069 0.012393452 0.13699999 1.8588915e-38
0.0055267075 0.012393452 0.13699999 1.6741397e-38
0.0064822095 0.012393451 0.13699999 1.3883325e-38
0.0071437103 0.012393451 0.13700001 1.5824103e-38
-0.0072623142 0.013165203 0.13700001 2.123668e-38
-0.0064433119 0.013464453 0.13699999 2.2624289e-38
-0.0053880615 0.013495953 0.13699999 2.2532808e-38
-0.004469309 0.013532705 0.13700001 2.1977832e-38
-0.0013088038 0.013826703 0.13700001 1.9312076e-38
-0.00045436484 0.013633767 0.13700001 2.0417706e-38
0.00051032432 0.013495952 0.13699999 2.0607495e-38
0.0016128264 0.013495953 0.13699999 1.9780981e-38
0.0023074027 0.013562103 0.13700001 1.6737444e-38
0.0038362055 0.013532705 0.13700001 1.8674262e-38
0.0045712069 0.013495955 0.13699999 1.8399116e-38
0.0055267075 0.013495955 0.13699999 1.7292404e-38
0.0063719596 0.013312205 0.13700001 1.5172624e-38
-0.0062333122 0.014341205 0.13700001 2.0960091e-38
-0.0053880611 0.014444105 0.13699999 1.9850866e-38
-0.0043643089 0.014425205 0.13700001 1.9299853e-38
-0.0037343078 0.014708705 0.13700001 1.9024347e-38
-0.0013088038 0.014488205 0.13700001 1.9680144e-38
-0.00050030241 0.014488205 0.13700001 1.9492874e-38
0.00051032432 0.014488205 0.13699999 2.0047846e-38
0.0016128264 0.014488204 0.13699999 1.9592986e-38
0.002586703 0.014488205 0.13700001 1.8579196e-38
0.0035973296 0.014488203 0.13699999 1.8120731e-38
0.0045712069 0.014488203 0.13700001 1.7472835e-38
0.0051739076 0.014444105 0.13700001 1.710477e-38
-0.0034697074 0.015546607 0.13700001 1.8101318e-38
-0.0023672055 0.015723007 0.13700001 1.9671873e-38
-0.001474179 0.015480458 0.13699999 1.8752437e-38
-0.00047090236 0.015414307 0.13699999 1.7742239e-38
0.00051032432 0.015480458 0.13699999 1.8203938e-38
0.0015871014 0.015458407 0.13699999 1.8572001e-38
0.0025775156 0.015342643 0.13700001 1.8482322e-38
0.0035422049 0.015326107 0.13699999 1.7839467e-38
0.0045712064 0.015149706 0.13700001 1.5813315e-38
-0.0026318061 0.016252209 0.13700001 1.8931436e-38
-0.0016028043 0.016252209 0.13700001 1.8290378e-38
0.00062669953 0.016423708 0.13700001 1.7097597e-38
0.0012931006 0.016428608 0.13700001 1.7002156e-38
0.0070702108 0.03080523 0.13700001 1.2814322e-38
0.0080842944 0.0026740634 0.13800001 1.3271716e-38
0.0077881478 0.003636539 0.13800001 1.4100036e-38
0.008010258 0.003414429 0.13800001 1.3916004e-38
0.0083064036 0.0044509419 0.13800001 1.3084814e-38
0.0055448376 0.0075086555 0.13800001 1.5381828e-38
0.0065110158 0.0077085532 0.13800001 1.5750253e-38
0.0074549834 0.0075974981 0.13800001 1.5844592e-38
0.0085179377 0.0074705784 0.13800001 1.363331e-38
0.00937068 0.0075419703 0.13800001 1.2977202e-38
0.0084544783 0.0083748829 0.13800001 1.4094284e-38
0.0096205547 0.0083748829 0.13800001 1.3988116e-38
0.010009247 0.0085969931 0.13800001 1.3706147e-38
-0.008647982 0.009130056 0.13800001 1.9875676e-38
0.0066977902 0.0093440888 0.13800001 1.6763329e-38
0.0074920007 0.0093743764 0.13800001 1.6396324e-38
0.0084544783 0.0093743773 0.13800001 1.3909891e-38
0.0097871367 0.0090412125 0.13800001 1.4263989e-38
0.010009247 0.0090412125 0.13800001 1.4074929e-38
0.0067886533 0.010151762 0.13800001 1.6757928e-38
0.0074920007 0.010373872 0.13800001 1.6482763e-38
0.0084544783 0.010373871 0.13800001 1.4184679e-38
0.0068997084 0.0110402 0.13800001 1.6751454e-38
0.0075660376 0.011328945 0.13800001 1.6202215e-38
0.0084544783 0.011373364 0.13800001 1.3999566e-38
0.0093429172 0.011484421 0.13800001 1.4906102e-38
0.010120302 0.01170653 0.13800001 1.3977692e-38
-0.0090922024 0.012817079 0.13800001 2.1517583e-38
-0.0087590376 0.012817079 0.13800001 2.0687822e-38
0.0076770931 0.012483914 0.13800001 1.5832709e-38
0.0083535183 0.01237286 0.13800001 1.3998848e-38
0.0095332963 0.0123094 0.13800001 1.4348617e-38
0.010083283 0.012409878 0.13800001 1.3883701e-38
-0.0085147172 0.013550043 0.13800001 1.8568406e-38
-0.0076741157 0.013654264 0.13800001 1.8472611e-38
0.0067053619 0.013733284 0.13800001 1.5543563e-38
0.0074272193 0.013538936 0.13800001 1.6287232e-38
0.008010258 0.0132613 0.13800001 1.5283836e-38
-0.0083518364 0.014445885 0.13800001 1.8479087e-38
-0.0075929607 0.014593956 0.13800001 1.9305252e-38
-0.0066489941 0.014593958 0.13800001 2.0498396e-38
-0.0055384445 0.014816068 0.13800001 1.938881e-38
-0.0047610598 0.014816068 0.13800001 1.8653766e-38
0.005630509 0.014625688 0.13800001 1.664451e-38
0.0065110158 0.014593959 0.13800001 1.5817627e-38
0.0073439288 0.014593958 0.13800001 1.5543557e-38
-0.008647983 0.015260288 0.13800001 1.902831e-38
-0.0054576769 0.015522781 0.13800001 1.8651969e-38
-0.0046500047 0.015371342 0.13800001 1.7919802e-38
-0.0038726204 0.015815563 0.13800001 1.6721262e-38
-0.00076308241 0.015926618 0.13800001 1.7279825e-38
0.0025463547 0.015882198 0.13800001 1.7833357e-38
0.003623588 0.015871091 0.13800001 1.7284495e-38
0.0045574587 0.0157247 0.13800001 1.4982483e-38
0.0055468571 0.015563166 0.13800001 1.53545e-38
0.0065665431 0.015437976 0.13800001 1.5078627e-38
0.0072328732 0.01542687 0.13800001 1.4158829e-38
-0.0055384445 0.016370837 0.13800001 1.7731816e-38
-0.0034654189 0.016518911 0.13800001 1.8010564e-38
-0.0026192865 0.016656408 0.13800001 1.8194229e-38
-0.0016515219 0.016704002 0.13800001 1.8196025e-38
-0.00057126029 0.016613139 0.13800001 1.6912127e-38
0.000236412 0.016815057 0.13800001 1.9038384e-38
0.0016579153 0.01668179 0.13800001 1.6174555e-38
0.0025988535 0.016572755 0.13800001 1.6727726e-38
0.0035680602 0.016592948 0.13800001 1.7096868e-38
0.0045120274 0.016592944 0.13800001 1.5348391e-38
0.0053449394 0.016481891 0.13800001 1.5352709e-38
-0.0026065945 0.017481387 0.13800001 1.6167729e-38
-0.0016737331 0.017511003 0.13800001 1.6631227e-38
-0.00040215394 0.017342567 0.13800001 1.8017037e-38
0.00045852186 0.017536914 0.13800001 1.7186552e-38
0.0013811322 0.017498471 0.13800001 1.5438073e-38
0.0027536573 0.017296296 0.13800001 1.6083078e-38
0.0035046004 0.017354468 0.13800001 1.6726647e-38
0.0043824632 0.017037166 0.13800001 1.6175993e-38
-0.0024289065 0.018369826 0.13800001 1.4053709e-38
-0.0018736318 0.018369826 0.13800001 1.4423574e-38
0.00050294382 0.018458668 0.13800001 1.6539381e-38
0.0011988882 0.018443862 0.13800001 1.66323e-38
0.0084544783 0.028364768 0.13800001 1.3087318e-38
0.012403097 0.028340088 0.13800001 1.207502e-38
0.013118785 0.028586879 0.13800001 1.2167934e-38
0.0084544783 0.029364262 0.13800001 1.2626687e-38
0.0091208071 0.029364262 0.13800001 1.2166073e-38
0.014007223 0.029475316 0.13800001 1.2903337e-38
0.015117773 0.030474812 0.13800001 1.2256523e-38
-0.0024561128 0.0015056673 0.13950001 1.2255421e-38
-0.0015516296 0.0025442943 0.13900003 1.4649638e-38
-0.00058217923 0.0025442943 0.13900001 1.3083034e-38
-0.0004889628 0.0031222359 0.13900001 1.4740394e-38
0.00046184452 0.0032403101 0.13900001 1.4372328e-38
0.0013790939 0.003424257 0.13900003 1.4649281e-38
0.0024193889 0.0035137446 0.13900003 1.299085e-38
0.003447236 0.003538237 0.13930771 1.2714621e-38
0.0044624461 0.0044845301 0.13923079 1.3819537e-38
0.0055009141 0.0045425221 0.1397 1.2160737e-38
0.007485731 0.0045409082 0.139625 1.3081954e-38
0.0082920222 0.0048560607 0.13900001 1.3914203e-38
0.0044608284 0.0052196044 0.13900001 1.5386507e-38
0.0054955301 0.0054712896 0.13900003 1.42798e-38
0.006545037 0.0054613468 0.13953847 1.2712116e-38
0.0075254706 0.0053416546 0.14 1.3819157e-38
0.0083624637 0.0054808273 0.13925001 1.3913483e-38
0.0054955301 0.0064966693 0.13900003 1.538435e-38
0.0065520117 0.0064487658 0.13910002 1.4277644e-38
0.0073962212 0.0063947067 0.13940001 1.4463457e-38
0.0084183933 0.0063769119 0.13925001 1.3913124e-38
0.0057192496 0.0070932545 0.13900001 1.4275473e-38
0.0065022674 0.0072051138 0.13900001 1.556658e-38
0.0075090053 0.0070932545 0.13900001 1.5200299e-38
0.010154308 0.0084962575 0.14 1.361467e-38
0.0086755408 0.012814077 0.13900001 1.2894297e-38
0.0094851926 0.012835383 0.13900001 1.3248372e-38
0.0086947177 0.013558743 0.13900003 1.2709909e-38
0.0096343383 0.013581115 0.13900001 1.2969638e-38
-0.0084869303 0.014923431 0.13900001 1.9401046e-38
0.0078445841 0.014475992 0.13900001 1.426933e-38
0.0086499741 0.014431248 0.13900003 1.2894659e-38
0.0096343383 0.014587852 0.13900003 1.2785257e-38
-0.0081513505 0.01537087 0.13900001 1.9488928e-38
-0.0074213431 0.015594116 0.14 1.8838518e-38
-0.0065699797 0.015694346 0.13944444 1.8101314e-38
-0.0046837013 0.015818309 0.13900001 1.7551384e-38
0.0062785479 0.015818309 0.13900001 1.5261581e-38
0.0076608867 0.015674768 0.13914286 1.3062178e-38
0.00840801 0.015368788 0.14 1.3170168e-38
-0.0063591469 0.016566293 0.13933335 1.6538311e-38
-0.0053828242 0.016741151 0.13900001 1.7457032e-38
-0.004478625 0.016526753 0.13900003 1.7458831e-38
-0.0037888235 0.016936906 0.13900001 1.791837e-38
0.0020278799 0.016936906 0.13900001 1.5624618e-38
0.0056073898 0.016657256 0.13900001 1.5168315e-38
0.0065022674 0.016377605 0.13900001 1.452402e-38
0.0074052075 0.016282234 0.13914286 1.3885118e-38
-0.0074213431 0.01750941 0.14 1.5985499e-38
-0.0065531139 0.01752764 0.13981818 1.6169531e-38
-0.005406986 0.017543908 0.13920002 1.7271203e-38
-0.0045202337 0.017481243 0.14 1.8009484e-38
-0.0035089722 0.017612526 0.13928571 1.7453789e-38
-0.0011041911 0.017719923 0.13900001 1.7182963e-38
-0.00080589857 0.017757209 0.13900001 1.7551744e-38
0.0021770264 0.01764535 0.13900001 1.5072889e-38
0.004376933 0.017719923 0.13900001 1.6081998e-38
0.0055281571 0.017519383 0.13933335 1.4982121e-38
0.0062486082 0.017321637 0.14 1.3512745e-38
-0.0063698082 0.018335616 0.14 1.6627634e-38
-0.0055060475 0.018560944 0.14 1.6626195e-38
-0.0047173966 0.018560946 0.14 1.6995335e-38
-0.0034161485 0.018378254 0.13975 1.6900975e-38
-0.0026382667 0.018790578 0.13900001 1.5340488e-38
-0.0014397701 0.018652087 0.13900003 1.552704e-38
-0.00061607617 0.018604629 0.13900003 1.607877e-38
0.00032761288 0.018905636 0.13900001 1.5803979e-38
0.001470745 0.018786401 0.13916667 1.6264955e-38
0.0024667 0.018496033 0.13946156 1.5714658e-38
0.0034354194 0.018469565 0.139375 1.4978531e-38
0.0044942563 0.018454706 0.13915387 1.4795217e-38
0.0054459278 0.018507153 0.13987499 1.4427871e-38
-0.0055060475 0.019086713 0.14 1.5982267e-38
-0.0032527591 0.019368373 0.14 1.6626912e-38
-0.0023989754 0.019692924 0.13950001 1.5985138e-38
-0.0014434305 0.019566627 0.13940001 1.5157536e-38
-0.00054802094 0.01963279 0.13987499 1.4240257e-38
0.00057667383 0.019653717 0.13970001 1.4700874e-38
0.0014916653 0.019512333 0.14 1.5620306e-38
0.0024931268 0.019086713 0.14 1.5621385e-38
0.0035232012 0.019279853 0.14 1.360028e-38
0.0045210863 0.019537371 0.14 1.3601356e-38
0.0052872049 0.019312041 0.14 1.3325126e-38
-0.0021486476 0.020393619 0.14 1.5341567e-38
-0.0013374639 0.020513795 0.14 1.5066418e-38
-0.00088680605 0.020213356 0.14 1.4330296e-38
-0.0020134503 0.021415113 0.14 1.3965112e-38
-0.0014125734 0.021302447 0.14 1.4790915e-38
0.013984898 0.02922651 0.14 1.2351607e-38
0.014562862 0.029554954 0.13977778 1.2719667e-38
0.0155622 0.029902497 0.14 1.3088087e-38
0.0084038824 0.030471923 0.13900001 1.2167867e-38
0.014556164 0.030225832 0.13900001 1.253419e-38
0.015532393 0.030421078 0.13900003 1.3271394e-38
0.016451063 0.030512821 0.13930771 1.3272118e-38
0.0075651035 0.03132882 0.13933335 1.2168591e-38
0.0081263483 0.031029141 0.14 1.2076036e-38
0.0092529925 0.031404689 0.14 1.2444461e-38
-0.003616401 0.0014714266 0.14100002 1.3913155e-38
0.0099999001 0.009691637 0.141 1.4817879e-38
-0.0084577529 0.015818972 0.141 1.9025792e-38
-0.0079282299 0.015818972 0.141 1.8931436e-38
0.0088652084 0.015818972 0.141 1.20667e-38
-0.008155168 0.016499786 0.141 1.7827609e-38
-0.0077012912 0.016499786 0.14100002 1.7732894e-38
0.0078061628 0.016802371 0.141 1.4350403e-38
0.0086382702 0.016197203 0.141 1.2800677e-38
-0.0078147603 0.017180601 0.141 1.6353921e-38
0.0067319879 0.017634477 0.141 1.3237957e-38
0.0071404772 0.017498314 0.141 1.3973723e-38
-0.0042972155 0.018655701 0.14100002 1.6810582e-38
-0.0038433389 0.018996108 0.141 1.6442157e-38
0.0058015408 0.018996108 0.141 1.3600274e-38
0.0064926711 0.018500969 0.14100002 1.2868459e-38
-0.0055291662 0.019612083 0.14100002 1.5340133e-38
-0.0045808889 0.019525632 0.14100002 1.4881675e-38
-0.0037866044 0.019620188 0.141 1.5983343e-38
0.00183012 0.019903861 0.141 1.5436634e-38
0.0025757744 0.019709343 0.14100002 1.5529548e-38
0.0034186884 0.019903861 0.141 1.341553e-38
0.0057529113 0.019579664 0.14100002 1.2590081e-38
0.0063234991 0.019449985 0.141 1.2498964e-38
-0.0053184377 0.020357737 0.141 1.5250815e-38
-0.0045808884 0.020433385 0.14100002 1.4882394e-38
-0.0036164005 0.020433385 0.14100002 1.5431972e-38
-0.0027653817 0.020698147 0.141 1.4789838e-38
-0.00046763095 0.02055631 0.14100002 1.4056587e-38
0.00046848974 0.020584676 0.14100002 1.3872555e-38
0.0015275354 0.020534247 0.14100002 1.387399e-38
0.0025790161 0.020357737 0.14100002 1.4886694e-38
0.0036456268 0.020357737 0.14100002 1.4059455e-38
0.0044777337 0.020584675 0.14100002 1.2772676e-38
-0.0045998003 0.0211142 0.14100002 1.5157541e-38
-0.0036164008 0.021038553 0.141 1.4971712e-38
-0.0026582163 0.021315919 0.14100002 1.3873637e-38
-0.0013470171 0.021946305 0.141 1.4791277e-38
-0.00057542667 0.021401653 0.14100002 1.4790914e-38
0.00042310209 0.021129329 0.141 1.4055507e-38
0.0014897124 0.021038553 0.141 1.2864518e-38
0.0043264418 0.021038553 0.141 1.332369e-38
-0.002027832 0.022400184 0.141 1.4240258e-38
-0.0015739555 0.022400184 0.14100002 1.3964393e-38
-0.00080236502 0.022354797 0.141 1.378144e-38
-0.0015739555 0.023194468 0.14100002 1.3230423e-38
-0.002027832 0.024329159 0.141 1.4059817e-38
-0.0018008937 0.024442628 0.141 1.3967981e-38
-0.0040991446 0.00073273329 0.142 1.216072e-38
0.010070821 0.0090747289 0.142 1.3986324e-38
0.0098422738 0.010217467 0.142 1.5463249e-38
0.010350158 0.010547592 0.142 1.4261473e-38
-0.0098128412 0.014788424 0.142 1.8108152e-38
-0.0094700195 0.015474067 0.142 1.8199269e-38
-0.0087272394 0.016445396 0.142 1.8197832e-38
0.0085852612 0.016845355 0.142 1.2803542e-38
0.0076220944 0.017726896 0.142 1.4160268e-38
0.0085281236 0.017530996 0.14199999 1.2432251e-38
0.0075567951 0.018521372 0.142 1.2227765e-38
0.0068711517 0.019245107 0.142 1.2499683e-38
-0.0061560753 0.020273572 0.142 1.5067861e-38
0.0029858386 0.020959215 0.142 1.4334602e-38
0.0033286603 0.020959215 0.142 1.4334961e-38
-0.0043276926 0.021492494 0.142 1.4880237e-38
-0.0034896836 0.021492494 0.142 1.4605086e-38
0.00051752193 0.021599149 0.142 1.3964392e-38
0.0014621863 0.021530584 0.142 1.2864878e-38
0.002471606 0.021416312 0.14199999 1.3507365e-38
0.0034429342 0.02141631 0.142 1.3598839e-38
0.0044713994 0.021359172 0.142 1.268084e-38
-0.0027849944 0.022444775 0.142 1.4609042e-38
-0.00036619641 0.022406684 0.142 1.4056948e-38
0.00041467539 0.022101954 0.142 1.4608321e-38
0.0014621863 0.022101954 0.142 1.3599205e-38
0.0023001952 0.022101954 0.142 1.2403539e-38
-0.0023278985 0.023416104 0.142 1.4608321e-38
-0.0014327531 0.023625607 0.142 1.3047469e-38
-0.0021564877 0.024158884 0.142 1.4151293e-38
-0.0018136661 0.024463614 0.142 1.3783591e-38
0.0083948048 0.031700958 0.142 1.2445177e-38
0.007728206 0.032558016 0.142 1.2076756e-38
0.0086233513 0.032462787 0.142 1.2537735e-38
0.008928082 0.033072248 0.142 1.2260795e-38
-0.0045883264 0.00062281475 0.14300001 1.3359621e-38
0.0096814279 0.0082180062 0.14300001 1.3624358e-38
0.0103719 0.0083330851 0.14300001 1.2418649e-38
0.010486979 0.0091386354 0.14300001 1.3337364e-38
0.0069195405 0.019956028 0.14300001 1.2407848e-38
0.008415563 0.019265557 0.14300001 1.2062042e-38
0.0069195405 0.020301264 0.14300001 1.2039427e-38
-0.0043581692 0.021797286 0.14300001 1.4788403e-38
-0.0037827757 0.021797286 0.14300001 1.4788759e-38
0.0039274949 0.021797286 0.14300001 1.341553e-38
0.0041576521 0.021797286 0.14300001 1.341553e-38
-0.0032073825 0.02248776 0.14300001 1.4423936e-38
-0.0003304157 0.022832993 0.14300001 1.3690322e-38
0.00057742716 0.022641197 0.14300001 1.4241337e-38
0.0015492025 0.022717915 0.14300001 1.3691399e-38
0.0033060699 0.02248776 0.14300001 1.2130187e-38
-0.0025169104 0.023868702 0.14300001 1.4977463e-38
-0.0011359664 0.023868702 0.14300001 1.2405697e-38
-0.00059893262 0.023485107 0.14300001 1.2039075e-38
0.0018560789 0.023408389 0.14300001 1.3417331e-38
0.0023163934 0.023408389 0.14300001 1.2498971e-38
-0.001504218 0.024559176 0.14300001 1.3874706e-38
-0.0013870471 0.025584418 0.14300001 1.203728e-38
-0.00067565171 0.025940118 0.14300001 1.2222031e-38
0.0083465157 0.032522615 0.14300001 1.2629928e-38
0.0078949956 0.019632047 0.14400001 1.204482e-38
0.0084357858 0.019632047 0.14400001 1.2152086e-38
0.0044184937 0.021949716 0.14400001 1.3140741e-38
-0.0043555358 0.022611907 0.14400001 1.3596697e-38
-0.0037264547 0.022678124 0.14400001 1.3872203e-38
0.0036073099 0.022876782 0.14400001 1.2130189e-38
-0.0035002064 0.023494827 0.14400001 1.4883834e-38
-0.0029980447 0.023803851 0.14400001 1.4792353e-38
0.00027566164 0.023514142 0.14400001 1.2956355e-38
0.0014982317 0.023711145 0.14400001 1.3048549e-38
0.0025643592 0.023726596 0.14400001 1.2038713e-38
-0.0029980447 0.024035616 0.14400001 1.4793072e-38
-0.0013756769 0.024730917 0.14400001 1.378287e-38
-0.00068037654 0.024557091 0.14400002 1.295707e-38
-0.00070934737 0.025542101 0.14400001 1.2589731e-38
-0.00068037654 0.026353285 0.14400001 1.2405344e-38
0.0039824252 0.022802273 0.14500001 1.2313498e-38
0.0043908334 0.022510553 0.14500001 1.2496811e-38
0.00094853283 0.023969155 0.14500001 1.2496813e-38
0.0039824252 0.023035649 0.14500001 1.2130189e-38
0.001726454 0.024358116 0.14500001 1.2221666e-38
0.0022321027 0.024202531 0.14500001 1.2037993e-38
-0.00021834874 0.025447205 0.14500001 1.2314221e-38
1.5027589e-05 0.025136035 0.14500001 1.2037993e-38
-0.0003583745 0.026302915 0.14500001 1.2130196e-38
-0.00045172503 0.027003044 0.14500001 1.2038359e-38
-0.00021985458 0.025779359 0.14600001 1.2497895e-38
1.5234866e-05 0.026429119 0.147 1.2130193e-38
-0.00022136043 0.027138906 0.147 1.2038359e-38
