# .PCD v0.7 - Point Cloud Data file format
VERSION 0.7
FIELDS x y z rgb
SIZE 4 4 4 4
TYPE F F F F
COUNT 1 1 1 1
WIDTH 601
HEIGHT 1
VIEWPOINT 0 0 0 1 0 0 0
POINTS 601
DATA ascii
0.019729231 -0.035467956 0.125 1.4923012e-38
0.016844999 -0.031273205 0.1248 2.1355141e-38
0.019282147 -0.031533644 0.125 1.93297e-38
0.016912619 -0.030840667 0.125 2.0798733e-38
0.017330658 -0.03082888 0.12475 2.1628134e-38
0.019226264 -0.030840667 0.125 1.9325386e-38
0.020089859 -0.0357517 0.126 1.4370924e-38
0.020089859 -0.032557666 0.126 1.860005e-38
0.016236737 -0.031533547 0.12600002 2.1171111e-38
0.01840955 -0.031261221 0.126 2.162992e-38
0.019785665 -0.031543683 0.126 1.8314111e-38
0.020089859 -0.031543683 0.126 1.7760219e-38
0.013434464 -0.030515874 0.12600002 2.1901474e-38
0.014448445 -0.030626493 0.12600002 2.2363175e-38
0.015374854 -0.030479003 0.12600002 2.0980968e-38
0.016439533 -0.030479001 0.12600002 1.9874979e-38
0.017453512 -0.030479001 0.12600002 2.0520702e-38
0.018467495 -0.030479001 0.12600002 1.9876044e-38
0.019481469 -0.030479003 0.12600002 1.8954445e-38
0.020089859 -0.030479005 0.126 1.867786e-38
0.013455533 -0.029233262 0.126 1.922601e-38
0.014817164 -0.029870618 0.126 2.1718537e-38
0.015374852 -0.029465029 0.12600002 2.1901848e-38
0.016439533 -0.029465031 0.12600002 2.2085156e-38
0.01745351 -0.029465031 0.12600002 2.0333795e-38
0.018467491 -0.029465031 0.12600002 1.8398043e-38
0.019278675 -0.029819921 0.126 1.8492031e-38
0.013519269 -0.028775519 0.126 1.9409323e-38
0.015493152 -0.028451042 0.12600002 2.171134e-38
0.016439531 -0.028451042 0.12600002 2.1618421e-38
0.01745351 -0.028451044 0.12600002 2.0514228e-38
0.018467493 -0.028451046 0.12600002 1.9410395e-38
0.01949499 -0.028424006 0.12600002 1.9411833e-38
0.020089859 -0.02831585 0.126 1.9042685e-38
0.015493151 -0.027437069 0.12600002 1.9678712e-38
0.016439533 -0.02743707 0.12600002 1.9589033e-38
0.01745351 -0.02743707 0.12600002 2.0143284e-38
0.018467493 -0.02743707 0.12600002 1.9775215e-38
0.019481471 -0.027437069 0.12600002 1.8853975e-38
0.020089859 -0.027842658 0.126 1.8580621e-38
0.015750024 -0.026463646 0.126 1.8020991e-38
0.016439531 -0.026372388 0.12600002 1.8112827e-38
0.017453512 -0.026372386 0.12600002 1.8480526e-38
0.01843062 -0.026515268 0.12600002 1.8296126e-38
0.019278675 -0.026666442 0.126 1.811317e-38
0.015831145 -0.025814699 0.126 1.8571645e-38
0.016439531 -0.025530785 0.12600002 1.8296136e-38
0.017047919 -0.025814699 0.126 1.8020625e-38
0.019227276 -0.037159674 0.127 1.372879e-38
0.019227276 -0.036444254 0.127 1.556982e-38
0.02054131 -0.035305422 0.12699999 1.5844611e-38
0.011432614 -0.032533299 0.12699999 2.0891995e-38
0.01214122 -0.032219876 0.127 2.0433895e-38
0.02055591 -0.03256055 0.12699999 1.8043999e-38
0.021884548 -0.032424282 0.127 1.7678096e-38
0.022225222 -0.03256055 0.12699999 1.7495504e-38
0.011664273 -0.03189623 0.127 2.0521413e-38
0.020589978 -0.031493101 0.12699999 1.7666226e-38
0.021705693 -0.03143632 0.12699999 1.7392517e-38
0.022293359 -0.031392518 0.12699999 1.7117727e-38
0.012803103 -0.030516492 0.12699999 2.2176619e-38
0.013606125 -0.03017582 0.12699999 2.0425989e-38
0.014198901 -0.030271208 0.127 2.0520346e-38
0.020610942 -0.030437876 0.12699999 1.8677499e-38
0.021491459 -0.030547943 0.12699999 1.7387841e-38
0.022452341 -0.030652765 0.12699999 1.6468757e-38
0.012890706 -0.029443368 0.127 1.9775579e-38
0.013572057 -0.02990328 0.127 1.959659e-38
0.01443161 -0.029415848 0.12699999 2.0243766e-38
0.019610535 -0.029520018 0.12699999 1.876718e-38
0.020453708 -0.029511498 0.12699999 1.9044124e-38
0.022906573 -0.029085657 0.127 1.7297438e-38
0.012890706 -0.028881252 0.127 1.9496832e-38
0.013367652 -0.028358884 0.12699999 2.0418076e-38
0.014934761 -0.028421341 0.127 2.0881219e-38
0.02055591 -0.028421339 0.12699999 1.8396952e-38
0.022906573 -0.028881252 0.127 1.7388554e-38
0.013708328 -0.027859224 0.127 2.0691785e-38
0.014934761 -0.027518548 0.127 2.0137889e-38
0.015139166 -0.027041603 0.127 1.9493597e-38
0.020499131 -0.027359568 0.12699999 1.7102972e-38
0.015302691 -0.026387507 0.127 1.8202861e-38
0.017694235 -0.026019577 0.127 1.7282339e-38
0.018468056 -0.026107179 0.12699999 1.7282697e-38
0.019475484 -0.026282385 0.12699999 1.7559281e-38
0.020385573 -0.026326181 0.12699999 1.7098663e-38
0.012686301 -0.025508564 0.127 1.8379347e-38
0.015854586 -0.025406361 0.127 1.87546e-38
0.016621105 -0.025253057 0.127 1.8016311e-38
0.017438728 -0.025559666 0.127 1.7097229e-38
0.018409654 -0.025610767 0.127 1.6729887e-38
0.019533884 -0.025542632 0.12699999 1.7374177e-38
0.020181168 -0.025542632 0.127 1.7373095e-38
0.01755029 -0.038533848 0.12800001 1.4466345e-38
0.020820776 -0.036319185 0.12800001 1.3082354e-38
0.020820776 -0.035907157 0.12800001 1.483118e-38
0.010437624 -0.032384302 0.12800001 2.2548282e-38
0.02137015 -0.032404903 0.12800001 1.748795e-38
0.022468897 -0.032301895 0.12800001 1.739935e-38
0.0078418339 -0.031529341 0.12800001 2.2916347e-38
0.0084598791 -0.031529341 0.12800001 2.2269177e-38
0.0094899535 -0.031529345 0.12800001 2.1162831e-38
0.010520029 -0.031529341 0.12800001 2.1255746e-38
0.011564818 -0.031463124 0.12800001 2.2086941e-38
0.02127401 -0.031704456 0.12800001 1.738964e-38
0.022468897 -0.031992875 0.12800001 1.7304635e-38
0.0076358193 -0.030367646 0.12800001 2.2631846e-38
0.0084598791 -0.030447761 0.12800001 2.0880855e-38
0.0094899544 -0.030447757 0.12800001 1.9407886e-38
0.010520029 -0.030447761 0.12800001 2.1253229e-38
0.011601606 -0.030447764 0.12800001 2.300422e-38
0.012305492 -0.030379089 0.12800001 2.2635076e-38
0.021593332 -0.03029325 0.12800001 1.7478236e-38
0.022056866 -0.030344754 0.12800001 1.6465159e-38
0.0075671482 -0.029417688 0.12800001 2.1154561e-38
0.00845988 -0.029417688 0.12800001 2.0602109e-38
0.0094899535 -0.029417688 0.12800001 2.1064526e-38
0.01052003 -0.029417686 0.12800001 2.2171227e-38
0.011601607 -0.02941769 0.12800001 2.1984312e-38
0.012374163 -0.029417688 0.12800001 2.1061997e-38
0.014434312 -0.029108666 0.12800001 2.0427798e-38
0.021026792 -0.02941769 0.12800001 1.8674981e-38
0.022640577 -0.02931468 0.12800001 1.7111249e-38
0.023447467 -0.029263178 0.12800001 1.730031e-38
0.0075671473 -0.028696636 0.12800001 1.9127343e-38
0.0084598791 -0.028696636 0.12800001 1.9126264e-38
0.009548815 -0.028608343 0.12800001 2.124568e-38
0.010520029 -0.028593628 0.12800001 2.124136e-38
0.011641666 -0.02855929 0.12800001 2.0499835e-38
0.012580179 -0.028358182 0.12800001 2.0135011e-38
0.013198223 -0.02807859 0.12800001 2.0228286e-38
0.014296968 -0.028387612 0.12800001 2.0880137e-38
0.021026792 -0.02849062 0.12800001 1.7934893e-38
0.022586619 -0.028358186 0.12800001 1.6739586e-38
0.023224285 -0.028456284 0.12800001 1.6833221e-38
0.012631682 -0.027460547 0.12800001 1.8567329e-38
0.01354158 -0.027460547 0.12800001 1.9857348e-38
0.014351907 -0.027439946 0.12800001 2.0319762e-38
0.022520401 -0.027460545 0.12800001 1.6185697e-38
0.023086941 -0.027666561 0.12800001 1.6186418e-38
0.012631681 -0.026533479 0.12800001 1.8013081e-38
0.013541582 -0.026533477 0.12800001 1.9394932e-38
0.014434312 -0.026533477 0.12800001 1.9396367e-38
0.015052359 -0.026430473 0.12800001 1.8477288e-38
0.022571903 -0.026842501 0.12800001 1.5815838e-38
0.011962133 -0.025709419 0.12800001 1.8196755e-38
0.012614516 -0.025434732 0.12800001 1.8377545e-38
0.013541582 -0.025503404 0.12800001 1.8193868e-38
0.014022282 -0.025709419 0.12800001 1.8378978e-38
0.01534078 -0.025462201 0.12800001 1.8382577e-38
0.016545966 -0.025194382 0.12800001 1.8106346e-38
0.017618181 -0.025381668 0.12800001 1.7095791e-38
0.018606113 -0.025400395 0.12800001 1.6821363e-38
0.019584686 -0.025331728 0.12800001 1.7373457e-38
0.020635363 -0.025441602 0.12800001 1.7280178e-38
0.012940704 -0.02462784 0.12800001 1.7730014e-38
0.013548447 -0.024535134 0.12800001 1.7179357e-38
0.015807746 -0.02471368 0.12800001 1.7552096e-38
0.016545968 -0.024473334 0.12800001 1.7735405e-38
0.017432977 -0.024599228 0.12800001 1.7645726e-38
0.018740024 -0.024555737 0.12800001 1.7555331e-38
0.019496394 -0.024635198 0.12800001 1.7187266e-38
0.020573558 -0.024699945 0.12800001 1.6727363e-38
0.016700476 -0.02364927 0.12800001 1.6906005e-38
0.018966641 -0.023752278 0.12800001 1.6817045e-38
0.021398688 -0.035460997 0.12900001 1.5752415e-38
0.022540621 -0.034526687 0.12900001 1.6213036e-38
0.024928303 -0.033488568 0.12900001 1.3912073e-38
0.024928303 -0.032554254 0.12900001 1.4372324e-38
0.023578744 -0.031412322 0.12900001 1.6754678e-38
0.024876397 -0.031568043 0.12900001 1.5107367e-38
0.021813937 -0.030374201 0.12900001 1.7386396e-38
0.022436809 -0.030457253 0.12900001 1.6373323e-38
0.023593575 -0.03087843 0.12900001 1.6752883e-38
0.024772584 -0.030737542 0.12900001 1.6026452e-38
0.025551178 -0.030685635 0.12899999 1.2438041e-38
0.021560172 -0.029589841 0.12900001 1.8030331e-38
0.022159979 -0.029543703 0.12900001 1.7201285e-38
0.023734463 -0.029699419 0.12900001 1.7119511e-38
0.024646524 -0.029603025 0.12899998 1.639128e-38
0.025505038 -0.029728256 0.12900001 1.2990129e-38
0.0075397557 -0.028713204 0.12900001 1.9038028e-38
0.0086203478 -0.028524457 0.12899999 1.9125902e-38
0.0096160006 -0.028401768 0.12900001 2.0968013e-38
0.010533008 -0.028401768 0.12900001 2.0592028e-38
0.011432714 -0.028386937 0.12900001 1.9761907e-38
0.021606313 -0.028609393 0.12899999 1.728988e-38
0.022021562 -0.028817017 0.12900001 1.7198767e-38
0.023682557 -0.028588628 0.12900001 1.6467673e-38
0.0088720135 -0.0278135 0.12900001 1.977091e-38
0.0096827364 -0.027600929 0.12899998 1.9671876e-38
0.010533009 -0.027571268 0.12899999 1.9391689e-38
0.011484619 -0.027571268 0.12899998 1.8841397e-38
0.014339456 -0.027259834 0.12900001 2.0227205e-38
0.020983439 -0.027259834 0.12900001 1.6641638e-38
0.021606311 -0.02757127 0.12899999 1.6459042e-38
0.022436811 -0.027259834 0.12900001 1.6183901e-38
0.023391882 -0.027508983 0.12900001 1.5542847e-38
0.009979343 -0.026844585 0.12900001 1.8931792e-38
0.010602216 -0.026792679 0.12900001 1.8747765e-38
0.011545965 -0.026618088 0.12899999 1.8105278e-38
0.014588605 -0.026387811 0.12900001 1.9210537e-38
0.021398688 -0.026844585 0.12900001 1.6548367e-38
0.022733418 -0.026607301 0.12900001 1.581512e-38
0.023267306 -0.026481243 0.12900001 1.5356659e-38
0.011744151 -0.025702648 0.12900001 1.8012363e-38
0.014570151 -0.025552697 0.12900001 1.7919798e-38
0.021398688 -0.025495024 0.12900001 1.7189061e-38
0.023267306 -0.025806461 0.12900001 1.554033e-38
0.01267846 -0.024699131 0.12900001 1.7821492e-38
0.013508959 -0.024353091 0.12900001 1.6903493e-38
0.014598988 -0.024664529 0.12899998 1.6354636e-38
0.015539065 -0.024583783 0.12900001 1.6998926e-38
0.017661447 -0.024456903 0.12900001 1.7737202e-38
0.018318925 -0.02452611 0.12900001 1.7554611e-38
0.019767353 -0.024501393 0.12900001 1.6818842e-38
0.020706607 -0.024491506 0.12900001 1.617599e-38
0.021398688 -0.024664527 0.12900001 1.636038e-38
0.013670444 -0.023776354 0.12900001 1.6719461e-38
0.014443269 -0.023885936 0.12900001 1.6445752e-38
0.015611155 -0.023756171 0.12900001 1.6445032e-38
0.016374175 -0.023501832 0.12899999 1.6262078e-38
0.017572466 -0.023596743 0.12899998 1.6815968e-38
0.018519631 -0.023605641 0.12899998 1.6908161e-38
0.019613119 -0.023605637 0.12899998 1.6175271e-38
0.020672003 -0.023626406 0.12899998 1.55335e-38
0.021398688 -0.023834029 0.12900001 1.5625693e-38
0.014131832 -0.022069221 0.12900001 1.63514e-38
0.016727138 -0.022899719 0.12900001 1.5529911e-38
0.017578397 -0.022858193 0.12900001 1.5987651e-38
0.018543851 -0.022795908 0.12900001 1.6447546e-38
0.019581974 -0.022899719 0.12900001 1.6357864e-38
0.020620096 -0.022847813 0.12900001 1.5808649e-38
0.013924208 -0.021861598 0.12900001 1.6351044e-38
0.021397179 -0.036426358 0.13000001 1.4002143e-38
0.024912313 -0.034375869 0.13000001 1.4465611e-38
0.024703078 -0.033120465 0.13000001 1.5936414e-38
0.024613407 -0.032492761 0.13000001 1.6303755e-38
0.024404172 -0.031596042 0.13000001 1.6852618e-38
0.021983037 -0.030191189 0.13000001 1.7478592e-38
0.022610739 -0.030191189 0.13000001 1.664991e-38
0.023510445 -0.030525964 0.13000001 1.6839334e-38
0.024434062 -0.030549875 0.13000001 1.7127408e-38
0.021878419 -0.029981956 0.13000001 1.7754461e-38
0.024598461 -0.029145019 0.13000001 1.6570283e-38
0.025749249 -0.029354254 0.13000001 1.2990132e-38
0.0069181933 -0.028621934 0.13000001 1.9963226e-38
0.0076621366 -0.028494069 0.13000001 1.8302263e-38
0.0083828308 -0.02809885 0.13000001 1.8482329e-38
0.023866143 -0.028308084 0.13000001 1.6281129e-38
0.024517095 -0.028726552 0.13000001 1.6384454e-38
0.025644632 -0.028569628 0.13000001 1.4094306e-38
0.0085920645 -0.027784999 0.13000001 1.912662e-38
0.0092197675 -0.027261913 0.13000001 1.9119783e-38
0.021878419 -0.02705268 0.13000001 1.6641282e-38
0.023866141 -0.027680382 0.13000001 1.5727238e-38
0.024284611 -0.027889617 0.13000001 1.6011368e-38
0.025749246 -0.027633885 0.13000001 1.3541854e-38
0.0096572554 -0.026463021 0.13000001 1.7919083e-38
0.010549896 -0.026365202 0.13000001 1.7919445e-38
0.011312106 -0.02628549 0.13000001 1.7920887e-38
0.021624351 -0.026380138 0.13000001 1.7099024e-38
0.022568893 -0.026383132 0.13000001 1.6273938e-38
0.023866143 -0.026424978 0.13000001 1.5818356e-38
0.024563588 -0.026169246 0.13000001 1.582841e-38
0.025505142 -0.026180873 0.13000001 1.4643877e-38
0.0097428514 -0.025797278 0.13000001 1.7275873e-38
0.01065825 -0.025640352 0.13000001 1.7091489e-38
0.011544588 -0.025448553 0.13000001 1.7826174e-38
0.021826111 -0.025588043 0.13000001 1.6913195e-38
0.022610739 -0.025797278 0.13000001 1.581404e-38
0.023552293 -0.025797278 0.13000001 1.5448853e-38
0.024598461 -0.02569266 0.13000001 1.5367075e-38
0.02533078 -0.025797278 0.13000001 1.4918666e-38
0.011730574 -0.024960341 0.13000001 1.7916209e-38
0.012489047 -0.024489565 0.13000001 1.7637101e-38
0.025958482 -0.024960341 0.13000001 1.3080151e-38
0.012866414 -0.023675049 0.13000001 1.6718743e-38
0.013583789 -0.023346251 0.13000001 1.6903855e-38
0.014570177 -0.02351065 0.13000001 1.6813456e-38
0.015522938 -0.023312625 0.13000001 1.6261001e-38
0.01633372 -0.023077236 0.13000001 1.5528832e-38
0.021459952 -0.023425959 0.13000001 1.534947e-38
0.012985977 -0.022449534 0.13000001 1.6168454e-38
0.013594657 -0.022487577 0.13000001 1.6535796e-38
0.014547184 -0.022465628 0.13000001 1.6627988e-38
0.015775762 -0.02269364 0.13000001 1.5986213e-38
0.01664757 -0.022449536 0.13000001 1.5712865e-38
0.017570104 -0.022411494 0.13000001 1.5436276e-38
0.018478369 -0.022310043 0.13000001 1.5528112e-38
0.019576848 -0.022449534 0.13000001 1.5989445e-38
0.020593127 -0.022389753 0.13000001 1.5530625e-38
0.021445006 -0.022509316 0.13000001 1.4153089e-38
0.013753168 -0.021752089 0.13000001 1.6167012e-38
0.014380871 -0.021717215 0.13000001 1.5893303e-38
0.01664757 -0.021821832 0.13000001 1.6079129e-38
0.018844528 -0.021821832 0.13000001 1.5253684e-38
0.019658215 -0.021612598 0.13000001 1.5252961e-38
0.020594485 -0.021574555 0.13000001 1.4793783e-38
0.021355335 -0.021821832 0.13000001 1.3693552e-38
0.020623017 -0.018892558 0.13000001 1.2220945e-38
0.021730451 -0.036854155 0.13100001 1.2987995e-38
0.022389418 -0.036311138 0.13140002 1.3908864e-38
0.023171049 -0.036391899 0.132 1.3450411e-38
0.024570022 -0.036185127 0.13125001 1.4374492e-38
0.022468403 -0.035553951 0.13100003 1.5752777e-38
0.023540953 -0.035484597 0.13125002 1.5293238e-38
0.024556627 -0.035412505 0.13105884 1.5202813e-38
0.023569398 -0.033417556 0.13199998 1.7309671e-38
0.02438323 -0.033474002 0.13166666 1.6946624e-38
0.023639599 -0.032523166 0.13157143 1.7029117e-38
0.024260571 -0.032531865 0.13100001 1.6945175e-38
0.023838885 -0.030845119 0.13100001 1.656634e-38
0.006760567 -0.028314997 0.13100001 2.0144737e-38
0.0074282377 -0.028174436 0.13100003 1.8300822e-38
0.024787679 -0.02838528 0.13100003 1.6018184e-38
0.025314789 -0.028104154 0.13100001 1.5839902e-38
0.0075436994 -0.027516803 0.13100003 1.8205388e-38
0.0084664812 -0.027356617 0.13100003 1.8938993e-38
0.022152137 -0.027049936 0.13100001 1.6733478e-38
0.024576835 -0.027471619 0.13100003 1.5552542e-38
0.025435271 -0.027381262 0.13100003 1.5379646e-38
0.0076039401 -0.026487686 0.13100003 1.8291826e-38
0.0085527347 -0.026487684 0.13100003 1.8381502e-38
0.0092906877 -0.026206562 0.13100001 1.7642858e-38
0.022362981 -0.026522826 0.13100001 1.6732758e-38
0.024787679 -0.026839092 0.13100001 1.592276e-38
0.025314789 -0.026839092 0.13100001 1.5837388e-38
0.026237715 -0.026539272 0.13140002 1.3081596e-38
0.0075621451 -0.025652731 0.13150001 1.7922321e-38
0.0084658749 -0.025657158 0.13150001 1.7643578e-38
0.009537356 -0.025598032 0.13112502 1.6999648e-38
0.01038093 -0.025307924 0.13112502 1.6446837e-38
0.011188279 -0.025152344 0.13100001 1.7640704e-38
0.022362981 -0.025574034 0.13100003 1.6179221e-38
0.023590913 -0.02554369 0.13150001 1.4986797e-38
0.024576835 -0.025257766 0.13100003 1.4533728e-38
0.025546718 -0.025489697 0.13100003 1.4548806e-38
0.026158163 -0.025363188 0.13100001 1.3263464e-38
0.0086888419 -0.024246672 0.13199998 1.571071e-38
0.0095740622 -0.024239594 0.13199998 1.6170969e-38
0.010514801 -0.024446914 0.13130771 1.681418e-38
0.011504544 -0.024519812 0.13100003 1.7363398e-38
0.012242496 -0.024098128 0.13100001 1.6994251e-38
0.022380266 -0.024402069 0.13176921 1.525727e-38
0.023171049 -0.024282083 0.132 1.3788258e-38
0.024682259 -0.024941498 0.13100001 1.4257864e-38
0.025590315 -0.02482819 0.13133335 1.3995281e-38
0.026214754 -0.024391422 0.13128571 1.2528064e-38
0.0087242499 -0.023379156 0.13199998 1.6078776e-38
0.0095209489 -0.023379158 0.13199998 1.662979e-38
0.010460258 -0.023404341 0.13184614 1.6904219e-38
0.011409183 -0.023432439 0.13163157 1.6167013e-38
0.012357197 -0.023430936 0.13153847 1.5707114e-38
0.015194304 -0.02304391 0.13100001 1.6627987e-38
0.022215011 -0.023538498 0.13199998 1.4429313e-38
0.0087242499 -0.02258246 0.132 1.6629432e-38
0.0091491565 -0.02258246 0.132 1.6996416e-38
0.010636327 -0.02258246 0.132 1.6260649e-38
0.011443648 -0.022539968 0.132 1.5524163e-38
0.012421755 -0.022407224 0.13166666 1.561636e-38
0.015428575 -0.02241138 0.13100003 1.6352839e-38
0.021730451 -0.022200536 0.13100001 1.3325852e-38
0.022108784 -0.022370005 0.132 1.3325852e-38
0.012798913 -0.021959966 0.13166668 1.5983343e-38
0.013408721 -0.021475 0.13172728 1.5799671e-38
0.014409598 -0.02123436 0.13111113 1.5251532e-38
0.01551057 -0.021568008 0.13100003 1.5894381e-38
0.016564786 -0.021427445 0.13100003 1.607805e-38
0.017513582 -0.021568008 0.13100003 1.5435558e-38
0.018441293 -0.021539895 0.13100003 1.5069653e-38
0.019411173 -0.021296922 0.13100003 1.4885262e-38
0.020570811 -0.02114632 0.13100001 1.4426439e-38
0.021519607 -0.021521155 0.13100003 1.3692834e-38
0.022108784 -0.021467082 0.132 1.3233297e-38
0.013557555 -0.020617271 0.132 1.5341931e-38
0.014413591 -0.020447314 0.13157895 1.5252252e-38
0.015446986 -0.02048305 0.13173684 1.552704e-38
0.016425939 -0.020527594 0.13168749 1.5618514e-38
0.017337436 -0.020463781 0.13188887 1.5712145e-38
0.018405162 -0.020510951 0.13179998 1.5345161e-38
0.019465817 -0.020510951 0.13179998 1.4334245e-38
0.020507559 -0.020508483 0.13150001 1.3967979e-38
0.021397924 -0.020371079 0.13164285 1.3232216e-38
0.022108784 -0.020404818 0.132 1.2130187e-38
0.014487037 -0.019475335 0.13199998 1.5618875e-38
0.015416518 -0.019466484 0.13199998 1.4700155e-38
0.016342204 -0.019547418 0.13199998 1.3967264e-38
0.017328592 -0.019466484 0.13199998 1.4609757e-38
0.018361887 -0.019492237 0.13199998 1.4793066e-38
0.019559352 -0.019572709 0.13199998 1.4336044e-38
0.020529244 -0.019429402 0.13111113 1.3048545e-38
0.021485653 -0.019475315 0.1317143 1.2037634e-38
0.017477311 -0.018800799 0.132 1.3414811e-38
0.018142996 -0.018829124 0.132 1.3690679e-38
0.019771803 -0.01897076 0.132 1.3232936e-38
0.023774713 -0.036667597 0.133 1.3726996e-38
0.026771586 -0.026820725 0.133 1.2069981e-38
0.0078627383 -0.02517958 0.133 1.7090767e-38
0.0085762804 -0.025236662 0.133 1.6722704e-38
0.0093790153 -0.025295526 0.133 1.6447196e-38
0.0227044 -0.025429318 0.133 1.5901555e-38
0.023480376 -0.025295531 0.133 1.4800248e-38
0.024363384 -0.025161741 0.133 1.3883331e-38
0.025166119 -0.025108226 0.133 1.4075632e-38
0.0079340925 -0.0246801 0.133 1.6354281e-38
0.0082551865 -0.0246801 0.133 1.6078413e-38
0.0092184674 -0.0246801 0.133 1.5895101e-38
0.023293072 -0.024573069 0.133 1.4247077e-38
0.025487212 -0.0246801 0.133 1.3438522e-38
0.026343461 -0.024037912 0.133 1.2712091e-38
0.022490337 -0.023395726 0.133 1.3510239e-38
0.026557524 -0.023609789 0.133 1.2160359e-38
0.0087903431 -0.022539476 0.133 1.6812744e-38
0.010663388 -0.022539476 0.133 1.6076978e-38
0.011385849 -0.022298656 0.133 1.5433046e-38
0.012072633 -0.022182705 0.133 1.5524883e-38
0.022490337 -0.022432445 0.133 1.2866672e-38
0.011573154 -0.021362133 0.133 1.5525605e-38
0.012375887 -0.021362135 0.133 1.5800033e-38
0.013071591 -0.021148071 0.133 1.5707836e-38
0.022490337 -0.021362133 0.133 1.2314219e-38
0.011787216 -0.020612914 0.133 1.5708557e-38
0.012161826 -0.020559398 0.133 1.5524166e-38
0.013285654 -0.020398851 0.133 1.4882394e-38
0.01382081 -0.019649634 0.133 1.5158979e-38
0.014441592 -0.019200103 0.133 1.5618877e-38
0.015497632 -0.019114478 0.133 1.4701594e-38
0.016453778 -0.01915729 0.133 1.3692477e-38
0.018637214 -0.019114478 0.133 1.4058381e-38
0.019248823 -0.01932854 0.133 1.4335325e-38
0.013499716 -0.018686354 0.133 1.5985501e-38
0.014516513 -0.018686354 0.133 1.5895104e-38
0.015554716 -0.018600728 0.133 1.5070016e-38
0.016368154 -0.018643541 0.133 1.4151656e-38
0.017438466 -0.018515104 0.133 1.3047469e-38
0.018316122 -0.018579323 0.133 1.3139665e-38
0.026972877 -0.026806712 0.134 1.2069978e-38
0.0092877792 -0.02551268 0.134 1.6538672e-38
0.023090782 -0.025620516 0.134 1.5442736e-38
0.023522126 -0.024542157 0.134 1.3696782e-38
0.024169141 -0.024865665 0.134 1.3514548e-38
0.025894517 -0.024542157 0.134 1.3347407e-38
0.02287511 -0.023571633 0.134 1.3418404e-38
0.023090782 -0.023679469 0.134 1.3419121e-38
0.0088564353 -0.022493275 0.134 1.6812744e-38
0.0096406974 -0.022669734 0.13400002 1.6812384e-38
0.010402084 -0.022421384 0.134 1.6077337e-38
0.02287511 -0.022601111 0.134 1.2866672e-38
0.0099347951 -0.021738423 0.134 1.5985862e-38
0.010542599 -0.021552162 0.13400002 1.5434847e-38
0.011013155 -0.021522751 0.134 1.5434849e-38
0.02287511 -0.021522751 0.134 1.2314219e-38
0.010797483 -0.020767899 0.134 1.5985504e-38
0.0114445 -0.020444391 0.13400002 1.5800393e-38
0.012576775 -0.020354528 0.13400002 1.497351e-38
0.013169874 -0.020120883 0.134 1.4424292e-38
0.011875843 -0.019581703 0.134 1.5249378e-38
0.012522858 -0.019473869 0.13400002 1.4882752e-38
0.013447167 -0.019473867 0.134 1.4975308e-38
0.012800151 -0.01861118 0.134 1.5709636e-38
0.013522793 -0.018473934 0.13400002 1.5985862e-38
0.014463906 -0.018395508 0.13400002 1.5712507e-38
0.015494338 -0.018323619 0.134 1.5254403e-38
0.016512789 -0.01836855 0.134 1.4426802e-38
0.017483313 -0.018287672 0.134 1.3139304e-38
0.018669508 -0.018431453 0.13400002 1.304711e-38
0.01942436 -0.018503342 0.13400002 1.2863438e-38
0.012954202 -0.017748494 0.134 1.5526324e-38
0.013529327 -0.017748494 0.134 1.5436282e-38
0.014525526 -0.017440392 0.13400003 1.5071809e-38
0.015459315 -0.017483052 0.13400003 1.4979251e-38
0.016404953 -0.017662223 0.134 1.461083e-38
0.017483313 -0.017748494 0.134 1.3691039e-38
0.018417891 -0.017748494 0.134 1.3231141e-38
0.014787414 -0.016670134 0.134 1.4609753e-38
0.024784071 -0.025051229 0.13500001 1.3055732e-38
0.025109993 -0.025051229 0.13500001 1.3149729e-38
0.023806306 -0.024562346 0.13500001 1.3512033e-38
0.025490236 -0.024670986 0.13500001 1.2603383e-38
0.023635583 -0.02365442 0.13500001 1.3051422e-38
0.0089225285 -0.022226572 0.13500001 1.6628353e-38
0.0094440039 -0.022313485 0.13500001 1.6352486e-38
0.0089225285 -0.021683369 0.13500001 1.6076258e-38
0.0095472112 -0.021547571 0.13500001 1.5525242e-38
0.010008936 -0.021357447 0.13500001 1.534193e-38
0.009683013 -0.020814242 0.13500001 1.5432689e-38
0.010508684 -0.020596961 0.13500001 1.5892948e-38
0.011095342 -0.020271039 0.13500001 1.5984065e-38
0.010878061 -0.019836476 0.13500001 1.5984065e-38
0.011421264 -0.019619195 0.13500001 1.5340851e-38
0.011855828 -0.018967351 0.13500001 1.5343012e-38
0.012543884 -0.018532788 0.13500001 1.5709276e-38
0.0197866 -0.018315507 0.13500001 1.2312422e-38
0.020003881 -0.018315507 0.13500001 1.2312422e-38
0.012746681 -0.017489839 0.13500001 1.4975308e-38
0.013505192 -0.017446382 0.13500001 1.506894e-38
0.015766893 -0.017229101 0.13500001 1.4518635e-38
0.01663602 -0.017402925 0.13500001 1.424277e-38
0.017541358 -0.017446382 0.13500001 1.3875069e-38
0.01848291 -0.017446382 0.13500001 1.3414095e-38
0.01949689 -0.017555023 0.13500001 1.2679047e-38
0.013746177 -0.016707625 0.13500001 1.4976744e-38
0.014447684 -0.016515177 0.13500001 1.460904e-38
0.015489255 -0.016601399 0.13500001 1.3598125e-38
0.01662395 -0.016649684 0.13500001 1.3140026e-38
0.017574281 -0.016498245 0.13500001 1.2955994e-38
0.01848291 -0.016468614 0.13500001 1.2220947e-38
0.019379197 -0.016550096 0.13500001 1.2129111e-38
0.017831067 -0.01570813 0.13500001 1.2588293e-38
0.018569823 -0.015512578 0.13500001 1.2131991e-38
0.013544697 -0.01438469 0.13500001 1.4060549e-38
0.014463205 -0.014431603 0.13500001 1.4060189e-38
0.015006408 -0.014621723 0.13500001 1.4060549e-38
0.013572352 -0.013709143 0.13500001 1.4704839e-38
0.014137283 -0.013752598 0.13500001 1.4427534e-38
0.024675801 -0.025017902 0.13600001 1.3055015e-38
0.024529874 -0.024799012 0.13600001 1.3053936e-38
0.025405439 -0.024525398 0.13600001 1.2415043e-38
0.023654312 -0.02315733 0.13600001 1.3051063e-38
0.0095723309 -0.020567123 0.13600001 1.5892588e-38
0.010156039 -0.020494159 0.13600001 1.6168816e-38
0.010411412 -0.019873967 0.13600002 1.6260292e-38
0.011286976 -0.019326741 0.13600001 1.5157541e-38
0.011724757 -0.01888896 0.13600001 1.5343012e-38
0.012381431 -0.018341731 0.13600001 1.5618159e-38
0.012381431 -0.017356724 0.13600001 1.4790921e-38
0.012600321 -0.016809495 0.13600002 1.4515772e-38
0.01355406 -0.016418619 0.13600002 1.4883833e-38
0.014570341 -0.016262269 0.13600001 1.424098e-38
0.015737759 -0.016335232 0.13600002 1.3047112e-38
0.016606025 -0.016349826 0.13600001 1.2956355e-38
0.017087584 -0.016262269 0.13600001 1.3140746e-38
0.013804222 -0.015824487 0.13600001 1.3965835e-38
0.014636007 -0.01578071 0.13600001 1.3506655e-38
0.015634947 -0.015625494 0.13600002 1.3508094e-38
0.01659508 -0.015769765 0.13600001 1.350845e-38
0.017656703 -0.015649375 0.13600001 1.286452e-38
0.01336644 -0.014730033 0.13600001 1.3783962e-38
0.014734508 -0.014784755 0.13600001 1.3692485e-38
0.015527989 -0.014757395 0.13600002 1.3876158e-38
0.013804222 -0.013416688 0.13600001 1.4429331e-38
0.014460894 -0.013781506 0.13600001 1.4335698e-38
0.024710242 -0.024584457 0.13700001 1.3053579e-38
0.025371742 -0.024209607 0.13700001 1.2870989e-38
0.023651838 -0.022467652 0.13700001 1.2223822e-38
0.010432841 -0.019579099 0.13700001 1.5985503e-38
0.011112717 -0.01910135 0.13700001 1.5066425e-38
0.01177422 -0.018733848 0.13700001 1.5618878e-38
0.012141719 -0.018366348 0.13700001 1.5617801e-38
0.012141719 -0.017925346 0.13700001 1.5341933e-38
0.01250922 -0.016455345 0.13700001 1.5158985e-38
0.013023721 -0.016381845 0.13700001 1.5067508e-38
0.013370221 -0.015625844 0.13700001 1.433318e-38
0.014456973 -0.015610094 0.13700001 1.3323344e-38
0.016478226 -0.015328343 0.13700001 1.3599569e-38
0.017458227 -0.015352843 0.13700001 1.3048911e-38
0.015449226 -0.014397341 0.13700001 1.3692127e-38
0.016331226 -0.014712342 0.13700001 1.2864524e-38
0.017698329 -0.014706043 0.13700001 1.2498974e-38
0.014409724 -0.013515339 0.13700001 1.3969074e-38
0.015338974 -0.01395634 0.13700001 1.3783962e-38
0.014126223 -0.012853839 0.13700001 1.3052511e-38
0.024668496 -0.024164209 0.13800001 1.3144697e-38
0.02550141 -0.024108682 0.13800001 1.2595124e-38
0.024002168 -0.023164716 0.13800001 1.2775555e-38
0.024002168 -0.022720495 0.13800001 1.2407495e-38
0.010453466 -0.019277792 0.13800001 1.5526324e-38
0.010786631 -0.018944629 0.13800001 1.515862e-38
0.011415943 -0.018648483 0.13800001 1.5342293e-38
0.012896675 -0.01583509 0.13800001 1.5527047e-38
0.013429739 -0.015568559 0.13800001 1.433318e-38
0.014007224 -0.015390871 0.13800001 1.3323703e-38
0.016545624 -0.014280321 0.13800001 1.2498617e-38
0.017338872 -0.014428394 0.13800001 1.2316022e-38
0.018005202 -0.014058212 0.13800001 1.2133426e-38
0.014895664 -0.013502937 0.13800001 1.3602089e-38
0.015265846 -0.013688028 0.13800001 1.3693564e-38
0.014599517 -0.012873624 0.13800001 1.2868481e-38
0.024527656 -0.023556294 0.13900001 1.268372e-38
0.010708897 -0.018759327 0.13960001 1.5250457e-38
0.011424094 -0.01841075 0.13900001 1.5710715e-38
0.017702825 -0.014036625 0.14 1.2502208e-38
0.018040817 -0.014036625 0.14 1.2410013e-38
0.01569044 -0.013465215 0.13942857 1.332694e-38
0.016477268 -0.013832708 0.13957143 1.3052508e-38
0.017017078 -0.013936363 0.13900001 1.2777719e-38
0.014833048 -0.012751209 0.13950001 1.2961757e-38
0.015336871 -0.01290998 0.14 1.3238344e-38
0.01058994 -0.018403327 0.141 1.5433771e-38
0.011134592 -0.018335246 0.141 1.5525608e-38
0.010907654 -0.017767899 0.141 1.5433412e-38
0.011134592 -0.017994838 0.141 1.5525249e-38
0.015673358 -0.013002194 0.141 1.3423812e-38
0.016354173 -0.013531717 0.141 1.3421654e-38
0.017261928 -0.013909948 0.141 1.3054306e-38
0.015332952 -0.012775256 0.141 1.3150104e-38
0.0098422738 -0.018808104 0.142 1.5343012e-38
0.010185095 -0.018293872 0.142 1.5433409e-38
0.01647016 -0.013322957 0.142 1.3514928e-38
0.0096814279 -0.018710399 0.14300001 1.5159699e-38
