# .PCD v0.7 - Point Cloud Data file format
VERSION 0.7
FIELDS x y z rgb
SIZE 4 4 4 4
TYPE F F F F
COUNT 1 1 1 1
WIDTH 507
HEIGHT 1
VIEWPOINT 0 0 0 1 0 0 0
POINTS 507
DATA ascii
0.0063113109 0.029144801 0.12900001 1.2445178e-38
0.0037796842 0.029858943 0.13000001 1.2905096e-38
0.0066043423 0.029335856 0.13000001 1.2813602e-38
0.0042304453 0.029877782 0.13100001 1.2075332e-38
0.0056967959 0.029362272 0.132 1.2443379e-38
0.0063164509 0.029326864 0.132 1.2812879e-38
0.004549528 0.030499892 0.13130771 1.2628869e-38
0.0052846624 0.030299468 0.13100001 1.2260092e-38
0.0045003095 0.031636637 0.13142858 1.2628872e-38
0.0044909674 0.032412436 0.13114288 1.2167526e-38
0.0033936128 0.033427849 0.13199998 1.2444109e-38
0.0051512821 0.029691745 0.133 1.2074962e-38
0.0048301881 0.030440964 0.133 1.2260085e-38
0.0064840447 0.02969932 0.134 1.2813236e-38
0.0069153886 0.03077768 0.134 1.2261149e-38
0.001534961 0.011071798 0.13500001 2.089307e-38
0.0056633074 0.028834546 0.13500001 1.2166421e-38
0.0056012273 0.02936223 0.13500001 1.2535203e-38
0.0063875788 0.029413963 0.13500001 1.253557e-38
0.0066410736 0.030681441 0.13500001 1.2445538e-38
0.0087697301 -0.00017379072 0.13600001 1.2349052e-38
-0.00078850513 0.007669799 0.13600001 1.8504215e-38
-0.00056961417 0.0084176753 0.13600002 1.9148515e-38
0.010192521 0.0085453624 0.13600002 1.3248403e-38
0.010192521 0.0092385169 0.13600001 1.4076723e-38
-0.0033422324 0.010332969 0.13600002 1.9967874e-38
-0.0031233411 0.011390943 0.13600002 2.1073138e-38
-0.0025396321 0.011482148 0.13600002 2.254899e-38
-0.0015181415 0.011482147 0.13600002 2.2824139e-38
0.0003971539 0.011482148 0.13600002 2.0431384e-38
0.0016010538 0.011591592 0.13600002 2.0244831e-38
0.0023732525 0.01153687 0.13600002 2.2089106e-38
-0.0024875153 0.012349894 0.13600002 2.1436886e-38
-0.0015579398 0.012392536 0.13600002 2.0145428e-38
-0.00064257783 0.012248266 0.13600001 2.1529449e-38
0.0006160448 0.012248266 0.13600001 1.7196261e-38
0.0015861294 0.012392536 0.13600002 1.9503676e-38
0.0024948583 0.012412434 0.13600002 2.0335234e-38
0.00313329 0.012467157 0.13600001 2.0062963e-38
0.0019841129 0.013069106 0.13600001 2.0056852e-38
0.0024948581 0.013178553 0.13600002 1.8675713e-38
0.0034616264 0.013287996 0.13600002 1.729313e-38
0.0050485851 0.029631848 0.13600001 1.2073869e-38
0.0064166537 0.02926703 0.13600001 1.2166426e-38
0.0077807126 -0.00040781894 0.13700001 1.4100061e-38
0.0082829632 0.00052318251 0.13700001 1.4008917e-38
0.0084667131 0.001478684 0.13699999 1.2718541e-38
0.0085585881 0.0021953103 0.13700001 1.2257565e-38
0.0045124069 0.0068147928 0.13700001 1.639632e-38
0.00654101 0.0087992959 0.13700001 1.6488181e-38
0.0096427156 0.008534696 0.13700001 1.399171e-38
0.00648221 0.0094166975 0.13700001 1.676405e-38
0.0096427146 0.0094166966 0.13700001 1.4728195e-38
0.010157216 0.0096371975 0.13700001 1.4816084e-38
-0.004395809 0.010408949 0.13699999 2.2824511e-38
0.0055267075 0.010408947 0.13699999 1.7861043e-38
0.00648221 0.010408949 0.13699999 1.7033802e-38
0.0071804607 0.010408949 0.13700001 1.6850126e-38
0.0099367155 0.010408949 0.13700001 1.5369614e-38
0.010230716 0.010482449 0.13700001 1.4538774e-38
-0.0052778106 0.0111807 0.13700001 2.3191138e-38
-0.004322309 0.0113277 0.13700001 2.26358e-38
-0.0036791828 0.011456325 0.13700001 1.9964273e-38
0.0045712069 0.0114012 0.13700001 1.7944965e-38
0.005526708 0.0114012 0.13699999 1.6744988e-38
0.00648221 0.0114012 0.13700001 1.6931533e-38
0.0071253357 0.011346075 0.13700001 1.6564547e-38
0.0099367155 0.0114012 0.13700001 1.5548247e-38
0.010267466 0.0114012 0.13700001 1.4534818e-38
-0.0042488091 0.012466952 0.13700001 2.3370482e-38
-0.0034954327 0.012448578 0.13699999 2.2912013e-38
-0.0026318061 0.012724202 0.13700001 2.1433646e-38
-0.0010883034 0.012724202 0.13700001 1.9868483e-38
-0.00042680229 0.012540452 0.13700001 2.1621287e-38
0.00041844917 0.012650703 0.13700001 1.7934545e-38
0.0037118201 0.012368008 0.13699999 1.9509421e-38
0.0045712069 0.012393452 0.13699999 1.904917e-38
0.0054164571 0.012393449 0.13699999 1.7575122e-38
0.0064717098 0.012220202 0.13700001 1.5820508e-38
0.0099367155 0.012172951 0.13700001 1.4899995e-38
0.010267466 0.012283201 0.13700001 1.416208e-38
-0.0062333122 0.013495953 0.13700001 2.2254429e-38
-0.0057188114 0.013495954 0.13700001 2.2811558e-38
-0.0042488091 0.013422455 0.13700001 2.2904463e-38
-0.0034035577 0.013495954 0.13699999 2.1889951e-38
-0.0024113059 0.013495953 0.13699999 1.8941854e-38
-0.001474179 0.013495953 0.13699999 1.7651114e-38
-0.00050030241 0.013495955 0.13699999 1.9958164e-38
0.00051032437 0.013495952 0.13699999 2.0238355e-38
0.0015407397 0.01355532 0.13699999 2.0058647e-38
0.0025279031 0.013738504 0.13700001 1.7567566e-38
0.0035973298 0.013826704 0.13700001 1.6735996e-38
0.0045712064 0.013495953 0.13699999 1.8860459e-38
0.005366344 0.013425796 0.13699999 1.8123249e-38
0.010267466 0.013495955 0.13700001 1.2874581e-38
-0.0033374075 0.014466156 0.13699999 2.059095e-38
-0.0024113057 0.014488205 0.13700001 2.0140044e-38
-0.0014741792 0.014488204 0.13699999 1.8944738e-38
-0.00053705246 0.014267704 0.13700001 1.9680503e-38
0.00051032432 0.014488205 0.13699999 2.0140403e-38
0.0016128263 0.014488204 0.13699999 2.0330917e-38
0.0025775156 0.014460643 0.13700001 1.8487726e-38
0.0035973301 0.014488203 0.13699999 1.7843427e-38
0.0045712069 0.014488205 0.13700001 1.8119648e-38
0.0050857072 0.014488205 0.13700001 1.7935613e-38
-0.0031673072 0.015433206 0.13700001 1.8286787e-38
-0.0024388684 0.015342643 0.13700001 2.003958e-38
-0.0016616045 0.015237907 0.13700001 2.0047492e-38
0.00078594981 0.015259956 0.13700001 1.8940062e-38
0.0015087011 0.015321206 0.13700001 1.9496113e-38
0.0036304048 0.015458407 0.13699999 1.8485198e-38
0.0045344564 0.015342643 0.13700001 1.7103335e-38
0.0050857072 0.015149706 0.13700001 1.6366847e-38
0.0070702108 0.029702727 0.13700001 1.2074234e-38
0.0068497104 0.030253978 0.13700001 1.2813236e-38
0.0071437112 0.030217228 0.13700001 1.2628486e-38
0.0068497104 0.03102573 0.13700001 1.2721408e-38
0.0083064036 0.0025259901 0.13800001 1.2627074e-38
0.0091208071 0.0068201139 0.13800001 1.2250394e-38
0.0065665441 0.0076197088 0.13800001 1.5197795e-38
0.007454983 0.0075974991 0.13800001 1.5567301e-38
0.008010258 0.0079306634 0.13800001 1.5844591e-38
0.0092688799 0.0075234617 0.13800001 1.270778e-38
0.0064554885 0.0083008464 0.13800001 1.5935006e-38
0.0081213126 0.0083748829 0.13800001 1.5661622e-38
0.0092984941 0.0083304616 0.13800001 1.3260232e-38
0.008207689 0.0094113955 0.13800001 1.5660542e-38
0.0092096506 0.0094410107 0.13800001 1.3538247e-38
0.0076770931 0.010373872 0.13800001 1.6944476e-38
0.0084544783 0.010373871 0.13800001 1.5014444e-38
0.0093429172 0.010373872 0.13800001 1.4181107e-38
-0.0073153232 0.011373365 0.13800001 2.2728721e-38
-0.0066045718 0.01144 0.13800001 2.2633645e-38
-0.00563716 0.011558457 0.13800001 2.1161036e-38
-0.0047980784 0.011632494 0.13800001 2.2911673e-38
0.0076770931 0.011373366 0.13800001 1.6845798e-38
0.0084248632 0.011380768 0.13800001 1.5011563e-38
0.0093429163 0.011373365 0.13800001 1.4087109e-38
0.010675577 0.0110402 0.13800001 1.4444065e-38
-0.0074364739 0.012453627 0.13800001 2.2899795e-38
-0.0065749581 0.012483914 0.13800001 2.1893926e-38
-0.0055939718 0.012483914 0.13800001 1.9313885e-38
-0.0047980784 0.012409878 0.13800001 2.2817316e-38
0.0067220205 0.012728235 0.13800001 1.4343942e-38
0.0074920007 0.012483914 0.13800001 1.5363482e-38
0.0084248632 0.012461704 0.13800001 1.4825376e-38
0.0094317598 0.012528336 0.13800001 1.3439578e-38
0.010453466 0.012683813 0.13800001 1.3516713e-38
-0.0072042686 0.013427882 0.13800001 2.003958e-38
-0.0067970674 0.013594463 0.13800001 2.1329237e-38
-0.0055014268 0.013594464 0.13800001 2.2720079e-38
-0.0047980784 0.0136685 0.13800001 2.2903027e-38
0.0056781042 0.013816575 0.13800001 1.8029613e-38
0.006544332 0.013616676 0.13800001 1.5633244e-38
0.0074920007 0.013594463 0.13800001 1.554644e-38
0.0081054475 0.013546869 0.13800001 1.5831995e-38
0.0097130993 0.013520428 0.13800001 1.2698432e-38
-0.0065749572 0.014371849 0.13800001 2.1145566e-38
-0.0057605542 0.014371849 0.13800001 2.2530291e-38
-0.0045944774 0.014427376 0.13800001 2.0866094e-38
-0.0039836755 0.014705013 0.13800001 1.9760469e-38
-0.00065202749 0.014657417 0.13800001 1.9496473e-38
0.0024575107 0.014816068 0.13800001 1.9133094e-38
0.0055670496 0.014593959 0.13800001 1.7474993e-38
0.0065110163 0.014593959 0.13800001 1.6277887e-38
0.007454983 0.014566195 0.13800001 1.591234e-38
0.008010258 0.014371849 0.13800001 1.5825535e-38
0.0097871367 0.014482903 0.13800001 1.2697717e-38
-0.0055384445 0.015926618 0.13800001 1.8006603e-38
-0.0037171436 0.015660085 0.13800001 1.6998204e-38
-0.0026510165 0.015926618 0.13800001 1.8931439e-38
-0.0016145036 0.015778543 0.13800001 1.9766946e-38
-0.00054097257 0.015593453 0.13800001 1.8570558e-38
0.0004029944 0.015704507 0.13800001 1.8202857e-38
0.0015246493 0.015882194 0.13800001 1.8848588e-38
0.0024945291 0.015593453 0.13800001 1.8943659e-38
0.0047341371 0.015871091 0.13800001 1.5626772e-38
0.0055468567 0.015563166 0.13800001 1.5630363e-38
0.0065110158 0.015371342 0.13800001 1.5907308e-38
0.0071218181 0.015260288 0.13800001 1.5724714e-38
-0.0034284007 0.016370837 0.13800001 1.7088252e-38
-0.0025875564 0.016561216 0.13800001 1.8562299e-38
-0.0016515221 0.016592946 0.13800001 1.8934673e-38
-0.0005779909 0.016518909 0.13800001 1.7370943e-38
0.0004862856 0.016565183 0.13800001 1.7654013e-38
0.0013913832 0.016570736 0.13800001 1.7463138e-38
0.0027351482 0.016426364 0.13800001 1.7281258e-38
0.0035680602 0.016592946 0.13800001 1.7466007e-38
0.0045120269 0.016592944 0.13800001 1.5900843e-38
0.0053449399 0.016592948 0.13800001 1.4337841e-38
-0.0025399616 0.017259277 0.13800001 1.7823293e-38
-0.0016818098 0.017380429 0.13800001 1.7549582e-38
-0.00087413739 0.017037166 0.13800001 1.8564811e-38
0.00060659513 0.017185239 0.13800001 1.8206466e-38
0.0011988882 0.017185239 0.13800001 1.7185833e-38
0.0037346426 0.017314805 0.13800001 1.681956e-38
0.0043232339 0.017214853 0.13800001 1.6727726e-38
0.0084544783 0.029364262 0.13800001 1.2810359e-38
0.0094317608 0.029319843 0.13800001 1.2443026e-38
0.014081261 0.029105134 0.13800001 1.2534559e-38
0.0076770931 0.030363759 0.13800001 1.2259704e-38
0.0092688799 0.030289719 0.13800001 1.2258621e-38
0.0074549834 0.031418778 0.13800001 1.2721767e-38
-0.0024319182 0.0015754437 0.14 1.2071393e-38
-0.002489873 0.0025224874 0.13987499 1.2802491e-38
-0.0014621421 0.0025741237 0.13900003 1.437341e-38
-0.00054604799 0.0025534465 0.13950001 1.2622412e-38
0.0081263483 0.0028630369 0.14 1.2442694e-38
-0.00056153286 0.0034723375 0.13928574 1.5385765e-38
0.00044587193 0.0035632604 0.13907145 1.4556722e-38
0.0013567219 0.0035137448 0.13900003 1.4096104e-38
0.0024193891 0.0035137446 0.13900003 1.2161445e-38
0.0085843476 0.0034781466 0.13940001 1.3270997e-38
0.0043769334 0.004483195 0.13900003 1.3819894e-38
0.0085080145 0.0046119862 0.13950001 1.4007486e-38
0.005503396 0.005478444 0.13918753 1.4280158e-38
0.0065106582 0.005390347 0.13992308 1.2620642e-38
0.0074818013 0.0054567452 0.13981818 1.2343686e-38
0.0085265236 0.0054530799 0.13950001 1.4282634e-38
0.0054990263 0.0065005193 0.13908336 1.5662013e-38
0.0064493194 0.0064095734 0.13918184 1.4370918e-38
0.0075391601 0.0064598201 0.13907695 1.3725898e-38
0.0085292608 0.0063977209 0.13923079 1.4650695e-38
0.005756536 0.0071678273 0.13900001 1.5660215e-38
0.0064463378 0.0071491841 0.13900001 1.4923372e-38
0.0075761206 0.007137998 0.13900001 1.4554582e-38
0.0085157417 0.0074847639 0.13900003 1.5110228e-38
0.008627601 0.0084355697 0.13900001 1.5017669e-38
-0.0083750701 0.009442308 0.13900003 2.0707597e-38
-0.007396298 0.0093863774 0.13900001 2.209053e-38
0.0086116213 0.0093943682 0.13900001 1.4924756e-38
0.010529216 0.0097778868 0.13900001 1.4997604e-38
-0.0083750701 0.010449044 0.13900003 2.2640837e-38
0.01069238 0.010274098 0.13966666 1.4445146e-38
-0.0091580879 0.012909957 0.13900001 2.2716483e-38
-0.0084525114 0.012600192 0.13900003 2.2441334e-38
-0.0091580879 0.013469255 0.13900001 2.20686e-38
-0.0083750701 0.013581115 0.13900003 1.9767668e-38
-0.0075920522 0.013692975 0.13900001 1.7552454e-38
0.0087394612 0.013581116 0.13900001 1.3907367e-38
-0.008422669 0.01448435 0.13927275 1.8847515e-38
-0.0074322531 0.014507952 0.13900001 1.7645009e-38
-0.0063243094 0.014774285 0.13900001 2.1421071e-38
-0.0054187789 0.014763632 0.13900001 2.114412e-38
-0.0047582742 0.014848858 0.13900001 1.9850863e-38
0.0086052287 0.014595309 0.13900003 1.4089252e-38
0.0093840798 0.014642497 0.13916667 1.2247501e-38
-0.0083226589 0.015030794 0.14 1.8940431e-38
-0.0076144822 0.015320502 0.14 1.9122663e-38
-0.0065880008 0.015578042 0.13971429 1.9116544e-38
-0.0054376354 0.015619699 0.13922222 1.8835998e-38
-0.0044280216 0.015562628 0.13900001 1.8470093e-38
0.0065022674 0.015818309 0.13900001 1.5445972e-38
0.0075395121 0.015614927 0.13900003 1.4436133e-38
0.0084243044 0.015632255 0.13933334 1.3532851e-38
0.0094055543 0.015676122 0.13954546 1.2243917e-38
-0.0063704029 0.016467616 0.13944446 1.754994e-38
-0.005494684 0.016629292 0.13900001 1.68131e-38
-0.0044956706 0.016469801 0.13940002 1.7734337e-38
-0.003415958 0.016825046 0.13900001 1.754959e-38
-0.00043303298 0.016936906 0.13900001 1.6911045e-38
1.4405758e-05 0.016936906 0.13900001 1.6451146e-38
0.0023075293 0.016797081 0.13900001 1.6912116e-38
0.0057192496 0.016564041 0.13900001 1.4985725e-38
0.0065022674 0.016414892 0.13900001 1.4892802e-38
0.0075039659 0.016398706 0.13909093 1.4158469e-38
0.0083516771 0.016532987 0.14 1.3803692e-38
-0.0063698082 0.017208971 0.14 1.699929e-38
-0.0054384489 0.017599542 0.14 1.6352486e-38
-0.0045125517 0.017529894 0.14 1.8100603e-38
-0.0034804584 0.017628903 0.13955556 1.7915852e-38
-0.002819373 0.017608063 0.13900001 1.7730739e-38
-0.0011787642 0.017757209 0.13900001 1.7366988e-38
-0.00054489268 0.017580098 0.13900001 1.7738649e-38
0.00027008503 0.017671982 0.13900001 1.7651131e-38
0.0014864159 0.017690307 0.13914286 1.6448985e-38
0.0023985303 0.01754136 0.13927273 1.5348751e-38
0.0032359646 0.017608063 0.13900001 1.6083795e-38
0.0044440492 0.017787037 0.13900001 1.6451139e-38
0.0055076582 0.017554693 0.13954546 1.5717172e-38
0.0064056548 0.017427474 0.14 1.4339989e-38
0.0073376969 0.017058752 0.14 1.4248868e-38
-0.0033654235 0.018467057 0.14 1.7267603e-38
-0.0025359951 0.018502939 0.13900003 1.6349602e-38
-0.0015814592 0.01853277 0.13900003 1.5066421e-38
-0.00055783498 0.018458305 0.13922223 1.6723061e-38
0.00040158999 0.018437991 0.13927275 1.7184395e-38
0.0014853914 0.018473564 0.13954546 1.6540823e-38
0.0024521579 0.018595086 0.14 1.5439155e-38
0.0034354194 0.018469566 0.139375 1.5806132e-38
0.0045136837 0.018528203 0.13974999 1.553098e-38
0.0054505682 0.018523391 0.14 1.5347307e-38
-0.0031400947 0.019086713 0.14 1.6717664e-38
-0.0024212229 0.019641073 0.13966666 1.6535437e-38
-0.0015576007 0.019344408 0.139625 1.5158256e-38
-0.00043614832 0.019176845 0.14 1.5710347e-38
0.00056173664 0.019472992 0.14 1.5527395e-38
0.0015167017 0.019537371 0.14 1.5988011e-38
0.0024931268 0.01938715 0.14 1.5989087e-38
0.0034226084 0.019340206 0.14 1.4794501e-38
0.0045210863 0.019199377 0.14 1.4337119e-38
0.0053097378 0.019086713 0.14 1.4520066e-38
0.00091582484 0.020213356 0.14 1.4242056e-38
0.0013664826 0.020213356 0.14 1.4792349e-38
0.014588123 0.029497147 0.13900001 1.2350885e-38
0.0087394612 0.030807503 0.13900001 1.2167867e-38
0.0094106197 0.030807503 0.13900001 1.2443372e-38
0.015277976 0.030521177 0.13927275 1.3087005e-38
0.016238187 0.030803813 0.14 1.3548343e-38
0.0078445841 0.031478658 0.13900001 1.2444821e-38
0.0083647277 0.031677078 0.13975 1.2352624e-38
0.0092529925 0.031479798 0.14 1.2721038e-38
0.016519848 0.031536128 0.14 1.2256527e-38
-0.0029355853 0.0015218572 0.141 1.2531659e-38
0.0081843929 0.0037912405 0.141 1.3638357e-38
0.0081843929 0.0041316478 0.141 1.4098619e-38
0.010907654 0.0094646988 0.141 1.2876384e-38
-0.0084577529 0.015516388 0.141 1.9215218e-38
-0.0079282299 0.015818972 0.141 1.9950267e-38
-0.0075391927 0.016434947 0.14100002 1.8471897e-38
-0.0071112514 0.017498314 0.141 1.662835e-38
-0.0066422452 0.017785771 0.141 1.6445398e-38
0.0067092944 0.017861417 0.141 1.3421628e-38
0.0075886804 0.017606111 0.14100002 1.4066993e-38
0.0085626235 0.017407538 0.14100002 1.3989877e-38
-0.0064153071 0.018088356 0.141 1.616989e-38
-0.0055831992 0.018315293 0.14100002 1.6444322e-38
-0.0044863313 0.018466584 0.14100002 1.754671e-38
-0.0037676927 0.018920463 0.141 1.6993532e-38
0.0058015408 0.018996108 0.141 1.4611542e-38
0.0064823558 0.01845713 0.14100002 1.3420551e-38
0.0070497016 0.018201824 0.141 1.2962449e-38
-0.0034651083 0.01952563 0.141 1.6258128e-38
-0.0013470171 0.019903861 0.141 1.5433404e-38
-0.00072293659 0.019790392 0.141 1.5158252e-38
0.0037590959 0.019903861 0.141 1.3138944e-38
0.0044777337 0.019903861 0.141 1.3693912e-38
0.0056029698 0.019563453 0.14100002 1.3876139e-38
0.0061419485 0.019336514 0.141 1.3601348e-38
-0.0033894621 0.0201308 0.141 1.5708554e-38
-0.0025195319 0.020282092 0.14100002 1.6259929e-38
-0.0015739555 0.020433385 0.14100002 1.5708912e-38
-0.00055273285 0.020433387 0.14100002 1.460688e-38
0.00039284365 0.020546854 0.14100002 1.3689601e-38
0.0015577939 0.020720841 0.141 1.414878e-38
0.0025790161 0.020357739 0.14100002 1.5345156e-38
0.0037212733 0.020319914 0.14100002 1.3875069e-38
0.0043642647 0.020319914 0.14100002 1.3876505e-38
0.0050072568 0.0201308 0.141 1.3876861e-38
-0.0013470171 0.021038553 0.141 1.534193e-38
-0.0006013625 0.021135811 0.14100002 1.4974226e-38
0.00046848974 0.021038553 0.141 1.4331731e-38
0.0014897124 0.021038553 0.141 1.3597766e-38
0.015673358 0.030343022 0.141 1.327248e-38
0.01646764 0.030494312 0.14100002 1.2166141e-38
0.01680805 0.031023838 0.141 1.3272118e-38
-0.005013336 0.00054227677 0.142 1.3084112e-38
-0.0036134806 0.0014755134 0.142 1.4097189e-38
-0.0093557453 0.01524552 0.142 1.7554978e-38
-0.0087843761 0.01581689 0.142 1.856949e-38
-0.0084415535 0.016551508 0.142 1.8382584e-38
-0.0082891881 0.017150084 0.142 1.7829051e-38
-0.0076987725 0.017530996 0.142 1.6998932e-38
0.0085281236 0.017988093 0.142 1.3529259e-38
-0.0071464493 0.01852137 0.142 1.5525961e-38
-0.0064303325 0.018719446 0.142 1.6537235e-38
-0.0053561577 0.018902285 0.142 1.6718032e-38
0.0068711517 0.018902285 0.142 1.2960653e-38
0.0075282268 0.018473757 0.142 1.3238316e-38
0.0080138911 0.018330915 0.142 1.3424141e-38
-0.0070702666 0.019245107 0.142 1.6537236e-38
-0.0063560549 0.019330811 0.142 1.6720188e-38
-0.0053561577 0.019359382 0.14199999 1.6442164e-38
-0.0043562609 0.019387949 0.142 1.625957e-38
-0.0038705969 0.019587928 0.142 1.6076255e-38
0.0066426038 0.019359382 0.142 1.3234364e-38
0.0074425214 0.019245107 0.142 1.2408561e-38
0.0086233513 0.019435562 0.142 1.2243201e-38
-0.0051961741 0.020136442 0.142 1.543197e-38
-0.0043276926 0.020159299 0.142 1.4513971e-38
-0.0036039578 0.020540209 0.142 1.5157902e-38
-0.0026516747 0.020959215 0.142 1.5524163e-38
0.0029858386 0.020959215 0.142 1.5070009e-38
0.0032905692 0.020806849 0.142 1.5070368e-38
0.0046428102 0.02084494 0.142 1.3876502e-38
0.0054998645 0.020578302 0.142 1.2406054e-38
0.0064426246 0.020187866 0.142 1.2406409e-38
-0.0023723384 0.021365523 0.142 1.4606526e-38
-0.0015470269 0.021492494 0.142 1.4515769e-38
-0.00049951597 0.021587722 0.142 1.4974586e-38
0.00041467542 0.021530584 0.142 1.4698716e-38
0.0014621863 0.021530585 0.142 1.3230064e-38
0.0024144691 0.021370601 0.14199999 1.3691038e-38
0.0034886436 0.02127918 0.142 1.4426079e-38
0.0044713994 0.021416312 0.14199999 1.3783586e-38
-0.0021183966 0.022178136 0.142 1.3690326e-38
-0.0014327529 0.022330502 0.142 1.4149145e-38
-0.00070357654 0.022297854 0.142 1.469908e-38
0.00070036022 0.022101954 0.142 1.4699792e-38
0.0014621863 0.022101954 0.142 1.3414095e-38
0.0020716472 0.022101954 0.142 1.3232223e-38
0.0097279996 0.032272331 0.142 1.2629211e-38
-0.005673354 0.00055705552 0.14300001 1.3453257e-38
0.010602057 0.012360837 0.14300001 1.4624492e-38
-0.0096517876 0.015813196 0.14300001 1.6448275e-38
-0.009191473 0.016158432 0.14300001 1.7094e-38
-0.0089613162 0.016963983 0.14300001 1.8199992e-38
-0.0087311585 0.017424298 0.14300001 1.783049e-38
0.0085306419 0.018344928 0.14300001 1.3801897e-38
0.0092211133 0.018575085 0.14300001 1.2067056e-38
-0.0068898997 0.019956028 0.14300001 1.6812744e-38
0.0073798546 0.019956028 0.14300001 1.2499323e-38
-0.0065063038 0.020262904 0.14300001 1.6537596e-38
-0.0056623942 0.020493062 0.14300001 1.5710714e-38
-0.0045883264 0.020646499 0.14300001 1.4605807e-38
0.0067661018 0.020569781 0.14300001 1.2038708e-38
0.0073469752 0.020350585 0.14300001 1.2315292e-38
-0.0051407041 0.021383004 0.14300001 1.5251538e-38
-0.004588326 0.021452053 0.14300001 1.5342654e-38
-0.0036389276 0.02142328 0.14300001 1.5064986e-38
-0.0027470677 0.021797286 0.14300001 1.4605447e-38
0.0026616296 0.021797286 0.14300001 1.3691041e-38
0.0033137419 0.021797286 0.14300001 1.3966541e-38
-0.0048184837 0.022257602 0.14300001 1.5156823e-38
-0.0024018318 0.022679558 0.14300001 1.4516847e-38
-0.0013661237 0.022948073 0.14300001 1.4148782e-38
-0.00039946288 0.022671884 0.14300001 1.46076e-38
0.00054089428 0.022520641 0.14300001 1.4791987e-38
0.0015492025 0.022602836 0.14300001 1.3782516e-38
0.0024807916 0.02248776 0.14300001 1.3139306e-38
0.0034671803 0.022257602 0.14300001 1.2863794e-38
0.004464529 0.022257602 0.14300001 1.2864511e-38
0.0050782817 0.022372682 0.14300001 1.2404255e-38
-0.0067835697 0.0012452147 0.14400001 1.5014846e-38
-0.0097192824 0.016271429 0.14400001 1.6263883e-38
0.0085902959 0.018704981 0.14400001 1.3708268e-38
0.008822063 0.01940028 0.14400001 1.3072241e-38
0.0090538301 0.019284397 0.14400001 1.2159252e-38
-0.0063586636 0.020790882 0.14400001 1.5987659e-38
-0.0060882694 0.02133167 0.14400001 1.4701598e-38
-0.0057792463 0.021717951 0.14400001 1.4883473e-38
-0.0041568787 0.021949716 0.14400001 1.506499e-38
-0.0036160897 0.021949716 0.14400001 1.4972431e-38
-0.0051998296 0.022529133 0.14400001 1.5340135e-38
-0.0044465871 0.022529131 0.14400001 1.4605448e-38
-0.0035195202 0.022471189 0.14400001 1.4421776e-38
-0.0029980447 0.022760898 0.14400001 1.4330299e-38
0.00013080737 0.022876782 0.14400001 1.479127e-38
0.0027961258 0.022876782 0.14400001 1.2310983e-38
0.0035377801 0.022691369 0.14400001 1.2312422e-38
0.0045343768 0.022645015 0.14400001 1.2680483e-38
-0.0024186277 0.023456201 0.14400001 1.4607962e-38
-0.0016074438 0.023572082 0.14400001 1.4148422e-38
-0.00068037654 0.023456199 0.14400001 1.2863438e-38
0.00036257418 0.023340316 0.14400001 1.3782514e-38
0.0015530128 0.023551015 0.14400002 1.3782514e-38
0.0024871035 0.02349483 0.14400001 1.3140022e-38
0.0090538301 0.032726869 0.14400001 1.2997629e-38
0.0093628531 0.033615313 0.14400001 1.2352984e-38
-0.0097867772 0.016967867 0.14500001 1.8474781e-38
-0.0062861331 0.021868767 0.14500001 1.5344091e-38
-0.004185746 0.022802273 0.14500001 1.4422139e-38
-0.0037189934 0.022802273 0.14500001 1.4055154e-38
-0.0043724468 0.02322235 0.14500001 1.4238465e-38
-0.0034272729 0.023473229 0.145 1.4148068e-38
-0.0023770796 0.023910813 0.14500001 1.4883829e-38
-0.0014630224 0.023969153 0.14500001 1.3872914e-38
-0.00045172503 0.023875806 0.14500001 1.2404978e-38
0.00041510127 0.023869138 0.145 1.2956352e-38
0.0025821673 0.023969155 0.14500001 1.3049984e-38
0.0033523086 0.023572415 0.145 1.2039072e-38
0.0044491775 0.023035651 0.14500001 1.2404975e-38
0.0051493067 0.023035649 0.14500001 1.2129107e-38
-0.0020853591 0.024902659 0.14500001 1.4611555e-38
-0.00052951713 0.024202531 0.14500001 1.2222024e-38
0.00048178021 0.024202531 0.14500001 1.2313501e-38
0.0015553114 0.024389233 0.14500001 1.2404978e-38
0.0023154516 0.024502587 0.145 1.277268e-38
-0.0020853591 0.025136035 0.14500001 1.4244567e-38
-0.0013852303 0.025136035 0.14500001 1.4058381e-38
0.0095834564 0.033654269 0.14500001 1.2629571e-38
-0.004449599 0.023899473 0.14600001 1.451433e-38
-0.0039796275 0.023899473 0.14600001 1.4147705e-38
-0.004125183 0.024299763 0.147 1.515862e-38
-0.0033510434 0.024376733 0.14675 1.5159339e-38
-0.0025697127 0.02460443 0.14600001 1.488455e-38
-0.0015626308 0.024638001 0.14600001 1.414878e-38
-0.0004548404 0.024839416 0.14600001 1.2497532e-38
-0.0033759642 0.025088415 0.147 1.5159699e-38
-0.0026088769 0.025387714 0.14600001 1.4060898e-38
-0.0015122766 0.025403384 0.14600001 1.3966906e-38
-0.00045500768 0.025407337 0.14611113 1.3141102e-38
-0.002334727 0.026249329 0.14600001 1.3508447e-38
-0.001587767 0.026287038 0.14609092 1.2956355e-38
-0.00069455104 0.026251674 0.147 1.2864877e-38
0.00042927664 0.026192525 0.147 1.2497892e-38
-0.0016409323 0.027138906 0.147 1.2588659e-38
-0.0040341429 0.024941478 0.148 1.5434128e-38
-0.0040341429 0.025179682 0.148 1.515862e-38
-0.0037959381 0.025417887 0.148 1.5067864e-38
-0.00046107109 0.026751831 0.148 1.2221671e-38
0.00034882524 0.026704192 0.148 1.2313864e-38
-0.0013662492 0.02746645 0.148 1.2497183e-38
-0.00052912958 0.027493671 0.148 1.2313511e-38
1.5338504e-05 0.027323525 0.148 1.2222031e-38
-0.013174344 0.016236873 0.149 1.6274692e-38
0.00029522547 0.027588079 0.149 1.2037999e-38
