# .PCD v0.7 - Point Cloud Data file format
VERSION 0.7
FIELDS x y z rgb
SIZE 4 4 4 4
TYPE F F F F
COUNT 1 1 1 1
WIDTH 1008
HEIGHT 1
VIEWPOINT 0 0 0 1 0 0 0
POINTS 1008
DATA ascii
0.011471531 0.0074790628 0.12236364 1.8368206e-38
0.018250652 0.0076062395 0.1225 1.6716239e-38
0.033667222 0.0078605041 0.123 1.4706644e-38
0.034063157 0.0078605041 0.123 1.4158511e-38
-0.0036620556 0.0088905925 0.12199999 1.9746474e-38
0.0008962549 0.0083856713 0.12200001 2.34325e-38
0.011453863 0.0085333027 0.12255556 1.7907947e-38
-0.0043156557 0.0097310878 0.12225001 1.8552242e-38
-0.0036348188 0.0096461019 0.12281819 1.8827752e-38
-0.0029012635 0.0096725076 0.12275001 1.9288013e-38
0.011263013 0.0095392605 0.12220001 1.7632801e-38
0.034063157 0.0096422108 0.123 1.4713499e-38
-0.0041445699 0.010038146 0.123 1.8552239e-38
-0.0036166569 0.010170124 0.123 1.8644074e-38
-0.0026598137 0.010483572 0.12300001 1.8827751e-38
-0.001872393 0.010663424 0.122 1.9195096e-38
0.01120505 0.010643789 0.12200001 1.6626209e-38
-0.0025788269 0.011405922 0.12300002 1.8919221e-38
-0.0016662553 0.011557664 0.12266668 1.901142e-38
-0.00096914615 0.011723757 0.12200001 1.8919229e-38
0.0066888165 0.011723757 0.12200001 1.7907946e-38
0.0070815324 0.011723757 0.12200001 1.7816469e-38
0.011228012 0.011452036 0.12225001 1.635322e-38
-0.0011750575 0.012215788 0.123 1.8736633e-38
-0.00073858397 0.012591538 0.12280001 1.8553686e-38
0.0025652978 0.012116473 0.12200001 1.8642987e-38
0.0036592928 0.012565291 0.12199999 1.8275645e-38
0.0046497141 0.012463876 0.12199999 1.8276372e-38
0.0055597578 0.01241101 0.12199999 1.8094146e-38
0.0064090937 0.012404564 0.12258335 1.7634607e-38
0.0075724274 0.012214652 0.12200001 1.7357294e-38
0.010812335 0.012116473 0.12200001 1.607591e-38
0.011174951 0.012388927 0.12275 1.6076271e-38
0.0013960799 0.01347453 0.12275 1.7728965e-38
0.00298226 0.013601561 0.123 1.7912634e-38
0.0036124671 0.013490167 0.12258334 1.7727161e-38
0.0045488332 0.013443753 0.12254546 1.7910829e-38
0.0055597578 0.0133928 0.12199999 1.7636405e-38
0.0062237252 0.013447689 0.1225 1.7360898e-38
0.01010909 0.013403594 0.123 1.6441816e-38
0.0017847288 0.01431488 0.12233334 1.7637128e-38
0.00298226 0.014294446 0.123 1.7545292e-38
0.0036553494 0.014485816 0.12300002 1.754529e-38
0.0045964164 0.014470372 0.12261539 1.7453094e-38
0.0055130604 0.014352246 0.12238462 1.7360897e-38
0.0063477075 0.014195463 0.123 1.745345e-38
0.0018340483 0.015541643 0.123 1.7178669e-38
0.0026987365 0.015542038 0.12250002 1.7084673e-38
0.0036044975 0.015454735 0.12268751 1.6899198e-38
0.0045264065 0.015224894 0.123 1.6990674e-38
0.0037741298 0.016175138 0.123 1.6992116e-38
0.0098305447 0.018596286 0.12200001 1.4423227e-38
0.010498162 0.018570103 0.12199999 1.3319399e-38
0.011098928 0.01835278 0.123 1.295098e-38
0.018764831 0.024781562 0.12200001 1.7544194e-38
0.019059369 0.024879742 0.12200001 1.7545271e-38
0.018666653 0.025174279 0.12200001 1.7913332e-38
0.019059369 0.025272457 0.12200001 1.7545631e-38
-0.002505339 -0.01141276 0.12420001 1.3727659e-38
-0.0015633663 -0.011289217 0.12411112 1.3727299e-38
-0.00199891 -0.010722023 0.125 1.5567972e-38
0.0052018529 -0.010636247 0.12400001 1.676294e-38
0.01198747 -0.0082413228 0.12400001 1.6914648e-38
0.012135595 -0.0084757404 0.12450001 1.6090281e-38
0.01198747 -0.0075428039 0.12400001 1.9033006e-38
0.012372873 -0.0074682799 0.12442858 1.829616e-38
0.013190669 -0.007301853 0.125 1.727912e-38
0.011909085 -0.0065839016 0.12475 1.865486e-38
0.01288889 -0.0068994802 0.125 1.8474073e-38
0.013322077 -0.0067804889 0.12466667 1.7736504e-38
0.011961342 -0.0055588214 0.12425001 1.8560868e-38
0.012985355 -0.0052476688 0.12400001 1.8281763e-38
0.01198747 -0.0047487263 0.12400001 2.0874046e-38
0.013384509 -0.0048485147 0.12400001 1.8281763e-38
0.013492449 -0.0034793105 0.125 1.9854852e-38
0.013384509 -0.0026531683 0.12400001 1.9198682e-38
0.012637757 0.0018451242 0.12450001 1.9013581e-38
0.012985355 0.0021366787 0.12400001 1.8369289e-38
0.013291262 0.0027574694 0.125 1.8369289e-38
0.01883826 0.0026137645 0.125 1.5162564e-38
0.019175967 0.0027574692 0.125 1.5438069e-38
0.01863947 0.0036292768 0.125 1.5800027e-38
0.01912567 0.0035622152 0.125 1.5800743e-38
0.016976895 0.0049307561 0.12400001 1.680951e-38
0.018860631 0.0045399335 0.12425001 1.671659e-38
0.019276561 0.0045681475 0.125 1.671659e-38
0.012536308 0.0057290643 0.12400001 1.8461844e-38
0.019286621 0.005614317 0.125 1.6715872e-38
0.01198747 0.0065772659 0.12400001 1.8829189e-38
0.012329401 0.0064573386 0.12428572 1.8554039e-38
0.018872876 0.0068267374 0.12400001 1.699534e-38
0.019326856 0.0065129497 0.125 1.7088253e-38
0.01198747 0.0075751515 0.12400001 1.8368566e-38
0.018813003 0.0074853413 0.124 1.6900989e-38
0.01912567 0.0075859441 0.125 1.7083943e-38
0.033741362 0.0074587311 0.12400001 1.516474e-38
0.034283068 0.0074967458 0.12400001 1.2414718e-38
0.01198747 0.0084566157 0.12400001 1.7724277e-38
0.012084143 0.0089942496 0.125 1.7632801e-38
0.011770475 0.009600617 0.12416667 1.7540964e-38
0.012218267 0.0097319335 0.125 1.7357293e-38
-0.0033514467 0.010718488 0.12400001 1.8644073e-38
0.011735637 0.010510828 0.12450001 1.6900276e-38
0.012245092 0.010402555 0.125 1.6807719e-38
-0.0033799575 0.011417007 0.12400001 1.8827382e-38
0.011756682 0.011483646 0.12457144 1.6444696e-38
0.012084144 0.011341424 0.125 1.6443977e-38
0.0024772687 0.012564764 0.12416667 1.8459317e-38
0.0066654175 0.012780783 0.12400001 1.7452378e-38
0.0071692574 0.012716088 0.12466667 1.7266547e-38
0.011782364 0.012464715 0.125 1.607807e-38
0.0018236332 0.013621538 0.125 1.7913356e-38
0.002433236 0.013644723 0.1243 1.7912636e-38
0.0065988912 0.013612354 0.12400001 1.7177587e-38
0.007336142 0.013500826 0.125 1.7086472e-38
0.0081054447 0.01358575 0.12466667 1.6809885e-38
0.010390854 0.013312989 0.12400001 1.6441816e-38
0.011413522 0.013152103 0.125 1.58908e-38
0.0024077753 0.014510451 0.12400001 1.7453097e-38
0.006469165 0.014554131 0.12437501 1.7177224e-38
0.0071550747 0.014526878 0.125 1.7086469e-38
0.0017425184 0.015175708 0.12400001 1.7177592e-38
0.002407775 0.015268843 0.124 1.7084673e-38
0.0046157641 0.015650349 0.12433334 1.6990674e-38
0.005542825 0.015425966 0.12407691 1.7082869e-38
0.0064425897 0.015512366 0.12483334 1.6991034e-38
0.0071349563 0.015391978 0.125 1.6807722e-38
0.012084143 0.015834589 0.125 1.396369e-38
0.0037050257 0.016506219 0.12400001 1.6718051e-38
0.0041331952 0.016391283 0.12442858 1.6808085e-38
0.005565702 0.016317436 0.125 1.7176508e-38
0.0063001313 0.016260726 0.12466667 1.6992477e-38
0.011556029 0.016664483 0.125 1.3411236e-38
0.012084143 0.016639335 0.125 1.2768028e-38
0.0044035451 0.017304527 0.12400001 1.6536898e-38
0.010666596 0.017613512 0.12457144 1.396117e-38
0.011475675 0.017490409 0.12422223 1.2858781e-38
0.010856534 0.01816936 0.12400001 1.3318682e-38
0.011348823 0.018182669 0.124 1.2767307e-38
-0.003231677 -0.011416187 0.126 1.3911332e-38
-0.0025218911 -0.011314789 0.126 1.4463425e-38
0.012451212 -0.0068194787 0.126 1.8748858e-38
0.011978021 -0.0057379003 0.126 1.8467233e-38
0.012654006 -0.0056703016 0.126 1.8375036e-38
0.013397592 -0.0053323088 0.126 1.8281763e-38
0.013397592 -0.0031015533 0.126 1.9844051e-38
0.012789205 0.0017655494 0.126 1.8921744e-38
0.018873084 0.0019683454 0.126 1.5165802e-38
0.019177277 0.0018669474 0.126 1.5257996e-38
0.01960315 0.0024956148 0.126 1.5622819e-38
0.016236736 0.0031851211 0.126 1.7269056e-38
0.019684268 0.003590713 0.126 1.5985492e-38
0.019684268 0.0045370939 0.126 1.6808784e-38
0.033372998 0.0044018966 0.126 1.2133426e-38
0.019785665 0.0054158764 0.126 1.7082495e-38
0.019751867 0.006328458 0.126 1.6994258e-38
0.019582869 0.007443836 0.126 1.7454522e-38
0.018873084 0.0082550198 0.126 1.6899552e-38
0.01907588 0.0082550198 0.126 1.7083943e-38
0.012626968 0.0096745919 0.126 1.7173262e-38
0.012890603 0.010536475 0.126 1.6624046e-38
0.01253571 0.011474405 0.126 1.6168107e-38
0.0022438141 0.012919326 0.126 1.8551873e-38
0.011876622 0.012919326 0.126 1.5800763e-38
0.012180816 0.012108142 0.126 1.6262464e-38
0.0022438141 0.013122123 0.126 1.8276372e-38
0.010558449 0.013629112 0.126 1.6257785e-38
0.011685093 0.013753043 0.126 1.5707128e-38
0.012180816 0.01373051 0.126 1.543162e-38
0.0075165094 0.014338898 0.126 1.7086832e-38
0.011820291 0.014609294 0.126 1.5156474e-38
0.01226773 0.014686548 0.126 1.4420709e-38
0.011800574 0.015657071 0.126 1.4607259e-38
0.012180816 0.015555673 0.126 1.4239558e-38
0.0046266667 0.01667105 0.126 1.6899919e-38
0.0051843552 0.016569654 0.126 1.7084311e-38
0.0065025296 0.016569654 0.126 1.6993198e-38
0.010558449 0.016975245 0.126 1.4787334e-38
0.011166837 0.016366858 0.126 1.4607259e-38
0.0046773655 0.017482236 0.126 1.6536535e-38
0.010355653 0.017380837 0.126 1.4787334e-38
0.0042717736 0.018192021 0.126 1.6446502e-38
0.012788503 -0.007725291 0.127 1.783554e-38
0.013708328 -0.0074186828 0.127 1.6541552e-38
0.012618165 -0.0064988583 0.12699999 1.8470467e-38
0.013163246 -0.0065329261 0.127 1.8194602e-38
0.012788502 -0.005885642 0.127 1.8283559e-38
0.013481211 -0.0056698811 0.12699999 1.8099527e-38
0.014117139 -0.0054768315 0.127 1.8189925e-38
0.013912734 -0.0049658176 0.127 1.8281763e-38
0.014117139 -0.0049658176 0.127 1.8281044e-38
0.015956787 -6.0087139e-05 0.127 1.7729312e-38
0.012890706 0.0013707508 0.127 1.9199053e-38
0.019472564 0.0016977995 0.127 1.5443108e-38
0.020044897 0.002460913 0.127 1.5806848e-38
0.020044897 0.0031081971 0.127 1.5805053e-38
0.020044897 0.0047434405 0.127 1.7084293e-38
0.014117139 0.0051522516 0.127 1.8002305e-38
0.020044897 0.0067874948 0.127 1.7642147e-38
0.012686301 0.0075029144 0.127 1.8184895e-38
0.01973829 0.007911725 0.127 1.7728235e-38
0.020044897 0.0073666438 0.127 1.7824382e-38
0.012481895 0.0083205365 0.127 1.7908309e-38
0.019550918 0.0086271437 0.12699999 1.7637124e-38
0.012686301 0.0095469682 0.127 1.7356933e-38
0.019431682 0.0094243241 0.12699999 1.7176862e-38
0.012788502 0.011897631 0.127 1.5892961e-38
0.013095112 0.011591023 0.127 1.5800402e-38
0.01241376 0.012544915 0.127 1.607879e-38
0.0073717586 0.013430672 0.127 1.7270863e-38
0.010846651 0.013839482 0.127 1.6258504e-38
0.012400134 0.013471553 0.127 1.5340143e-38
0.0094158137 0.014606003 0.127 1.6351421e-38
0.010369706 0.014316428 0.127 1.607555e-38
0.011119192 0.014588968 0.12699999 1.5800044e-38
0.012727181 0.014534461 0.127 1.4237035e-38
0.0073717586 0.015883537 0.127 1.6807362e-38
0.011255463 0.015525827 0.127 1.5434141e-38
0.066513076 0.015781334 0.12699999 1.4467417e-38
0.0049188933 0.016905565 0.127 1.6900276e-38
0.0054810084 0.016905565 0.127 1.6993193e-38
0.0067001404 0.016701158 0.12699999 1.6809166e-38
0.0072354884 0.016462686 0.12699999 1.6715889e-38
0.011051057 0.016087942 0.127 1.525011e-38
0.0049188933 0.017723186 0.127 1.6352504e-38
0.0054639746 0.017450646 0.12699999 1.6534017e-38
0.0062475288 0.017314374 0.127 1.6810606e-38
0.0044419472 0.018472672 0.127 1.6354668e-38
0.011962133 -0.0094342399 0.12800001 1.4990397e-38
0.012889201 -0.0085586756 0.12800001 1.5722579e-38
0.013198223 -0.0085586766 0.12800001 1.5354872e-38
0.012992208 -0.0078891274 0.12800001 1.7189805e-38
0.013198223 -0.0077861203 0.12800001 1.691322e-38
0.013692659 -0.0063646166 0.12800001 1.8009131e-38
0.014022282 -0.0068590529 0.12800001 1.7459195e-38
0.013713261 -0.005828978 0.12800001 1.8099167e-38
0.014022282 -0.005828978 0.12800001 1.8191362e-38
0.01989371 -0.00047259012 0.12800001 1.2062807e-38
0.018966641 0.00086650695 0.12800001 1.5171559e-38
0.019667091 0.00058495323 0.12800001 1.4078525e-38
0.020408746 0.00086650695 0.12800001 1.4905404e-38
0.018966641 0.0011755293 0.12800001 1.5445269e-38
0.019739198 0.0013300406 0.12800001 1.5355228e-38
0.020408746 0.0015875591 0.12800001 1.572113e-38
0.013198223 0.0026176339 0.12800001 1.8736993e-38
0.020511754 0.0024802906 0.12800001 1.617383e-38
0.012580178 0.0038537234 0.12800001 1.8737356e-38
0.019996716 0.0036477083 0.12800001 1.6077687e-38
0.020449948 0.0033592875 0.12800001 1.6170955e-38
0.020449948 0.0045541739 0.12800001 1.7084648e-38
0.033387687 0.0042657531 0.12800001 1.4609387e-38
0.020511754 0.0055018421 0.12800001 1.7450558e-38
0.012786193 0.0069439472 0.12800001 1.8461485e-38
0.013816268 0.0069439472 0.12800001 1.7542403e-38
0.01412529 0.0066692606 0.12800001 1.7727157e-38
0.020497039 0.0064730565 0.12800001 1.7453799e-38
0.012992208 0.0075619919 0.12800001 1.7909386e-38
0.013572796 0.0075994506 0.12800001 1.7541322e-38
0.014110574 0.0075914222 0.12800001 1.7266175e-38
0.020408746 0.0075619919 0.12800001 1.7824026e-38
0.012854866 0.0085920664 0.12800001 1.7541324e-38
0.013492531 0.0084449127 0.12800001 1.7266176e-38
0.014022282 0.0081800371 0.12800001 1.7174341e-38
0.018760627 0.0087980814 0.12800001 1.6348176e-38
0.020408746 0.0085233944 0.12800001 1.8469052e-38
0.012786193 0.0092513142 0.12800001 1.7357291e-38
0.013374807 0.0094455574 0.12800001 1.6989589e-38
0.018829299 0.0090727685 0.12800001 1.6440371e-38
0.019996716 0.0098281559 0.12800001 1.7730763e-38
0.020408746 0.0091071036 0.12800001 1.884072e-38
0.013610253 0.0104462 0.12800001 1.634746e-38
0.013575916 0.01161362 0.12800001 1.5614932e-38
0.012811946 0.012738117 0.12800001 1.561961e-38
0.01342999 0.012454847 0.12800001 1.5158271e-38
0.012837698 0.013459168 0.12800001 1.5064638e-38
0.01328063 0.01361883 0.12800001 1.4696936e-38
0.0088719092 0.01497853 0.12800001 1.681204e-38
0.010726043 0.014772515 0.12800001 1.5984794e-38
0.012992208 0.014360485 0.12800001 1.4328874e-38
0.0087689012 0.015184544 0.12800001 1.6720204e-38
0.010849652 0.015472965 0.12800001 1.5710365e-38
0.0077388268 0.016472137 0.12800001 1.6531495e-38
0.010623036 0.016420634 0.12800001 1.5524539e-38
0.06738016 0.016420634 0.12800001 1.2532762e-38
0.0058846921 0.017862739 0.12800001 1.6350346e-38
0.0065174517 0.017715584 0.12800001 1.6535098e-38
0.0074739498 0.01756843 0.12800001 1.6351785e-38
0.0099019837 0.017862739 0.12800001 1.5248312e-38
0.0047810404 0.018716229 0.12800001 1.607844e-38
0.0056271735 0.018549455 0.12800001 1.5800054e-38
0.0064684008 0.018532285 0.12800001 1.5800051e-38
0.0074298047 0.018532287 0.12800001 1.580149e-38
0.0099019837 0.018068753 0.12800001 1.5249031e-38
0.0047001056 0.019201834 0.12800001 1.607844e-38
0.0066057444 0.019098828 0.12800001 1.5433425e-38
0.0072532194 0.019393133 0.12800001 1.5433068e-38
0.0068117594 0.020128902 0.12800001 1.6076636e-38
0.013508959 -0.0081583858 0.12900001 1.5812616e-38
0.01361277 -0.0078469487 0.12900001 1.6452235e-38
0.015689015 -0.00026865781 0.12900001 1.7728233e-38
0.016000452 -0.00026865781 0.12900001 1.7637117e-38
0.02058549 -0.0005454903 0.12899999 1.2341912e-38
0.02056819 0.00045802767 0.12900001 1.4084643e-38
0.020775814 0.0014615456 0.12900001 1.5723288e-38
0.020775814 0.0020152109 0.12900001 1.6175991e-38
0.012678461 0.0036762061 0.12900001 1.8737353e-38
0.01309371 0.0030533329 0.12900001 1.8552962e-38
0.020775814 0.0034685817 0.12900001 1.6262793e-38
0.020775814 0.0047143283 0.12900001 1.7452353e-38
0.013716583 0.0059081684 0.12900001 1.8278892e-38
0.014131832 0.0052333893 0.12900001 1.80945e-38
0.013529721 0.0065621855 0.12899999 1.8186696e-38
0.014547081 0.0065236269 0.12900001 1.7543845e-38
0.020775814 0.0069981967 0.12900001 1.7918738e-38
0.014131832 0.0076210699 0.12900001 1.7358368e-38
0.020723907 0.007569164 0.12900001 1.7824743e-38
0.013716583 0.0088668168 0.12900001 1.7082505e-38
0.020775814 0.008451568 0.12900001 1.8283578e-38
0.012886086 0.0090744412 0.12900001 1.7449128e-38
0.013768489 0.0095415963 0.12900001 1.6806636e-38
0.020516284 0.0095935026 0.12900001 1.8561968e-38
0.013924208 0.010527812 0.12900001 1.5888639e-38
0.019737693 0.010112563 0.12900001 1.6899913e-38
0.020360565 0.010112563 0.12900001 1.8008426e-38
0.013872301 0.011514028 0.12900001 1.5522376e-38
0.017038574 0.012396432 0.12900001 1.4328152e-38
0.013508959 0.013019305 0.12900001 1.4699454e-38
0.019945316 0.013019305 0.12900001 1.6353223e-38
0.020360565 0.013019305 0.12900001 1.6809885e-38
0.016830949 0.014784113 0.12900001 1.50668e-38
0.017038574 0.014887925 0.12900001 1.4974605e-38
0.0078338906 0.015856838 0.12900001 1.680808e-38
0.0084221596 0.015683819 0.12900001 1.6718403e-38
0.0091488454 0.015303174 0.12900001 1.6536533e-38
0.010186967 0.015718423 0.12900001 1.6076994e-38
0.016741969 0.015570119 0.12900001 1.4604383e-38
0.017216539 0.015451477 0.12900001 1.5156478e-38
0.010602216 0.01654892 0.12900001 1.5525618e-38
0.066868439 0.016133672 0.12900001 1.391389e-38
0.067076065 0.01654892 0.12900001 1.2716795e-38
0.0081107225 0.018832788 0.12900001 1.5710735e-38
0.0049271476 0.019801702 0.12900001 1.5894047e-38
0.0054709264 0.019426001 0.12900001 1.5801493e-38
0.0063904063 0.019692946 0.12900001 1.5801847e-38
0.0076124244 0.019704811 0.12900001 1.5525262e-38
0.0081107225 0.019040413 0.12900001 1.5710735e-38
0.0049963561 0.020078536 0.12900001 1.5894047e-38
0.0056192297 0.020493785 0.12900001 1.6261032e-38
0.0064052371 0.020582767 0.12899998 1.6352146e-38
0.0072387001 0.020535309 0.12900001 1.6075557e-38
0.0066573517 0.021220468 0.12900001 1.6719129e-38
0.0070726005 0.021324281 0.12900001 1.671841e-38
0.013613679 -0.0065477579 0.13000001 1.8193881e-38
0.014032147 -0.0065477579 0.13000001 1.8101685e-38
0.013404446 -0.0032000151 0.13000001 2.0118117e-38
0.020936867 -6.1506522e-05 0.13000001 1.3629783e-38
0.021425078 -0.00082869752 0.13000001 1.2528099e-38
0.012985977 0.00098466303 0.13000001 1.8921027e-38
0.013613679 0.00098466303 0.13000001 1.9197978e-38
0.020936867 0.00025234435 0.13000001 1.3996766e-38
0.013509062 0.0014728755 0.13000001 1.9106859e-38
0.013613679 0.0024493006 0.13000001 1.8553681e-38
0.020936867 0.0026585343 0.13000001 1.617347e-38
0.021355337 0.0025887899 0.13000001 1.6909235e-38
0.020936867 0.0039139376 0.13000001 1.6260276e-38
0.021355335 0.0031816191 0.13000001 1.7000351e-38
0.020936867 0.0042277887 0.13000001 1.6626183e-38
0.014032147 0.005797043 0.13000001 1.8095579e-38
0.020936867 0.0066339788 0.13000001 1.7178289e-38
0.014450615 0.0076801484 0.13000001 1.7174697e-38
0.014241381 0.0095632533 0.13000001 1.6531488e-38
0.02083225 0.0096678706 0.13000001 1.8839997e-38
0.019820953 0.010539678 0.13000001 1.6715522e-38
0.020476554 0.01052573 0.13000001 1.7639283e-38
0.017379891 0.011864826 0.13000001 1.5063198e-38
0.019890698 0.011027891 0.13000001 1.6623684e-38
0.020434706 0.011237125 0.13000001 1.6992113e-38
0.016961422 0.012074061 0.13000001 1.4786611e-38
0.017379891 0.012178678 0.13000001 1.4879525e-38
0.019890698 0.012910996 0.13000001 1.6536535e-38
0.020483527 0.012701762 0.13000001 1.7084669e-38
0.020413782 0.013329464 0.13000001 1.6902441e-38
0.016752189 0.014375634 0.13000001 1.4146646e-38
0.017379891 0.014794101 0.13000001 1.5065365e-38
0.009638234 0.015700782 0.13000001 1.6076994e-38
0.017519379 0.015212568 0.13000001 1.5249752e-38
0.0084246779 0.016384279 0.13000001 1.6532573e-38
0.0098474687 0.016154122 0.13000001 1.5984798e-38
0.010265936 0.016677206 0.13000001 1.5800407e-38
0.017484508 0.016049504 0.13000001 1.5431627e-38
0.0083828308 0.017514143 0.13000001 1.6074117e-38
0.0097777238 0.017653631 0.13000001 1.5430905e-38
0.0083828308 0.018560313 0.13000001 1.580221e-38
0.0048258537 0.02065265 0.13000001 1.6078438e-38
0.00566279 0.02002495 0.13000001 1.5984805e-38
0.0077202567 0.02047829 0.13000001 1.5708573e-38
0.0069181933 0.021908054 0.13000001 1.6994634e-38
0.0073366612 0.021350099 0.13000001 1.6535098e-38
0.013451329 -0.003461699 0.132 2.003024e-38
0.014035573 -0.0038866047 0.132 2.0040322e-38
0.013185762 -0.0028243402 0.132 1.9196161e-38
0.015405147 -6.1979648e-05 0.13100001 1.7819713e-38
0.021510294 -0.00027291768 0.1312 1.3723773e-38
0.022244927 -0.00069842918 0.13180001 1.3541893e-38
0.014035573 0.00089358527 0.132 1.9105783e-38
0.015522745 0.00015000012 0.132 1.7911908e-38
0.021455254 0.00057103584 0.13125002 1.500408e-38
0.014167072 0.0015224466 0.13125001 1.8648401e-38
0.021452714 0.0015060575 0.13114287 1.6183183e-38
0.014140087 0.0021518762 0.13100001 1.8371089e-38
0.021414185 0.0020464545 0.13100001 1.6820279e-38
0.012664183 0.0037332017 0.13100001 1.8922466e-38
0.013296713 0.0033115149 0.13100001 1.8552962e-38
0.021414185 0.0038386234 0.13100001 1.6904205e-38
0.021414183 0.004576575 0.13100003 1.7269036e-38
0.022108784 0.0048239641 0.132 1.7728218e-38
0.033326838 0.0047874185 0.13100001 1.7183662e-38
0.021452712 0.0055164504 0.13114287 1.8004089e-38
0.022108784 0.0054613226 0.132 1.8650181e-38
0.023737589 0.005815411 0.132 2.0135399e-38
0.024415417 0.0057041259 0.13199998 2.0507064e-38
0.021434719 0.006480746 0.13112502 1.7820783e-38
0.022108784 0.0065235868 0.132 1.8466158e-38
0.023765918 0.0064386055 0.132 2.0228319e-38
0.024426455 0.0064849588 0.13199998 2.0509586e-38
0.02146953 0.0074923113 0.13142858 1.819569e-38
0.022108784 0.0074442159 0.132 1.847372e-38
0.02380841 0.0074442164 0.132 2.0504556e-38
0.024385067 0.0074947998 0.13199998 2.0416678e-38
0.01435093 0.0087934434 0.13100001 1.7082864e-38
0.021523116 0.0084080445 0.13157143 1.7915152e-38
0.022374349 0.0084887771 0.13199998 1.828897e-38
0.023557328 0.0085129179 0.13199998 1.9119458e-38
0.024445767 0.0083825495 0.13199998 1.9948505e-38
0.025153942 0.0084710717 0.13199998 2.0872619e-38
0.014493405 0.0092383102 0.13133335 1.6715519e-38
0.021444149 0.0094107203 0.13111113 1.9119824e-38
0.022356644 0.0093916999 0.13199998 1.8384054e-38
0.023546927 0.0094162142 0.13199998 1.8476248e-38
0.02444577 0.0094979266 0.13199998 1.930601e-38
0.025083127 0.0094979275 0.132 2.0134333e-38
0.030701809 0.0095681772 0.13150001 1.7827625e-38
0.031376738 0.0093323076 0.13166668 1.8469395e-38
0.034299828 0.0098852469 0.13150001 1.6996059e-38
0.018199651 0.010772645 0.132 1.5705324e-38
0.019622017 0.010901878 0.13100001 1.6531488e-38
0.020816796 0.010761316 0.13100001 1.7732205e-38
0.021414185 0.01048019 0.13100003 1.8565206e-38
0.022108784 0.010560192 0.132 1.9027987e-38
0.02380841 0.010489374 0.132 1.912198e-38
0.024445767 0.010560191 0.13199998 1.9029423e-38
0.025371453 0.010620893 0.13199998 1.9579357e-38
0.034406058 0.010203121 0.13150001 1.7087896e-38
0.017652426 0.01171415 0.13125001 1.5247227e-38
0.01822393 0.011531405 0.13199998 1.5891518e-38
0.019721337 0.011452008 0.13166668 1.6440014e-38
0.020649878 0.011718895 0.13100003 1.6992833e-38
0.021414185 0.011534408 0.13100003 1.7823678e-38
0.024472324 0.011436561 0.13199998 1.9025824e-38
0.025253087 0.011282532 0.132 1.8931828e-38
0.02975709 0.011834909 0.132 2.0404433e-38
0.017671714 0.012535913 0.13100001 1.478877e-38
0.018284632 0.012419157 0.13199998 1.5341226e-38
0.019787066 0.012394728 0.13175 1.6443257e-38
0.020615991 0.012377782 0.13100003 1.7176863e-38
0.021393102 0.012377781 0.13100001 1.7821155e-38
0.016881052 0.013010311 0.13100001 1.3960813e-38
0.017407937 0.013337363 0.13144445 1.396189e-38
0.018213814 0.013286672 0.13199998 1.4329594e-38
0.020535672 0.013642841 0.13100001 1.6901719e-38
0.021204753 0.013359793 0.13166668 1.7359456e-38
0.016881052 0.014697058 0.13100001 1.4606905e-38
0.017387664 0.01467159 0.13125001 1.4606187e-38
0.018178405 0.01480925 0.132 1.515864e-38
0.025508031 0.01480925 0.132 1.7910835e-38
0.0093961097 0.015962118 0.13100001 1.635286e-38
0.018264934 0.015354668 0.13140002 1.5709294e-38
0.024675161 0.01581529 0.13128574 1.7634967e-38
0.025434898 0.015383792 0.13185713 1.7910113e-38
0.026145391 0.015340382 0.132 1.8185977e-38
0.0088332146 0.016467784 0.13125001 1.6533652e-38
0.0094430707 0.016475467 0.13116668 1.6259225e-38
0.017492741 0.016653823 0.13180001 1.4787334e-38
0.018305877 0.016530121 0.13199998 1.5892244e-38
0.02459597 0.016429137 0.13136365 1.7452376e-38
0.025539391 0.01653092 0.13174999 1.7451655e-38
0.067528591 0.016869634 0.13150001 1.2163632e-38
0.0088173253 0.017513858 0.13157143 1.598156e-38
0.0093141124 0.017583823 0.13183333 1.5797889e-38
0.017604783 0.017443666 0.132 1.4604384e-38
0.018242141 0.01746491 0.13199998 1.5154318e-38
0.024775662 0.017081283 0.13150001 1.7360175e-38
0.025399132 0.017503565 0.13163637 1.7176143e-38
0.0084473146 0.018703083 0.13100001 1.5894403e-38
0.0092435107 0.018397657 0.13133334 1.55249e-38
0.017594161 0.018474063 0.132 1.4790215e-38
0.018178405 0.018491767 0.13199998 1.5156119e-38
0.02465822 0.01842095 0.132 1.6622967e-38
0.025269024 0.018447507 0.13199998 1.6623328e-38
0.018072179 0.019058308 0.132 1.5066805e-38
0.0082364706 0.020600673 0.13100001 1.552526e-38
0.025189351 0.020757932 0.132 1.5802205e-38
0.0077445023 0.021233207 0.13100001 1.5891525e-38
0.0082364706 0.021127783 0.13100001 1.5616018e-38
0.018778643 0.027136818 0.13100001 1.9024691e-38
0.014998154 -6.2925901e-05 0.133 1.8370368e-38
0.015854403 -6.2925901e-05 0.133 1.7911908e-38
0.022383306 -0.00027698828 0.133 1.4368783e-38
0.023132525 -0.00091917539 0.133 1.4187623e-38
0.015640341 0.00022249062 0.133 1.8095219e-38
0.022115728 0.00052574568 0.133 1.5373584e-38
0.014355966 0.001007386 0.133 1.8831712e-38
0.022169244 0.0014355108 0.133 1.6552687e-38
0.015854403 0.0025058226 0.133 1.8005183e-38
0.022169244 0.0025058223 0.133 1.7186896e-38
0.013285655 0.0037901972 0.133 1.8645157e-38
0.022169245 0.0034334266 0.133 1.7646081e-38
0.012215341 0.0042183218 0.133 2.011957e-38
0.022169245 0.0042183218 0.133 1.7454862e-38
0.023846067 0.0047178008 0.133 1.9585817e-38
0.024390141 0.0045394152 0.133 1.9868518e-38
0.025059087 0.0048605092 0.133 2.0973439e-38
0.028377054 0.0044323844 0.133 2.0966595e-38
0.033621583 0.0042183218 0.133 1.6722684e-38
0.014516513 0.0058237896 0.133 1.8002664e-38
0.0227044 0.005288634 0.133 1.8928209e-38
0.023560651 0.0053837728 0.133 1.967262e-38
0.024470415 0.005128087 0.133 2.0235148e-38
0.025380181 0.0055026957 0.133 2.1340065e-38
0.026429085 0.0055312375 0.133 2.097236e-38
0.027199712 0.0058237901 0.133 1.9682334e-38
0.014712737 0.0063589457 0.133 1.7819353e-38
0.022490337 0.0064303 0.133 1.8744912e-38
0.023432214 0.006487383 0.133 1.9857019e-38
0.025380179 0.0064302986 0.133 2.1248232e-38
0.026450492 0.0064302995 0.133 2.1340789e-38
0.027413774 0.0064303004 0.133 2.0139724e-38
0.028377056 0.0064302995 0.133 1.8753178e-38
0.029126273 0.0067870705 0.133 1.9119795e-38
0.014998154 0.0074292575 0.133 1.7358732e-38
0.022490337 0.0073757423 0.133 1.856376e-38
0.023453619 0.0073757418 0.133 1.9764831e-38
0.025380179 0.0073757418 0.133 2.0512829e-38
0.026450492 0.0073757414 0.133 2.1435147e-38
0.027413776 0.0073757414 0.133 2.1247154e-38
0.028377056 0.0073757414 0.133 2.0043568e-38
0.029126273 0.0073757418 0.133 1.8934692e-38
0.022597369 0.0080714449 0.133 1.8567001e-38
0.023303775 0.0081570698 0.133 1.9396766e-38
0.025629921 0.0083568618 0.133 2.0876214e-38
0.026450492 0.0084460536 0.133 2.1155317e-38
0.027242526 0.0083711324 0.133 2.1338631e-38
0.028591117 0.0080714449 0.133 2.0508145e-38
0.0227044 0.0098909754 0.133 1.8754279e-38
0.02320388 0.0099266525 0.133 1.8569888e-38
0.025594242 0.0095698824 0.133 2.0318005e-38
0.026450491 0.0095698824 0.133 2.0597107e-38
0.027322035 0.0097227842 0.133 2.0044288e-38
0.028377054 0.0099980067 0.133 1.9487153e-38
0.029530611 0.00976016 0.133 1.930132e-38
0.030410647 0.0095698824 0.133 1.8383321e-38
0.031480961 0.0098552983 0.133 1.7823666e-38
0.032123148 0.0093558189 0.133 1.8469754e-38
0.022490337 0.010212068 0.133 1.9399649e-38
0.023603464 0.010511756 0.133 1.9582961e-38
0.025701275 0.010212068 0.133 1.9675152e-38
0.026450491 0.010497485 0.133 1.9857384e-38
0.027413776 0.010497486 0.133 1.9676587e-38
0.028377054 0.010497487 0.133 1.9397121e-38
0.029126273 0.010212068 0.133 1.8838902e-38
0.034317285 0.010586678 0.133 1.745452e-38
0.018637214 0.011389412 0.133 1.6074473e-38
0.019225886 0.011496443 0.133 1.6164869e-38
0.022169245 0.011567798 0.133 1.81939e-38
0.023744132 0.011496442 0.133 1.9116222e-38
0.024202837 0.011924568 0.133 1.8654884e-38
0.0254444 0.011838943 0.133 1.9025466e-38
0.026450492 0.011442927 0.133 1.9480323e-38
0.027413772 0.011442927 0.133 1.9571796e-38
0.028270027 0.011303785 0.133 1.9487517e-38
0.031695023 0.011389412 0.133 1.8646951e-38
0.032123148 0.011282381 0.133 1.8278889e-38
0.034370802 0.011068318 0.133 1.7455239e-38
0.019065339 0.012513239 0.133 1.5801126e-38
0.022169244 0.012513238 0.133 1.8006266e-38
0.023774711 0.012513238 0.133 1.8836394e-38
0.024416899 0.012513238 0.133 1.8654882e-38
0.025380179 0.012513241 0.133 1.8843232e-38
0.026450492 0.01251324 0.133 1.957972e-38
0.027322033 0.012383273 0.133 1.9663276e-38
0.016924715 0.013851129 0.133 1.3871138e-38
0.018530183 0.013637067 0.133 1.4329594e-38
0.01992159 0.013851129 0.133 1.6169192e-38
0.021562735 0.013708421 0.133 1.7359096e-38
0.022300057 0.013565713 0.133 1.7912269e-38
0.023582056 0.013530036 0.133 1.8191741e-38
0.024416899 0.013494358 0.133 1.8283575e-38
0.025380179 0.01349436 0.133 1.9021862e-38
0.026450491 0.01349436 0.133 1.9024024e-38
0.02719971 0.013494358 0.133 1.9482122e-38
0.017780965 0.014364879 0.133 1.4237763e-38
0.01820909 0.014386285 0.133 1.4790218e-38
0.020697566 0.014386285 0.133 1.6350705e-38
0.021420026 0.014439802 0.133 1.6992116e-38
0.022276275 0.014279253 0.133 1.7450211e-38
0.023603464 0.014108005 0.133 1.8190658e-38
0.024464468 0.014326824 0.133 1.8191379e-38
0.0253496 0.014370995 0.133 1.8374333e-38
0.026450492 0.014439801 0.133 1.8188861e-38
0.027199712 0.014439801 0.133 1.8648037e-38
0.021462839 0.015456597 0.133 1.6535819e-38
0.022062214 0.015510113 0.133 1.6809162e-38
0.023988774 0.015991753 0.133 1.7450213e-38
0.024416899 0.015492274 0.133 1.7725719e-38
0.025059087 0.015135503 0.133 1.8464365e-38
0.026499145 0.015485787 0.133 1.8094143e-38
0.027199712 0.015135503 0.133 1.8095579e-38
0.021634089 0.016205816 0.133 1.7180826e-38
0.023988774 0.016312847 0.133 1.7358382e-38
0.024202837 0.016633941 0.133 1.7727883e-38
0.026215022 0.016377065 0.133 1.7817919e-38
0.0092184674 0.017276127 0.133 1.6165229e-38
0.016582215 0.017575815 0.133 1.4058049e-38
0.017210132 0.017525867 0.133 1.4148087e-38
0.018530183 0.017918315 0.133 1.5062843e-38
0.026129398 0.017436674 0.133 1.7453091e-38
0.0087903431 0.018631855 0.133 1.5709652e-38
0.015670922 0.018560501 0.133 1.2677273e-38
0.016443074 0.018506985 0.133 1.387114e-38
0.01723052 0.018499341 0.133 1.4606905e-38
0.018637214 0.018132377 0.133 1.5246876e-38
0.024523931 0.018988626 0.133 1.6073392e-38
0.025701275 0.018988626 0.133 1.6623686e-38
0.026129398 0.018506985 0.133 1.6807719e-38
0.015683154 0.019373938 0.133 1.2678354e-38
0.016443074 0.019416753 0.133 1.3871861e-38
0.017406356 0.019363236 0.133 1.4607624e-38
0.018351799 0.019345397 0.133 1.4974609e-38
0.024523931 0.019202689 0.133 1.5982276e-38
0.02527315 0.019202689 0.133 1.6348181e-38
0.016282529 0.020058939 0.133 1.3688549e-38
0.024630962 0.020701125 0.133 1.5801486e-38
0.025451535 0.020344354 0.133 1.5709291e-38
0.024630962 0.021129251 0.133 1.5617094e-38
0.017995028 0.026480809 0.133 1.856371e-38
0.023953469 -0.0014293209 0.134 1.2345497e-38
0.024169141 -0.0012495944 0.134 1.2990871e-38
0.02287511 -0.0002790709 0.134 1.5199259e-38
0.023306454 -0.00078230532 0.134 1.4555688e-38
0.014715523 0.00058361661 0.134 1.8370011e-38
0.015218758 0.00069145253 0.134 1.8186697e-38
0.022371875 0.00043983533 0.134 1.5192071e-38
0.014765847 0.0012306322 0.134 1.8555844e-38
0.015110922 0.0011227962 0.134 1.8464007e-38
0.015865773 0.0029560071 0.134 1.7911188e-38
0.02287511 0.0029560071 0.134 1.7647509e-38
0.025592577 0.0028697383 0.134 1.8567307e-38
0.026487617 0.0026684448 0.13400002 1.8293591e-38
0.027380258 0.0026444811 0.134 1.7831533e-38
0.028051237 0.0028481712 0.134 1.7550278e-38
0.015973609 0.0031716791 0.134 1.8002305e-38
0.02287511 0.0032795151 0.134 1.8202846e-38
0.024546567 0.003549105 0.134 1.8569112e-38
0.025409259 0.0034592415 0.13400002 1.8841023e-38
0.026487617 0.0034592415 0.13400002 1.9210531e-38
0.027404223 0.0034592415 0.134 1.8937189e-38
0.028195018 0.0035670775 0.134 1.9024354e-38
0.022767274 0.0046274643 0.134 1.7822214e-38
0.023337264 0.0046197618 0.134 1.8196039e-38
0.024384813 0.0040343669 0.134 1.9035493e-38
0.025447771 0.0044040899 0.13400003 1.958581e-38
0.026487615 0.0044657104 0.13400003 1.9854479e-38
0.027404219 0.0044657104 0.13400002 1.9854117e-38
0.02834986 0.0044657108 0.13400003 2.0872238e-38
0.029129596 0.0048970543 0.134 2.0596014e-38
0.033443034 0.0046813823 0.134 1.7366255e-38
0.014679578 0.0054901522 0.134 1.8002665e-38
0.015110922 0.0054002889 0.134 1.7818272e-38
0.02287511 0.0056159608 0.134 1.920624e-38
0.023090782 0.0055440702 0.134 1.8932173e-38
0.026972877 0.0051127262 0.134 2.0324094e-38
0.027458141 0.0053823162 0.134 1.9125911e-38
0.028374745 0.0055440702 0.13400003 1.9213425e-38
0.029474674 0.0055728257 0.13400003 1.9396022e-38
0.02287511 0.0064786482 0.134 1.939064e-38
0.023090782 0.0064786482 0.134 1.9578993e-38
0.029453104 0.0063528395 0.134 1.8658093e-38
0.02287511 0.0074311988 0.134 1.8655956e-38
0.023090782 0.0074311988 0.134 1.9025107e-38
0.02970472 0.0075210626 0.134 1.9299875e-38
0.030423626 0.0079164607 0.134 1.9203723e-38
0.031070642 0.0079164607 0.134 1.9755818e-38
0.027512057 0.0085634757 0.134 2.1337911e-38
0.028302856 0.008275914 0.134 2.0785094e-38
0.02959175 0.0083169946 0.134 1.9214162e-38
0.030423624 0.0086114025 0.134 1.8751021e-38
0.031501986 0.0084094256 0.134 1.8836381e-38
0.032220896 0.0085634757 0.134 1.8374682e-38
0.027619893 0.0094261635 0.134 2.0226523e-38
0.028439447 0.0097712381 0.134 1.9948851e-38
0.029417159 0.0092823813 0.134 1.9677661e-38
0.030423626 0.0092104916 0.134 1.8386556e-38
0.03139415 0.0092104916 0.134 1.8381158e-38
0.032149002 0.0092104916 0.134 1.856195e-38
0.02287511 0.010576415 0.134 1.9306013e-38
0.023198618 0.010666277 0.134 1.9489685e-38
0.029465087 0.010504522 0.134 1.9206966e-38
0.030423626 0.010181015 0.134 1.8839261e-38
0.031178478 0.010073179 0.134 1.8011297e-38
0.01888518 0.011259375 0.134 1.588972e-38
0.019208688 0.01136721 0.134 1.6164866e-38
0.02287511 0.01136721 0.134 1.8841433e-38
0.023198618 0.01136721 0.134 1.9117301e-38
0.029129596 0.011151539 0.134 1.9484995e-38
0.031501986 0.011582882 0.134 1.9014293e-38
0.032544401 0.011510991 0.134 1.8095215e-38
0.033227362 0.011582882 0.134 1.7912262e-38
0.019381225 0.012488704 0.134 1.5892602e-38
0.022788841 0.012488704 0.134 1.8282856e-38
0.023198619 0.012391652 0.134 1.8560165e-38
0.027404221 0.012876914 0.134 1.9853427e-38
0.028051237 0.012229898 0.134 1.929053e-38
0.031717658 0.012014226 0.134 1.9197242e-38
0.03247251 0.012014226 0.134 1.8554034e-38
0.033227362 0.012014226 0.134 1.8095933e-38
0.018939098 0.013685683 0.134 1.4698016e-38
0.019316524 0.013200422 0.134 1.5711088e-38
0.02287511 0.013308258 0.134 1.7915152e-38
0.0231447 0.01325434 0.134 1.8006629e-38
0.017339529 0.014278781 0.134 1.3778943e-38
0.018777343 0.014314726 0.134 1.4790215e-38
0.019855704 0.014170945 0.134 1.5617097e-38
0.020179212 0.014602289 0.134 1.5892245e-38
0.022731328 0.014530398 0.134 1.7450211e-38
0.023398886 0.014509858 0.134 1.7634963e-38
0.024169141 0.014602289 0.134 1.8281413e-38
0.018921126 0.015393086 0.134 1.5708934e-38
0.020637514 0.01535714 0.134 1.6537977e-38
0.021149736 0.015680648 0.134 1.6631612e-38
0.02265944 0.01535714 0.134 1.6990672e-38
0.023468209 0.015357139 0.13400003 1.7449488e-38
0.02425541 0.01520617 0.134 1.7818272e-38
0.027296385 0.015572812 0.134 1.80945e-38
0.018993016 0.016489418 0.134 1.6076996e-38
0.020934064 0.016111992 0.134 1.7089709e-38
0.021427026 0.016543336 0.134 1.7086468e-38
0.022347912 0.016399555 0.134 1.6995354e-38
0.023402309 0.016375592 0.134 1.6991038e-38
0.026793152 0.016651172 0.134 1.7818995e-38
0.027188549 0.016219828 0.134 1.8093782e-38
0.018993016 0.017406024 0.134 1.570569e-38
0.024384813 0.017406024 0.134 1.7174345e-38
0.018921128 0.018448437 0.134 1.5246876e-38
0.024600485 0.01826871 0.134 1.6531851e-38
0.026541533 0.018592218 0.134 1.6716962e-38
0.017806821 0.019778414 0.134 1.4792016e-38
0.01888518 0.019239234 0.134 1.4971368e-38
0.024330895 0.019508824 0.134 1.5984794e-38
0.025463175 0.019634631 0.134 1.6073035e-38
0.026196459 0.019519608 0.134 1.616451e-38
0.015973609 0.020533266 0.134 1.2863106e-38
0.016528195 0.020487051 0.134 1.3688908e-38
0.017123859 0.020281648 0.134 1.4331039e-38
0.024600485 0.020641102 0.134 1.6076994e-38
0.025247501 0.020317594 0.134 1.5985161e-38
0.015973609 0.021288117 0.134 1.3321204e-38
0.016476844 0.021072445 0.134 1.3688908e-38
0.017914657 0.026464242 0.134 1.8654829e-38
0.015875533 -0.00028115354 0.13500001 1.781971e-38
0.022828538 -6.3872154e-05 0.13500001 1.5105269e-38
0.023567297 -0.0005418912 0.13500001 1.5199978e-38
0.024240868 -0.00093299767 0.13500001 1.4925191e-38
0.026956886 -6.3872154e-05 0.13500001 1.6206562e-38
0.027521819 -0.0001507847 0.13500001 1.5469711e-38
0.028206253 -0.00011819249 0.13500001 1.5284599e-38
0.02282854 0.00051554479 0.13500001 1.5742364e-38
0.02678306 0.00045760311 0.13500001 1.7301033e-38
0.027463878 0.00051554485 0.13500001 1.7021204e-38
0.028423535 0.00051554485 0.13500001 1.6652419e-38
0.029202126 0.00073282624 0.13500001 1.6739935e-38
0.022828538 0.0014570975 0.13500001 1.6920748e-38
0.023045821 0.0011311753 0.13500001 1.6742116e-38
0.026956886 0.0010225347 0.13500001 1.8116752e-38
0.027490212 0.0014175918 0.13500001 1.7742931e-38
0.028423535 0.0014570974 0.13500001 1.7372351e-38
0.02943055 0.001540667 0.13500001 1.7372352e-38
0.02282854 0.0023986499 0.13500001 1.7278732e-38
0.023045821 0.0025435043 0.13500001 1.727801e-38
0.024784071 0.0029780669 0.13500001 1.9025051e-38
0.0253997 0.0025435043 0.13500001 1.8569459e-38
0.0261964 0.0021089416 0.13500001 1.8389014e-38
0.02760873 0.0021813686 0.13500001 1.7648575e-38
0.02811572 0.0021813686 0.13500001 1.7462385e-38
0.029564261 0.0021089416 0.13500001 1.7459155e-38
0.03369261 0.0023262228 0.13500001 1.4797006e-38
0.034127172 0.0021089416 0.13500001 1.2135211e-38
0.022828538 0.0038471927 0.13500001 1.7923758e-38
0.023480384 0.0038471927 0.13500001 1.8295053e-38
0.024240868 0.0034669503 0.13500001 1.8108132e-38
0.022828538 0.0040644738 0.13500001 1.7643581e-38
0.023589024 0.0041187941 0.13500001 1.8202143e-38
0.028912418 0.0040644738 0.13500001 2.0223266e-38
0.029129699 0.0047163181 0.13500001 2.0505617e-38
0.029998826 0.0066718506 0.13500001 1.856554e-38
0.029998826 0.0072150538 0.13500001 1.9393868e-38
0.027826011 0.0088446643 0.13500001 2.1520141e-38
0.028423535 0.0088446643 0.13500001 2.1430104e-38
0.029520806 0.0087577524 0.13500001 1.9218125e-38
0.031230086 0.0085911704 0.13500001 1.8838541e-38
0.027826011 0.0091705862 0.13500001 2.0870813e-38
0.028379088 0.0092594754 0.13500001 2.1056644e-38
0.02934698 0.0090619456 0.13500001 1.9864936e-38
0.031737074 0.0090619456 0.13500001 1.8747421e-38
0.034127172 0.010582916 0.13500001 1.791298e-38
0.019134754 0.011669322 0.13500001 1.6074831e-38
0.028912418 0.011669322 0.13500001 1.9858459e-38
0.029564261 0.011234759 0.13500001 1.9300245e-38
0.033258047 0.0113434 0.13500001 1.7911546e-38
0.034127172 0.011017478 0.13500001 1.7820785e-38
0.027826011 0.012973011 0.13500001 1.9484645e-38
0.028206253 0.012755729 0.13500001 1.9385967e-38
0.029491834 0.012828156 0.13500001 1.9575037e-38
0.030433388 0.012429806 0.13500001 2.0590628e-38
0.019569319 0.013516214 0.13500001 1.5803284e-38
0.027826011 0.013407573 0.13500001 1.9207336e-38
0.028043292 0.013190292 0.13500001 1.9848029e-38
0.02934698 0.013298932 0.13500001 1.8927146e-38
0.01674466 0.014385339 0.13500001 1.3503791e-38
0.019569319 0.01449398 0.13500001 1.5340869e-38
0.027826011 0.014385339 0.13500001 1.8924986e-38
0.019569319 0.01542829 0.13500001 1.5890809e-38
0.020097001 0.015518306 0.13500001 1.6258511e-38
0.027826011 0.015471745 0.13500001 1.8002665e-38
0.019623639 0.016395191 0.13500001 1.6351065e-38
0.020547085 0.016377084 0.13500001 1.6808446e-38
0.021090288 0.016666794 0.13500001 1.6900276e-38
0.022828538 0.016666794 0.13500001 1.7363419e-38
0.023045821 0.016666794 0.13500001 1.7363419e-38
0.02760873 0.016449511 0.13500001 1.8002306e-38
0.019569319 0.017427279 0.13500001 1.634962e-38
0.020873005 0.017318638 0.13500001 1.7268343e-38
0.021491425 0.01750249 0.13500001 1.7084667e-38
0.022466401 0.017282424 0.13500001 1.6810238e-38
0.023480382 0.01731864 0.13500001 1.6900636e-38
0.024204655 0.017680774 0.13500001 1.6990312e-38
0.026956886 0.017535919 0.13500001 1.7453094e-38
0.027174167 0.017318638 0.13500001 1.7543848e-38
0.019569319 0.018513685 0.13500001 1.5704973e-38
0.021742132 0.018187763 0.13500001 1.7454529e-38
0.024349509 0.018513685 0.13500001 1.6074468e-38
0.026956886 0.018513685 0.13500001 1.6902073e-38
0.018917473 0.019708732 0.13500001 1.5157561e-38
0.019460678 0.019545771 0.13500001 1.5338351e-38
0.023914946 0.019708732 0.13500001 1.6353576e-38
0.024132228 0.01927417 0.13500001 1.6353936e-38
0.026956886 0.01938281 0.13500001 1.6256703e-38
0.017613785 0.020360576 0.13500001 1.4698022e-38
0.01848291 0.020143295 0.13500001 1.4974609e-38
0.019134754 0.020143295 0.13500001 1.5340873e-38
0.023914946 0.020143295 0.13500001 1.6537612e-38
0.024485311 0.020387735 0.13500001 1.6169909e-38
0.025001353 0.020360576 0.13500001 1.6078073e-38
0.015875533 0.021881547 0.13500001 1.3872939e-38
0.016679477 0.021685995 0.13500001 1.433104e-38
0.024349509 0.021338344 0.13500001 1.598588e-38
0.015875533 0.022316109 0.13500001 1.451651e-38
0.016551521 0.022485105 0.13500001 1.4974247e-38
0.018627765 0.027458435 0.13500001 1.893321e-38
0.025551368 -0.001450654 0.13600002 1.2253294e-38
0.026116837 -0.0013776905 0.13600001 1.2253293e-38
0.023727275 -0.00021027254 0.13600001 1.584319e-38
0.024785249 -0.00072101783 0.13600002 1.5569841e-38
0.025551366 -0.00050212699 0.13600002 1.5936103e-38
0.026470708 -0.00053131243 0.13600002 1.5198169e-38
0.027375456 -0.00061157247 0.13600001 1.4368765e-38
0.02851369 -0.00041457065 0.13600001 1.4458076e-38
0.02923603 -6.434528e-05 0.13600001 1.5189886e-38
0.023216531 0.00051936368 0.13600001 1.5926753e-38
0.024967657 0.00070177275 0.13600001 1.8313755e-38
0.025551369 0.00051936368 0.13600002 1.8224796e-38
0.026249733 0.00056105718 0.13600002 1.7853851e-38
0.029345475 0.00015454557 0.13600001 1.5462154e-38
0.023479199 0.0016867816 0.13600001 1.710046e-38
0.024967657 0.0013219635 0.13600001 1.8394067e-38
0.025551369 0.0014678907 0.13600002 1.8578089e-38
0.026445171 0.0014314088 0.13600002 1.8483732e-38
0.027156565 0.0019056725 0.13600001 1.8202105e-38
0.029783256 0.001030109 0.13600001 1.7011122e-38
0.030221038 0.0015773361 0.13600001 1.6823133e-38
0.023610534 0.0024310104 0.13600001 1.7277653e-38
0.024858212 0.002562345 0.13600001 1.8750621e-38
0.025332475 0.0021975269 0.13600001 1.8479778e-38
0.026828229 0.0021245633 0.13600001 1.8111708e-38
0.028579358 0.0024528997 0.13600001 1.7551712e-38
0.02947681 0.0023434539 0.13600001 1.7459155e-38
0.030286705 0.0024528997 0.13600002 1.7366959e-38
0.03344968 0.0022887315 0.13600001 1.5071789e-38
0.02374812 0.003312828 0.13600002 1.7741145e-38
0.024165057 0.00307309 0.13600001 1.7644991e-38
0.02825102 0.0030001267 0.13600001 1.7826508e-38
0.029783256 0.0030001267 0.13600001 1.7641751e-38
0.030396152 0.0030439049 0.13600001 1.7640313e-38
0.031574186 0.0034180097 0.13600002 1.7822555e-38
0.029783256 0.0049701445 0.13600001 2.0411623e-38
0.030002147 0.0049701445 0.13600001 2.0317988e-38
0.031972166 0.0040945811 0.13600001 1.8279943e-38
0.032541282 0.0047512539 0.13600001 1.8188111e-38
0.03322297 0.0046261735 0.13600002 1.7915475e-38
0.030221039 0.0054808906 0.13600001 1.930419e-38
0.032628838 0.0051890356 0.13600001 1.8187397e-38
0.033066619 0.0051890356 0.13600001 1.8188829e-38
0.030585857 0.007669799 0.13600001 1.966542e-38
0.033553045 0.010491057 0.13600002 1.7820427e-38
0.034161076 0.010442416 0.13600001 1.8281763e-38
0.030002147 0.01131798 0.13600001 1.9294846e-38
0.03366857 0.011153812 0.13600001 1.7911546e-38
0.034161076 0.01131798 0.13600001 1.7912625e-38
0.028907694 0.012631325 0.13600001 1.9477082e-38
0.029564366 0.01252188 0.13600001 2.0220769e-38
0.030221039 0.012631324 0.13600001 2.040732e-38
0.028594989 0.013413078 0.13600002 1.9294137e-38
0.029345475 0.01356161 0.13600001 1.9201934e-38
0.030095961 0.013444348 0.13600002 1.9019338e-38
0.029564366 0.014163561 0.13600001 1.9289448e-38
0.030111592 0.014163561 0.13600001 1.8553678e-38
0.019933166 0.016680805 0.13600001 1.6625494e-38
0.020297986 0.016717287 0.13600001 1.6532578e-38
0.027813239 0.016680805 0.13600001 1.80945e-38
0.02803213 0.016498396 0.13600001 1.8002305e-38
0.019933166 0.017556369 0.13600001 1.6716246e-38
0.020453034 0.017638452 0.13600002 1.7084309e-38
0.022778749 0.01777526 0.13600002 1.6626566e-38
0.023581348 0.017884705 0.13600001 1.653329e-38
0.027667312 0.017629333 0.13600002 1.7543849e-38
0.02803213 0.017337479 0.13600001 1.7911551e-38
0.019933166 0.018650824 0.13600001 1.5888284e-38
0.020516878 0.018650824 0.13600002 1.5980478e-38
0.021481037 0.018697729 0.13600002 1.6441097e-38
0.022575492 0.018666459 0.13600002 1.6721637e-38
0.02358135 0.018650822 0.13600002 1.6261738e-38
0.024092093 0.018650824 0.13600001 1.6076628e-38
0.027375458 0.018431932 0.13600001 1.6902435e-38
0.019933166 0.019635832 0.13600001 1.5520943e-38
0.020516876 0.019635832 0.13600002 1.5612778e-38
0.021520127 0.019526387 0.13600002 1.5704611e-38
0.022122076 0.019416941 0.13600001 1.6165229e-38
0.023800239 0.019489905 0.13600001 1.6445772e-38
0.026937675 0.019854723 0.13600001 1.6257065e-38
0.017689535 0.020730287 0.13600001 1.4606185e-38
0.018663598 0.020598952 0.13600001 1.5157561e-38
0.019446742 0.020535717 0.13600002 1.5523825e-38
0.020370949 0.020292506 0.13600001 1.5706412e-38
0.023873203 0.020511396 0.13600001 1.6352141e-38
0.024092093 0.020620842 0.13600001 1.616775e-38
0.017525367 0.021386959 0.13600001 1.4423236e-38
0.02058984 0.021496404 0.13600001 1.5888642e-38
0.017087584 0.022700304 0.13600001 1.5065721e-38
0.02058984 0.022043632 0.13600001 1.570533e-38
0.016722767 0.023284012 0.13600001 1.5248313e-38
0.01861982 0.027515903 0.13600001 1.9210516e-38
0.026768245 -0.0012408203 0.13700001 1.2713555e-38
0.027135747 -0.0011673202 0.13700001 1.2805748e-38
0.028679248 -0.0012224453 0.13700001 1.2253282e-38
0.02934075 -0.0012555204 0.13700001 1.2345472e-38
0.027686998 -0.00094681978 0.13700001 1.3264931e-38
0.028568998 -0.00079981954 0.13700001 1.3356402e-38
0.029487751 -0.00055481918 0.13700001 1.3997811e-38
0.030075751 -0.00035881888 0.13700001 1.445519e-38
0.023695938 0.00059668266 0.13700001 1.6385211e-38
0.02457794 0.0006407827 0.13700001 1.7487955e-38
0.029781751 0.00037618232 0.13700001 1.5917733e-38
0.030002251 0.00037618232 0.13700001 1.5825538e-38
0.023717988 0.0010376833 0.13700001 1.6929028e-38
0.024615739 0.0014786841 0.13700001 1.7931656e-38
0.026694745 0.0018094346 0.13700001 1.8389014e-38
0.030884253 0.0019196848 0.13700001 1.672878e-38
0.033199508 0.0016256842 0.13700001 1.489207e-38
0.02448974 0.0023291856 0.13700001 1.8105255e-38
0.02882625 0.0025076857 0.13700001 1.7459872e-38
0.02919375 0.0026546859 0.13700001 1.7642827e-38
0.030884253 0.0022504353 0.13700001 1.7369476e-38
0.031104753 0.0023606855 0.13700001 1.6910297e-38
0.033309758 0.0021401851 0.13700001 1.5438772e-38
0.02889975 0.0036836874 0.13700001 1.828211e-38
0.030663753 0.0035513875 0.13700001 1.8098781e-38
0.031104753 0.0036101872 0.13700001 1.8189539e-38
0.031913254 0.0044186884 0.13700001 1.8463259e-38
0.032207254 0.0047861892 0.13700001 1.8646214e-38
0.031325255 0.010519199 0.13700001 1.846976e-38
0.030222751 0.0111807 0.13700001 1.9295565e-38
0.02889975 0.012503702 0.13700001 1.9200132e-38
0.02934075 0.012338327 0.13700001 1.9666872e-38
0.030002251 0.012062701 0.13700001 1.9951737e-38
0.0287895 0.013826704 0.13700001 1.92005e-38
0.02882625 0.014341205 0.13700001 1.9381649e-38
0.02912025 0.014267704 0.13700001 1.9565322e-38
0.030443251 0.014377955 0.13700001 1.8645875e-38
0.028238248 0.015149706 0.13700001 1.8372169e-38
0.02867925 0.016693208 0.13700001 1.7818993e-38
0.020300234 0.01735471 0.13700001 1.708539e-38
0.02867925 0.01764871 0.13700001 1.7544925e-38
0.0292305 0.01779571 0.13700001 1.7362333e-38
0.027742121 0.018732836 0.13700001 1.681024e-38
0.028441787 0.018491132 0.13699999 1.7086467e-38
0.02934075 0.018126462 0.13700001 1.7179382e-38
0.022505237 0.019669963 0.13700001 1.6165229e-38
0.027576748 0.019515613 0.13700001 1.6257065e-38
0.028017748 0.019339213 0.13700001 1.6441816e-38
