# .PCD v0.7 - Point Cloud Data file format
VERSION 0.7
FIELDS x y z rgb
SIZE 4 4 4 4
TYPE F F F F
COUNT 1 1 1 1
WIDTH 983
HEIGHT 1
VIEWPOINT 0 0 0 1 0 0 0
POINTS 983
DATA ascii
0.010319677 -0.021554498 0.105 1.428083e-38
0.012854627 -0.02100526 0.105 1.4185417e-38
0.013023623 -0.02100526 0.105 1.3908833e-38
0.012854627 -0.020751765 0.105 1.5288531e-38
0.013023623 -0.020751765 0.105 1.5196339e-38
0.0078973928 -0.019202629 0.105 1.6938365e-38
0.0081790527 -0.019202629 0.105 1.7123111e-38
0.0077143125 -0.01851256 0.10500001 1.766514e-38
0.0084494473 -0.018515375 0.10500001 1.8586729e-38
0.0096436897 -0.018349599 0.10500001 1.9876386e-38
0.012263139 -0.018357648 0.10500001 2.1248879e-38
0.0076157311 -0.017591525 0.105 1.79277e-38
0.0085621113 -0.017591525 0.10500001 1.9400299e-38
0.009609892 -0.017591525 0.10500001 2.0322613e-38
0.010538379 -0.017535858 0.10500001 2.0783955e-38
0.011457589 -0.017490128 0.10500001 2.0964748e-38
0.01234029 -0.017566545 0.10500001 2.1329212e-38
0.013023623 -0.017118337 0.105 2.2426582e-38
0.0075312331 -0.01652685 0.10500001 1.8007319e-38
0.0084325485 -0.016601959 0.10500001 1.9018225e-38
0.0099394349 -0.016822593 0.105 2.0585177e-38
0.010601338 -0.016583182 0.10500001 2.0765976e-38
0.011418154 -0.016543748 0.105 2.0581589e-38
0.012381438 -0.016543752 0.10500001 2.0856381e-38
0.013205621 -0.016429352 0.10500001 2.0945706e-38
0.014882586 -0.016357852 0.105 2.2058543e-38
0.01513608 -0.016273353 0.105 2.2425886e-38
0.0067707477 -0.015495969 0.105 1.809664e-38
0.0072898087 -0.015573227 0.10500001 1.8280313e-38
0.010719124 -0.015535915 0.10500001 2.0848831e-38
0.011418155 -0.015495969 0.105 2.149745e-38
0.012381438 -0.015495968 0.10500001 2.1968143e-38
0.013429213 -0.015495968 0.10500001 2.0666605e-38
0.01452045 -0.015420323 0.105 2.0678489e-38
0.015357889 -0.01547062 0.10500001 2.1783037e-38
0.0067425817 -0.014386225 0.10500001 1.9294109e-38
0.007136907 -0.014386225 0.10500001 2.0126034e-38
0.010778383 -0.014535104 0.10500001 2.1126145e-38
0.011418156 -0.014448193 0.105 2.1770804e-38
0.012381437 -0.014448192 0.10500001 2.3164903e-38
0.013429213 -0.014448186 0.10500001 2.2519881e-38
0.014476996 -0.01444819 0.10500001 2.0948238e-38
0.015462003 -0.014470723 0.105 2.0772846e-38
0.0066862497 -0.01348491 0.10500001 2.067957e-38
0.0074749012 -0.013456743 0.10500001 2.234449e-38
0.008474797 -0.013386329 0.10500001 2.1602968e-38
0.0097402604 -0.013424555 0.10500001 2.0397593e-38
0.010681815 -0.013376268 0.10500001 2.1501054e-38
0.011412523 -0.013501811 0.10500001 2.2323619e-38
0.012381437 -0.013484908 0.105 2.2693129e-38
0.013429214 -0.013484912 0.105 2.3169579e-38
0.014476995 -0.01348491 0.105 2.2143905e-38
0.015258135 -0.013513077 0.10500001 2.1413179e-38
0.0067224628 -0.012603713 0.10500001 2.0952564e-38
0.0075143343 -0.012521629 0.10500001 2.2709677e-38
0.0085621122 -0.012521625 0.10500001 2.3180013e-38
0.0096363435 -0.012489298 0.10500001 2.1690849e-38
0.010573173 -0.012480315 0.10500001 2.2244743e-38
0.011418156 -0.012521627 0.105 2.2608488e-38
0.012381438 -0.012521629 0.10500001 2.2419423e-38
0.013429215 -0.012521629 0.10500001 2.3061195e-38
0.014476993 -0.012521629 0.10500001 2.3065153e-38
0.015398964 -0.012489705 0.10500001 2.3163099e-38
0.0067031495 -0.011744244 0.105 2.0945725e-38
0.0075422544 -0.011512059 0.10500001 2.2513412e-38
0.0085621113 -0.01147385 0.10500001 2.3360806e-38
0.00963601 -0.011441588 0.10500001 2.3090341e-38
0.010573173 -0.01147385 0.105 2.2896595e-38
0.011418155 -0.01147385 0.105 2.316886e-38
0.012381437 -0.011473852 0.10500001 2.2701406e-38
0.013429213 -0.011473848 0.10500001 2.2781376e-38
0.014476994 -0.01147385 0.10500001 2.3243439e-38
0.015357889 -0.011446388 0.10500001 2.3348578e-38
0.0076532862 -0.010424194 0.10500001 2.2974036e-38
0.0085621122 -0.010426071 0.10500001 2.3068748e-38
0.009609892 -0.010426071 0.10500001 2.3362249e-38
0.010573173 -0.010426071 0.105 2.3183617e-38
0.011418156 -0.01042607 0.105 2.299491e-38
0.012355319 -0.01048138 0.10500001 2.2893715e-38
0.013349547 -0.010648179 0.10500001 2.2876091e-38
0.014291097 -0.01080913 0.10500001 2.3240202e-38
0.015398966 -0.01046175 0.10500001 2.3251713e-38
0.0079537248 -0.0096824858 0.105 2.3445451e-38
0.0086297104 -0.0094818017 0.10500001 2.2890477e-38
0.009609892 -0.0095022218 0.10500001 2.3256738e-38
0.010539373 -0.0095472876 0.105 2.3360447e-38
0.011474487 -0.0096261529 0.10500001 2.3271498e-38
0.012009644 -0.0096824858 0.105 2.3078832e-38
0.015389576 -0.0096824858 0.105 2.2418717e-38
0.024177402 -0.0093444921 0.105 1.8094854e-38
0.0086095352 -0.022604281 0.10600001 1.3085528e-38
0.0092237173 -0.022228947 0.10600001 1.3729454e-38
0.010417961 -0.022501916 0.10600001 1.3270637e-38
0.0085583534 -0.021341793 0.10600001 1.3910991e-38
0.0095494203 -0.021406934 0.10600001 1.4464151e-38
0.01038694 -0.021406936 0.10600001 1.50166e-38
0.012571862 -0.02135459 0.10600001 1.3725155e-38
0.013379196 -0.021412475 0.106 1.3633683e-38
0.007688262 -0.020437583 0.10600001 1.4460583e-38
0.0084300274 -0.020389369 0.10599998 1.5657326e-38
0.0093232375 -0.020394931 0.10600001 1.6304131e-38
0.010247354 -0.020778794 0.10600001 1.6028608e-38
0.011839678 -0.020124804 0.10600001 1.8508541e-38
0.012531582 -0.020333324 0.10599998 1.7679142e-38
0.013417037 -0.020361258 0.10599998 1.7125617e-38
0.01404334 -0.020139022 0.10600001 1.7584079e-38
0.0073470497 -0.019413944 0.10600001 1.6017855e-38
0.0085242325 -0.019550432 0.10600001 1.7125266e-38
0.0094308825 -0.019487062 0.106 1.786463e-38
0.010481938 -0.019392617 0.10600001 1.8323087e-38
0.011578082 -0.019499248 0.10599999 1.9607698e-38
0.012550537 -0.019499248 0.10600001 1.9787772e-38
0.013403567 -0.019499248 0.10600001 1.9418272e-38
0.014000689 -0.019499248 0.10600001 1.9141689e-38
0.0071764435 -0.018646218 0.10600001 1.6468406e-38
0.0087118987 -0.018902129 0.10600001 1.8406292e-38
0.009408541 -0.018859478 0.10600001 1.9052739e-38
0.010572318 -0.01868684 0.10599998 1.9695949e-38
0.011495474 -0.018700095 0.10599998 2.0612143e-38
0.012621623 -0.018759957 0.10600001 2.0975167e-38
0.013403567 -0.018612092 0.10599998 2.0878298e-38
0.014372919 -0.018336026 0.10600001 2.0965105e-38
0.015216257 -0.018390309 0.10600001 1.9862365e-38
0.0058542462 -0.017153416 0.10600001 1.5439882e-38
0.0066219736 -0.017352456 0.10600001 1.6636264e-38
0.010929778 -0.017963793 0.10600001 2.0605678e-38
0.011100384 -0.017963793 0.10600001 2.1063779e-38
0.012806446 -0.017793186 0.10600001 2.1695835e-38
0.013432003 -0.017594149 0.10599998 2.2523806e-38
0.014410143 -0.017554339 0.10599998 2.2339064e-38
0.015432294 -0.01752615 0.10599998 2.040152e-38
0.016161701 -0.017167633 0.10600001 1.9939111e-38
0.00568364 -0.01649658 0.10599998 1.6262084e-38
0.0064818333 -0.016525829 0.106 1.72712e-38
0.013625355 -0.016667189 0.10600001 2.1961661e-38
0.014350429 -0.016556296 0.10599998 2.1784111e-38
0.015645819 -0.016635505 0.106 2.1226258e-38
0.016416112 -0.016473237 0.10599998 2.0212468e-38
0.0055912286 -0.015418921 0.10599998 1.7090393e-38
0.0064087161 -0.015438823 0.10600001 1.8097718e-38
0.015877355 -0.015632177 0.10600001 2.2978698e-38
0.016275438 -0.015490006 0.10600001 2.2055662e-38
0.0056510242 -0.014451315 0.10599999 1.7459536e-38
0.0063965297 -0.014502928 0.10600001 1.8464702e-38
0.015877355 -0.014210459 0.10600001 2.1142348e-38
0.016218569 -0.014466369 0.10600001 2.13235e-38
0.0055727465 -0.013493913 0.10599998 1.8286062e-38
0.006323413 -0.013493913 0.10600001 1.9387387e-38
0.015813377 -0.01350671 0.10600001 2.2525284e-38
0.016161701 -0.013129953 0.10600001 2.3451561e-38
0.005596092 -0.012567252 0.10599998 1.9569618e-38
0.0063965297 -0.012504397 0.10600001 2.0029164e-38
0.015877355 -0.012845609 0.10600001 2.3353248e-38
0.016332306 -0.012547049 0.10600001 2.3358648e-38
0.0057796058 -0.011608716 0.10599999 2.0767811e-38
0.0064785089 -0.011418722 0.10600001 2.0760256e-38
0.0071764435 -0.011139548 0.10600001 2.2232508e-38
0.015877355 -0.011694018 0.10600001 2.3261412e-38
0.016297311 -0.011638243 0.106 2.3355764e-38
0.0058755721 -0.010713032 0.10600001 2.2986625e-38
0.0065793218 -0.010525366 0.10599998 2.1960599e-38
0.0071764435 -0.010542427 0.10600001 2.2692769e-38
0.012635839 -0.010115912 0.10600001 2.3076667e-38
0.013467545 -0.01022254 0.10600001 2.2233241e-38
0.014452293 -0.010346733 0.10599999 2.2964332e-38
0.015877355 -0.010201216 0.10600001 2.3255668e-38
0.016218569 -0.010525366 0.10600001 2.3447964e-38
0.0066987462 -0.0095529119 0.10600001 2.326465e-38
0.0074152923 -0.0095017301 0.10599999 2.2699609e-38
0.0081574284 -0.009305533 0.10600001 2.3446892e-38
0.0096786674 -0.0092628812 0.10600001 2.32535e-38
0.010612938 -0.0093116257 0.10600001 2.335613e-38
0.01159908 -0.0094203642 0.106 2.3086025e-38
0.012550537 -0.0095187919 0.10599999 2.3078469e-38
0.013403568 -0.009518791 0.10599999 2.2795044e-38
0.014410141 -0.009518791 0.10599998 2.2505148e-38
0.015479273 -0.0094903577 0.10599998 2.297261e-38
0.016047962 -0.009518791 0.10600001 2.2970453e-38
0.0068011098 -0.0087169409 0.10600001 2.3448324e-38
0.0074323528 -0.0085463347 0.10599998 2.2981595e-38
0.0084048072 -0.0085463356 0.10599998 2.316527e-38
0.0094625661 -0.0085463366 0.10599998 2.2983755e-38
0.010520322 -0.0085463366 0.10599998 2.3255301e-38
0.011578082 -0.0085463366 0.10599998 2.3259984e-38
0.012537069 -0.0085714776 0.10599998 2.2983042e-38
0.013360918 -0.008736846 0.10600001 2.326178e-38
0.014410143 -0.0088363653 0.10600001 2.2693862e-38
0.015470526 -0.0087773092 0.106 2.334067e-38
0.016047962 -0.0089216689 0.10600001 2.186482e-38
0.0076029589 -0.0078980327 0.10600001 2.2796483e-38
0.0084616775 -0.0077046794 0.10599999 2.3163829e-38
0.0095200324 -0.0076106959 0.10599998 2.3261068e-38
0.010520325 -0.0074885786 0.10599998 2.2886158e-38
0.011534655 -0.007541311 0.10599998 2.2970802e-38
0.01236287 -0.0077615478 0.10600001 2.3342111e-38
0.010844475 -0.0068743955 0.10600001 2.2789645e-38
0.011270991 -0.0068743955 0.10600001 2.3064794e-38
0.0085070608 -0.023586757 0.10700002 1.2997287e-38
0.010860674 -0.022507539 0.10700001 1.3453588e-38
0.01109747 -0.022417124 0.107 1.3268836e-38
0.0079330085 -0.021922007 0.10700001 1.3267057e-38
0.008794087 -0.021520169 0.10700002 1.4095381e-38
0.0091729602 -0.021439804 0.10700001 1.4371608e-38
0.010731513 -0.021362305 0.107 1.5752372e-38
0.011377321 -0.021353696 0.10700001 1.6028958e-38
0.012180994 -0.021634981 0.10700002 1.4094291e-38
0.013788339 -0.021749791 0.10700001 1.3542565e-38
0.014161472 -0.021376656 0.107 1.4645685e-38
0.0074163615 -0.02019985 0.10700001 1.4918338e-38
0.0096723866 -0.020458173 0.10700001 1.6672197e-38
0.010493281 -0.020440955 0.107 1.7131368e-38
0.011315816 -0.020519679 0.107 1.7774574e-38
0.014477201 -0.020423731 0.10700001 1.7308571e-38
0.0098273801 -0.019855419 0.10700001 1.7682398e-38
0.0104818 -0.019820975 0.10700001 1.7864626e-38
0.014578505 -0.019531248 0.107 1.9139536e-38
0.015355502 -0.019442102 0.10700001 1.8954068e-38
0.0057803127 -0.018133264 0.10700001 1.3887316e-38
0.0063830675 -0.018271036 0.10700001 1.5082614e-38
0.014498729 -0.018929761 0.107 2.0327649e-38
0.015596604 -0.01875324 0.10700001 1.9405702e-38
0.016027141 -0.018133264 0.10700001 1.9211966e-38
0.017577082 -0.018321136 0.107 1.8938249e-38
0.0044886954 -0.017099969 0.10700002 1.3061496e-38
0.0053866771 -0.017604318 0.107 1.397447e-38
0.0060960413 -0.017903643 0.10700002 1.4894268e-38
0.016580692 -0.017592017 0.107 1.9390252e-38
0.017508196 -0.017513286 0.10700002 1.9394573e-38
0.018312914 -0.017413087 0.107 1.8652327e-38
0.0036850229 -0.016445551 0.107 1.2971446e-38
0.0044754483 -0.01639786 0.107 1.4347192e-38
0.0050053424 -0.016445551 0.10700001 1.5717178e-38
0.01688822 -0.016066676 0.10700001 2.0669126e-38
0.017508198 -0.016445549 0.10700002 2.0493742e-38
0.018474417 -0.01639298 0.107 1.9947405e-38
0.023776846 -0.016066676 0.10700001 1.7834456e-38
0.0038285358 -0.015550029 0.107 1.4530497e-38
0.0044456422 -0.015463923 0.107 1.5539974e-38
0.016681563 -0.015412258 0.10700001 2.1685081e-38
0.017508198 -0.015463921 0.10700001 2.0946083e-38
0.018395105 -0.01561461 0.107 2.0955803e-38
0.023662036 -0.01566484 0.10700002 1.9312108e-38
0.0028009824 -0.014137861 0.10700001 1.4533022e-38
0.0036673595 -0.014344522 0.107 1.5533508e-38
0.0044456413 -0.014482292 0.10700001 1.6821723e-38
0.0050053424 -0.014688951 0.10700002 1.6913915e-38
0.016629895 -0.014452155 0.107 2.1780879e-38
0.017508196 -0.014482292 0.10700002 2.1039717e-38
0.018839998 -0.01422971 0.10700002 2.0490865e-38
0.0027267972 -0.013589421 0.107 1.5360271e-38
0.0035845635 -0.013526496 0.107 1.6449355e-38
0.0044456422 -0.013526496 0.107 1.7549583e-38
0.016592994 -0.01355725 0.107 2.2897663e-38
0.017508198 -0.013526495 0.10700001 2.1964913e-38
0.018517645 -0.013470193 0.107 2.0581266e-38
0.0029387549 -0.012880687 0.10700001 1.6919334e-38
0.0036276176 -0.012622363 0.107 1.7370241e-38
0.0044456413 -0.012553478 0.10700001 1.7821501e-38
0.0050053424 -0.012191825 0.10700001 1.9106123e-38
0.01688822 -0.012553478 0.10700001 2.3453361e-38
0.017508198 -0.012553476 0.10700002 2.308386e-38
0.018575935 -0.012553476 0.10700002 2.1412826e-38
0.0038572382 -0.011876096 0.10700002 1.8012014e-38
0.004459993 -0.011531663 0.107 1.8374322e-38
0.0050914502 -0.011485741 0.10700001 2.0121362e-38
0.016700348 -0.01135423 0.107 2.3267514e-38
0.017508198 -0.01148574 0.10700002 2.3176049e-38
0.018565452 -0.011521681 0.10700002 2.3084583e-38
0.0046953545 -0.010590219 0.10700001 2.0124239e-38
0.0052923686 -0.010429485 0.107 2.1321346e-38
0.0166586 -0.010469669 0.107 2.3360429e-38
0.017462272 -0.010488803 0.107 2.2899809e-38
0.0054671927 -0.0095381374 0.10700002 2.1132998e-38
0.0061032171 -0.0094148479 0.107 2.2609568e-38
0.016658599 -0.0094880397 0.107 2.3254583e-38
0.01738674 -0.0095134182 0.107 2.335503e-38
0.0056942049 -0.0087905657 0.10700001 2.1037925e-38
0.0063256621 -0.0085322438 0.107 2.2425541e-38
0.012927262 -0.0081447577 0.10700001 2.2326524e-38
0.013594597 -0.0083384998 0.107 2.3257827e-38
0.014511644 -0.0084317839 0.107 2.2511629e-38
0.015467442 -0.0083169732 0.107 2.3061563e-38
0.016412094 -0.0085398406 0.107 2.3061202e-38
0.017117841 -0.0087762149 0.10700002 2.3338503e-38
0.0067963852 -0.0076453327 0.10700001 2.1964204e-38
0.0074737659 -0.0074367598 0.107 2.2703566e-38
0.0085234623 -0.0071852705 0.107 2.3256744e-38
0.0092676794 -0.0071545183 0.10700001 2.2796853e-38
0.011893968 -0.0071114642 0.10700001 2.3248831e-38
0.012653743 -0.0074356347 0.107 2.2878613e-38
0.013530016 -0.007559224 0.10700001 2.3063369e-38
0.014511645 -0.0075592231 0.10700002 2.2604182e-38
0.015467441 -0.0075592236 0.10700001 2.2694577e-38
0.016161086 -0.0077620563 0.107 2.3247029e-38
0.023776846 -0.0079725422 0.10700001 1.8651269e-38
0.007698169 -0.0067357211 0.107 2.2428061e-38
0.0085874274 -0.0067498116 0.10700001 2.2794688e-38
0.009517394 -0.0064914883 0.10700002 2.3169952e-38
0.010449272 -0.0064417366 0.107 2.3073073e-38
0.011474662 -0.0064525525 0.10700002 2.3065517e-38
0.012533626 -0.006730129 0.107 2.2971168e-38
0.013554618 -0.0066440217 0.107 2.2874297e-38
0.014486265 -0.0066129463 0.107 2.3060847e-38
0.015223469 -0.0068818438 0.10700002 2.2786413e-38
0.0096121104 -0.0059059551 0.10700001 2.3260705e-38
0.01047319 -0.0059059551 0.10700001 2.2888324e-38
0.011334267 -0.0059059551 0.10700001 2.2975481e-38
-0.01101071 0.028623275 0.10700001 2.3234378e-38
-0.010838495 0.028623275 0.10700001 2.2958871e-38
0.0087893605 -0.0242997 0.108 1.3182766e-38
0.011527107 -0.022387622 0.108 1.345179e-38
0.0118313 -0.021779235 0.108 1.5200273e-38
0.014421294 -0.021518499 0.108 1.4829717e-38
0.015771337 -0.021315701 0.108 1.5102346e-38
0.016350754 -0.021381924 0.108 1.5657315e-38
0.0069641974 -0.020214809 0.108 1.3721613e-38
0.0071380227 -0.020823197 0.108 1.3448963e-38
0.014860825 -0.020736286 0.108 1.6849032e-38
0.015582265 -0.020553311 0.10800002 1.7304614e-38
0.016405074 -0.020464683 0.10800001 1.7947465e-38
0.017132968 -0.020040983 0.108 1.8772188e-38
0.018697392 -0.020040983 0.108 1.8314444e-38
0.0063847802 -0.019432595 0.108 1.3991375e-38
0.015794514 -0.01958904 0.108 1.895227e-38
0.016481124 -0.01951951 0.10800001 1.9227778e-38
0.017371975 -0.019454323 0.10800001 1.913378e-38
0.018643072 -0.019476051 0.10800001 1.8673881e-38
0.019131957 -0.019258771 0.108 1.8761399e-38
0.0061385282 -0.018824209 0.108 1.4076382e-38
0.015829278 -0.018998034 0.108 1.9131274e-38
0.01650285 -0.018639518 0.10800001 1.9216638e-38
0.017328521 -0.018889394 0.108 1.940426e-38
0.018618757 -0.01858416 0.10800002 1.8936806e-38
0.019386007 -0.018489929 0.108 1.8842812e-38
0.018908467 -0.01755777 0.108 1.8650526e-38
0.019337386 -0.017512618 0.108 1.8834916e-38
0.0043568211 -0.01647757 0.108 1.4625216e-38
0.018958131 -0.016738307 0.108 1.8834931e-38
0.01952927 -0.016477572 0.108 1.8189199e-38
0.020116964 -0.016274773 0.108 1.8463986e-38
0.0025838048 -0.015486766 0.10800002 1.2979715e-38
0.0034007826 -0.015391162 0.108 1.3885846e-38
0.018732158 -0.015330324 0.108 2.1230231e-38
0.01952306 -0.015486768 0.10800002 2.0499144e-38
0.02019229 -0.015556296 0.108 1.8741659e-38
0.0024982293 -0.014652408 0.108 1.3805884e-38
0.0034007826 -0.014826232 0.108 1.4342511e-38
0.01858151 -0.014594465 0.108 2.0673097e-38
0.019549135 -0.014524937 0.10800001 2.1047283e-38
0.020001082 -0.014130931 0.108 2.0498068e-38
0.0022998902 -0.013232834 0.108 1.5274911e-38
0.01826283 -0.013957106 0.108 2.0211041e-38
0.019543648 -0.013563711 0.10800002 2.0401911e-38
0.020274237 -0.013572207 0.108 2.0402993e-38
0.0026620261 -0.012457863 0.10800001 1.6460149e-38
0.0033138702 -0.012131942 0.108 1.7926296e-38
0.019609973 -0.012523047 0.108 2.0959045e-38
0.020116964 -0.012856212 0.108 2.0125683e-38
0.002792395 -0.011436642 0.108 1.7002892e-38
0.0035021806 -0.011393185 0.108 1.7919457e-38
0.019436149 -0.011480098 0.108 2.2344857e-38
0.0028668914 -0.010654428 0.108 1.7462071e-38
0.0035746081 -0.010567516 0.10800001 1.8375396e-38
0.0042823246 -0.010480603 0.108 1.9477789e-38
0.018591166 -0.010548201 0.10800001 2.298483e-38
0.019305781 -0.010741341 0.108 2.3085668e-38
0.003545637 -0.0095631937 0.10800001 1.9577544e-38
0.0044147619 -0.0094840061 0.10800001 2.0123883e-38
0.0050521214 -0.0090900026 0.108 2.0393275e-38
0.01791518 -0.0090900026 0.108 2.3172788e-38
0.018418361 -0.0096023306 0.10800002 2.2980853e-38
0.022260807 -0.0096114781 0.108 2.0216082e-38
0.0036289284 -0.0085685272 0.10800001 1.9487873e-38
0.004443734 -0.0084989946 0.10800002 2.0588103e-38
0.0053514866 -0.0083753886 0.10800001 2.0672382e-38
0.0060950723 -0.0080470517 0.108 2.1317394e-38
0.016872229 -0.0080470517 0.108 2.2688817e-38
0.017480616 -0.0084924791 0.10800001 2.3061191e-38
0.018175919 -0.008829264 0.108 2.3448303e-38
0.0037774041 -0.0078152856 0.108 1.9669388e-38
0.004479521 -0.0074846763 0.10800001 2.1053763e-38
0.0054345364 -0.0074212793 0.10800002 2.1875962e-38
0.0063185617 -0.0073145027 0.108 2.1132642e-38
0.015771337 -0.0070620426 0.108 2.2880048e-38
0.016561827 -0.0072896709 0.108 2.2971522e-38
0.017046055 -0.0074212812 0.108 2.2601299e-38
0.023390671 -0.0074386643 0.108 1.9386681e-38
0.0047044712 -0.0065405681 0.108 2.0868654e-38
0.0054406715 -0.0064621763 0.10800001 2.2527093e-38
0.0065586059 -0.0064439978 0.10800001 2.159398e-38
0.0074470448 -0.0062508597 0.108 2.2056041e-38
0.0083161704 -0.0062701735 0.108 2.2429503e-38
0.012526601 -0.0062218886 0.108 2.2880051e-38
0.013395727 -0.0061846403 0.108 2.27821e-38
0.014686999 -0.0062094727 0.108 2.3149808e-38
0.015585924 -0.0064130961 0.10800001 2.269278e-38
0.016481122 -0.0064391694 0.10800001 2.278749e-38
0.017046055 -0.0065405681 0.108 2.2603817e-38
0.0057474216 -0.0059611509 0.108 2.2158309e-38
0.0068289996 -0.0055362452 0.108 2.1964563e-38
0.0074856728 -0.0055700438 0.10800001 2.2330827e-38
0.0084561957 -0.0057293843 0.108 2.2613532e-38
0.0095314598 -0.0053995629 0.108 2.2427702e-38
0.010475464 -0.0053527625 0.10800002 2.3073076e-38
0.011440194 -0.005352763 0.10800001 2.2884005e-38
0.012352775 -0.0056352289 0.10800001 2.29744e-38
0.013650671 -0.0055903238 0.10800001 2.2779221e-38
0.014557611 -0.0055860542 0.10800002 2.3054011e-38
0.015544837 -0.0056925123 0.108 2.278102e-38
0.016408695 -0.0058452673 0.108 2.2597703e-38
0.010517957 -0.0046671201 0.108 2.2333714e-38
0.011483651 -0.0046284925 0.108 2.2793253e-38
0.016589867 -0.022331763 0.109 1.4373392e-38
0.01486476 -0.02180546 0.109 1.4276542e-38
0.0155665 -0.021688504 0.10900001 1.4459494e-38
0.016712671 -0.021682657 0.10900001 1.5658031e-38
0.01728186 -0.021552054 0.10900001 1.630268e-38
0.020291537 -0.021735286 0.109 1.3997806e-38
0.01685302 -0.020752853 0.109 1.8041097e-38
0.017329199 -0.020677667 0.10900001 1.813365e-38
0.0187828 -0.020665135 0.109 1.8043249e-38
0.019270118 -0.020401984 0.10900001 1.8314443e-38
0.0061515081 -0.019875679 0.109 1.3075538e-38
0.017730191 -0.019875679 0.109 1.89537e-38
0.019594185 -0.019480953 0.10900001 1.8760681e-38
0.019659974 -0.018998507 0.109 1.8937522e-38
0.020010842 -0.018735355 0.109 1.8842811e-38
0.019601494 -0.017507313 0.109 1.8834198e-38
0.020599803 -0.016567484 0.109 1.8927125e-38
0.021063449 -0.016454704 0.109 1.9113316e-38
0.020762706 -0.015489816 0.10900001 1.874238e-38
0.020607321 -0.014624336 0.109 1.9575747e-38
0.021063449 -0.014174055 0.109 1.8928218e-38
0.020829538 -0.013413839 0.109 2.0033488e-38
0.021063449 -0.013823187 0.109 1.9206246e-38
0.0014849474 -0.012463568 0.10899999 1.3066883e-38
0.002116512 -0.012244275 0.109 1.5177671e-38
0.020161215 -0.012407178 0.10900001 2.0498785e-38
0.0014849473 -0.011542536 0.10899999 1.3799771e-38
0.002116512 -0.011542536 0.109 1.5541777e-38
0.019659974 -0.011367101 0.109 2.2805835e-38
0.020383639 -0.011520607 0.109 2.1419661e-38
0.0014849475 -0.010542559 0.10899999 1.4624139e-38
0.0023459268 -0.010429202 0.109 1.672954e-38
0.019547194 -0.010464868 0.109 2.3265379e-38
0.020199772 -0.010591141 0.109 2.2620004e-38
0.00088846963 -0.0098759076 0.109 1.3434226e-38
0.0015785124 -0.0096536903 0.109 1.52634e-38
0.0024673813 -0.0095688961 0.109 1.7185129e-38
0.0187828 -0.009174169 0.109 2.2614225e-38
0.019440677 -0.0095688961 0.109 2.2886517e-38
0.020069322 -0.0096419947 0.109 2.3079907e-38
0.022642361 -0.0096127558 0.109 1.994202e-38
0.0026563108 -0.0085938852 0.109 1.7456683e-38
0.0031691196 -0.0081215613 0.109 1.8005902e-38
0.017671714 -0.0081800399 0.109 2.305328e-38
0.018558634 -0.0084626852 0.109 2.3163091e-38
0.019419903 -0.0086016981 0.10899999 2.251557e-38
0.020010842 -0.0088232998 0.109 2.2516299e-38
0.0028182503 -0.0075513995 0.10900001 1.7177938e-38
0.0035678349 -0.0072603375 0.10900001 1.8094139e-38
0.004046293 -0.0070689539 0.109 1.8833147e-38
0.017554758 -0.007489997 0.109 2.2411151e-38
0.018256497 -0.0076610455 0.10900001 2.2689529e-38
0.019133668 -0.0079461271 0.109 2.3440046e-38
0.0233441 -0.0077706925 0.109 1.9753306e-38
0.0037831408 -0.0068935193 0.109 1.8093056e-38
0.0044322489 -0.0064023025 0.10900001 1.8830626e-38
0.0052743349 -0.0060163471 0.109 2.2433463e-38
0.01685302 -0.0061040642 0.109 2.2970082e-38
0.017452421 -0.006454932 0.109 2.22336e-38
0.0056252042 -0.005540167 0.10900001 2.1419308e-38
0.0061515081 -0.0053146086 0.109 2.1696611e-38
0.0085073439 -0.0053647324 0.10900001 2.2795764e-38
0.012818024 -0.0053584673 0.109 2.3065158e-38
0.013256609 -0.0054023257 0.109 2.2970806e-38
0.015654216 -0.0053438474 0.109 2.3055449e-38
0.016624954 -0.0054549556 0.10900001 2.2318956e-38
0.017262368 -0.0056069996 0.109 2.1677189e-38
0.0068532466 -0.0047883051 0.109 2.1414632e-38
0.0074672676 -0.0045982506 0.10899999 2.1686541e-38
0.0083820336 -0.00472565 0.109 2.2144278e-38
0.0095348889 -0.0045251534 0.109 2.2797206e-38
0.010502286 -0.0042620013 0.10900001 2.1781618e-38
0.011572437 -0.0044023488 0.10900001 2.2792174e-38
0.012537327 -0.0045777834 0.10899999 2.30648e-38
0.013490522 -0.0045348988 0.109 2.3156995e-38
0.01438597 -0.004722517 0.109 2.296577e-38
0.015391064 -0.0049637393 0.109 2.3053648e-38
0.0074848109 -0.0038760449 0.109 2.0581277e-38
0.0097576631 -0.0035407702 0.10900001 2.2703929e-38
0.010473579 -0.003552288 0.10899999 2.168978e-38
0.011517742 -0.0035705827 0.109 2.1130135e-38
0.01248386 -0.0035686167 0.10899999 2.2603108e-38
0.013422298 -0.0037746828 0.10900001 2.3067682e-38
-0.0091063716 -0.031742934 0.11000001 1.3000191e-38
0.0083324732 -0.024838215 0.11000001 1.2999089e-38
0.016520761 -0.022713687 0.11000001 1.4005681e-38
0.017583027 -0.022293206 0.11000001 1.5661975e-38
0.01851251 -0.02200551 0.11000001 1.6672529e-38
0.019338716 -0.022064527 0.11000001 1.6209398e-38
0.017804332 -0.02147438 0.11000001 1.6945174e-38
0.01851251 -0.021474378 0.11000001 1.7313232e-38
0.019423021 -0.021524962 0.11000001 1.7126321e-38
0.020393603 -0.021419052 0.11000001 1.5924913e-38
0.021296034 -0.021297334 0.11000001 1.3347413e-38
0.017833838 -0.02067768 0.11000001 1.8316962e-38
0.018305957 -0.02067768 0.11000001 1.8225846e-38
0.019604281 -0.020884231 0.11000001 1.7856699e-38
0.020406879 -0.020482931 0.10999998 1.7295616e-38
0.021256695 -0.020482929 0.11000001 1.5911977e-38
0.020442288 -0.019526893 0.11 1.8295747e-38
0.021300953 -0.019482631 0.11000001 1.7372357e-38
0.020450158 -0.0184843 0.11000001 1.8839221e-38
0.021345215 -0.018818717 0.11000001 1.7641758e-38
0.020455336 -0.017588727 0.11000001 1.9204423e-38
0.021404229 -0.017299088 0.11000001 1.8464704e-38
0.022141913 -0.017048275 0.11000001 1.8096283e-38
0.021661365 -0.01655508 0.11000001 1.8558703e-38
0.022519607 -0.016540749 0.11000001 1.8096286e-38
0.023425482 -0.016517144 0.11000001 1.8655579e-38
0.021562496 -0.015527305 0.10999999 1.9021126e-38
0.022505838 -0.015572909 0.11000001 1.8465074e-38
0.023381222 -0.015986012 0.11000001 1.8744539e-38
0.021655042 -0.014536464 0.11000001 1.9300235e-38
0.022389775 -0.014622772 0.11 1.902581e-38
0.021345215 -0.013684439 0.11000001 1.9572509e-38
0.020619333 -0.012515947 0.11 1.9853056e-38
0.020690151 -0.0115245 0.11 2.141966e-38
0.021501182 -0.011517758 0.11 2.021608e-38
0.020725559 -0.010541905 0.11000001 2.2341976e-38
0.02121735 -0.010635345 0.11000001 2.2524927e-38
0.0012760011 -0.0092077525 0.11000001 1.4717419e-38
0.020570647 -0.0096345544 0.11000001 2.2250508e-38
0.021964869 -0.00987799 0.11000001 2.1508258e-38
0.001498571 -0.008443933 0.10999998 1.5541429e-38
0.0021359294 -0.0083288541 0.11000001 1.6268213e-38
0.019486252 -0.0080190273 0.11000001 2.3255655e-38
0.0017818412 -0.0074878945 0.11 1.6273241e-38
0.0022687125 -0.0073551117 0.11000001 1.7095455e-38
0.018561687 -0.0075272378 0.11000001 2.2594457e-38
0.019220686 -0.0078419829 0.11000001 2.343969e-38
0.0019588855 -0.0069567626 0.11000001 1.6728111e-38
0.0025222076 -0.0066831489 0.11000001 1.700002e-38
0.0034047456 -0.0065436601 0.11000001 1.7633878e-38
0.0042014439 -0.0061305575 0.11000001 1.818417e-38
0.017804332 -0.0062485868 0.11000001 2.2049567e-38
0.018317761 -0.0067089014 0.11 2.1675381e-38
0.0047207731 -0.0056466372 0.11 1.8368202e-38
0.0054997671 -0.0051863221 0.11000001 2.0123173e-38
0.015945369 -0.0050092782 0.11000001 2.3425675e-38
0.016520763 -0.0050092782 0.11000001 2.2874294e-38
0.017317461 -0.0052305833 0.11000001 2.1675028e-38
0.006650554 -0.0041240579 0.11000001 2.0221128e-38
0.0087118531 -0.0043769781 0.11000001 2.2418344e-38
0.009040649 -0.0043011019 0.11000001 2.2516662e-38
0.014655477 -0.0043769781 0.11000001 2.2967925e-38
0.015544689 -0.0045061009 0.11000001 2.2871415e-38
0.016432241 -0.0047215815 0.11000001 2.3152686e-38
0.017007634 -0.0048322342 0.11000001 2.2043816e-38
0.0067390758 -0.0039470135 0.11000001 1.976015e-38
0.0076242969 -0.0036688014 0.11000001 2.002738e-38
0.0085615888 -0.0035825118 0.11000001 2.1496395e-38
0.0091694081 -0.0034802614 0.11000001 2.2327953e-38
0.01081109 -0.003061793 0.11000001 2.168798e-38
0.011430744 -0.0030617933 0.11000001 2.0576601e-38
0.01269956 -0.0031208079 0.11000001 2.2322928e-38
0.013593212 -0.0033020675 0.11000001 2.3157358e-38
0.014440495 -0.0038053789 0.11 2.2877526e-38
0.015237193 -0.0038761958 0.11 2.2874283e-38
0.0088636056 -0.0028847493 0.11000001 2.0945745e-38
0.0095970733 -0.0028341652 0.11000001 2.1682941e-38
0.010501264 -0.0028847493 0.11000001 2.2148956e-38
0.011784833 -0.0028847493 0.11000001 2.0575525e-38
0.012493009 -0.0028847493 0.11000001 2.1033985e-38
0.01337823 -0.0028257344 0.11000001 2.3154124e-38
-0.009814444 -0.032031506 0.11100001 1.4291629e-38
-0.0092784837 -0.03180819 0.11100001 1.4015045e-38
0.016340442 -0.023134558 0.11100002 1.3636897e-38
0.01769821 -0.022830848 0.11100001 1.5294628e-38
0.018591477 -0.022384213 0.11100001 1.6397021e-38
0.021926343 -0.02038925 0.11100001 1.5817989e-38
0.022253877 -0.020329697 0.11100001 1.5817989e-38
0.020735322 -0.01943643 0.11100001 1.8476543e-38
0.021628588 -0.019495981 0.11100001 1.746312e-38
0.022292161 -0.019551279 0.11100001 1.700359e-38
0.020645995 -0.018989796 0.11100001 1.8656263e-38
0.021530326 -0.018525297 0.11100004 1.7915473e-38
0.022328317 -0.018513387 0.11100002 1.7641053e-38
0.021664318 -0.017882144 0.11100002 1.8096636e-38
0.022480629 -0.017670508 0.11100002 1.8005887e-38
0.023057818 -0.017471241 0.11100001 1.7824376e-38
0.023534225 -0.01672685 0.11100001 1.8562663e-38
0.023258802 -0.015238072 0.11100001 1.8466512e-38
0.022736242 -0.014380534 0.11100002 1.948823e-38
0.023218606 -0.014541321 0.11100002 1.9118007e-38
0.020735322 -0.012915574 0.11100001 1.9668303e-38
0.021420158 -0.012498715 0.11100001 1.957107e-38
0.022505617 -0.012298408 0.11100002 2.0585583e-38
0.023057818 -0.012320061 0.11100001 2.1605133e-38
0.022549344 -0.011500088 0.11100002 2.0124608e-38
0.023057818 -0.011843652 0.11100001 2.1420024e-38
0.021700049 -0.010378694 0.11100002 2.1692652e-38
0.02216455 -0.010950385 0.11100001 1.9568912e-38
0.020735322 -0.0093425028 0.11100001 2.2527098e-38
0.021271281 -0.0097891362 0.11100001 2.2340901e-38
0.022640958 -0.0092829512 0.11100001 2.1691932e-38
0.023951085 -0.0096998094 0.11100001 2.0129285e-38
0.023549115 -0.0082259169 0.11100001 2.0122448e-38
0.001195084 -0.00733265 0.11100001 1.4533378e-38
0.018877324 -0.0071629286 0.11100002 2.2041281e-38
0.019306092 -0.0072879866 0.11100001 2.2687011e-38
0.023951085 -0.0079132738 0.11100001 1.9753306e-38
0.0015381799 -0.0064678043 0.11100002 1.5355593e-38
0.0024679906 -0.0063053919 0.11100001 1.6817067e-38
0.0031379417 -0.0063053919 0.11100001 1.736053e-38
0.018725466 -0.0064617144 0.11100001 2.1399515e-38
0.019306092 -0.0066626989 0.11100001 2.1765772e-38
0.0016789375 -0.0059480849 0.11100001 1.5353076e-38
0.002661532 -0.0058289827 0.11100001 1.699966e-38
0.0035399122 -0.0057694316 0.11100002 1.7727873e-38
0.0044778436 -0.0053049317 0.11100002 1.8276729e-38
0.0050138044 -0.0050548171 0.11100001 1.8552239e-38
0.017825821 -0.005463168 0.11100001 2.1308765e-38
0.018293722 -0.005501451 0.11100002 2.1493877e-38
0.0047330633 -0.0046719881 0.11100001 1.8644795e-38
0.0053949323 -0.0045426763 0.11100003 1.9568198e-38
0.016715616 -0.0043625343 0.11100001 2.3154483e-38
0.017591016 -0.0045426763 0.11100003 2.1403122e-38
0.01819844 -0.0047332407 0.11100002 2.1033619e-38
0.0056472132 -0.0037067945 0.11100002 1.9662196e-38
0.0065451204 -0.0034214135 0.11100002 2.0128573e-38
0.0074256277 -0.0031789544 0.11100001 1.9109024e-38
0.0081104673 -0.0032087304 0.11100001 2.0207453e-38
0.014507966 -0.0032427593 0.11100001 2.2878965e-38
0.015423354 -0.003530306 0.11100003 2.2967556e-38
0.016415153 -0.0038529655 0.11100002 2.2596626e-38
0.017460005 -0.0039828955 0.11100001 2.2330477e-38
0.0067110136 -0.0029109742 0.11100001 2.040408e-38
0.0074256281 -0.0029109742 0.11100001 1.9294856e-38
0.008440705 -0.0026835969 0.11100002 1.9839387e-38
0.0094801439 -0.0024643403 0.11100001 2.0762428e-38
0.010532214 -0.0023253879 0.11100003 2.1500707e-38
0.011501752 -0.0024314306 0.11100004 2.1225565e-38
0.012636357 -0.0025139665 0.11100001 2.0574084e-38
0.01349985 -0.0023526819 0.11100001 2.2046339e-38
0.014354835 -0.0028344083 0.11100001 2.3155197e-38
0.015018405 -0.0029109742 0.11100001 2.2786048e-38
0.010909373 -0.0018390528 0.11100001 2.1314518e-38
0.011419812 -0.0016093553 0.11100001 2.1777298e-38
-0.0091818096 -0.031779289 0.11200001 1.4752607e-38
0.016415548 -0.023667451 0.112 1.3269548e-38
0.017497126 -0.023186749 0.11200001 1.4834366e-38
0.018578706 -0.022946397 0.11200001 1.5753444e-38
0.022724757 -0.01880035 0.11200001 1.7642133e-38
0.023085283 -0.018710218 0.112 1.7827606e-38
0.023385722 -0.017698742 0.112 1.7917289e-38
0.022544494 -0.013031931 0.112 2.0032408e-38
0.021688243 -0.01271647 0.112 1.9569989e-38
0.022400284 -0.012815615 0.112 1.9938413e-38
0.023445809 -0.012491141 0.112 2.1973554e-38
0.023265546 -0.011770089 0.112 2.1327828e-38
0.021643179 -0.0097871963 0.112 2.2432737e-38
0.023085283 -0.0081648286 0.112 2.2242588e-38
0.019660285 -0.0072635133 0.112 2.2046682e-38
0.021663208 -0.0074838344 0.112 2.1966361e-38
0.018849101 -0.0060016713 0.112 2.1494954e-38
0.019419933 -0.006572505 0.112 2.1490629e-38
0.020741863 -0.0067227241 0.112 2.3352172e-38
0.021282652 -0.0069029871 0.112 2.3446166e-38
0.0016082237 -0.0055896412 0.112 1.4895689e-38
0.0024205779 -0.005395331 0.112 1.6540119e-38
0.0032964016 -0.0053407061 0.112 1.7454523e-38
0.018879145 -0.0055810572 0.112 2.1587512e-38
0.019119496 -0.0056411452 0.11200001 2.1219448e-38
0.0028958169 -0.0049200929 0.112 1.7088978e-38
0.0036307354 -0.0047259629 0.112 1.7728232e-38
0.0043829875 -0.0042891721 0.112 1.8276731e-38
0.018606437 -0.0043931697 0.112 2.0943221e-38
0.0048186234 -0.0037784267 0.11200001 1.8552235e-38
0.0053894562 -0.0032676815 0.112 1.8645157e-38
0.015604364 -0.0031174624 0.112 2.2507294e-38
0.016505679 -0.0032827032 0.112 2.2228557e-38
0.017425021 -0.0035020229 0.112 2.2142847e-38
0.018188136 -0.0036882954 0.112 2.1223051e-38
0.0058160787 -0.0028650942 0.112 1.8553322e-38
0.0065611661 -0.0026167317 0.112 1.9660757e-38
0.00750254 -0.0024765271 0.112 1.9665077e-38
0.0083637964 -0.0021560593 0.112 1.8735551e-38
0.009340222 -0.0021034826 0.112 2.0117782e-38
0.011908972 -0.002035884 0.112 2.1043691e-38
0.01251736 -0.0021034826 0.112 2.0485846e-38
0.01367555 -0.0020719366 0.112 2.1494244e-38
0.014543586 -0.0022577462 0.112 2.27857e-38
0.015438334 -0.0024438472 0.112 2.214067e-38
0.016376918 -0.0027054322 0.112 2.1862284e-38
0.0171366 -0.0029371993 0.112 2.1031094e-38
0.0085741039 -0.0018556209 0.112 1.8735188e-38
0.0094213402 -0.0018556209 0.112 1.9748994e-38
0.01049691 -0.001645314 0.112 2.0393644e-38
0.011568475 -0.0013148318 0.112 2.0946458e-38
0.012593972 -0.0014500291 0.112 2.0853186e-38
0.013564115 -0.0015606451 0.112 2.0665559e-38
0.014576865 -0.0017835157 0.112 2.1589678e-38
0.015288904 -0.0017654893 0.112 2.1771897e-38
0.011758752 -0.00065386714 0.112 2.0298571e-38
0.01251736 -0.00070644391 0.112 2.0849941e-38
0.05002667 -0.039580431 0.11300001 1.3010756e-38
-0.0089000454 -0.03206303 0.11300001 1.3185298e-38
0.023655146 -0.017331356 0.11300001 1.8283555e-38
0.02288219 -0.013466565 0.11300001 2.0496263e-38
0.023473272 -0.013330159 0.11300001 2.1331061e-38
0.021654548 -0.012966415 0.11300001 1.9938413e-38
0.02356421 -0.012663295 0.11300001 2.1789524e-38
0.022927657 -0.011147689 0.11300001 1.9846943e-38
0.024782758 -0.011329561 0.11300001 2.022004e-38
0.025110127 -0.011511435 0.11300001 1.9667587e-38
0.023837019 -0.010420199 0.11300001 2.0038171e-38
0.024710009 -0.010783944 0.11300001 2.040443e-38
0.025110127 -0.01087488 0.11300001 1.9850179e-38
0.021472676 -0.0095108366 0.11300001 2.2066473e-38
0.022745784 -0.0091470918 0.11300001 2.252169e-38
0.023837021 -0.0093289642 0.11300001 1.9663272e-38
0.024200764 -0.0095108366 0.11300001 1.9483559e-38
0.020866433 -0.0084196012 0.11300001 2.1870208e-38
0.021498656 -0.008315674 0.11300002 2.1688695e-38
0.022436598 -0.008455975 0.11300002 2.2519535e-38
0.023618773 -0.0087105976 0.11300001 2.0491951e-38
0.024346262 -0.0085650999 0.11300001 1.9571072e-38
0.019835822 -0.0076921112 0.11300001 2.3346414e-38
0.020745186 -0.0075102379 0.11300001 2.3258538e-38
0.021316784 -0.0076921103 0.11300002 2.2613527e-38
0.022200165 -0.0078739831 0.11300001 2.2148596e-38
0.023618773 -0.0075466125 0.11300001 2.177981e-38
0.019763073 -0.006309879 0.11300001 2.12144e-38
0.020401647 -0.0066615003 0.11300002 2.2513061e-38
0.021108931 -0.0067827483 0.11300001 2.3075585e-38
0.023473274 -0.0069646207 0.11300001 2.1963483e-38
0.019676683 -0.0055551087 0.11300002 2.0665908e-38
0.0014464839 -0.0048225662 0.11300002 1.3338788e-38
0.002362065 -0.0047541689 0.11300003 1.6356445e-38
0.0033633632 -0.0042105508 0.11300002 1.7361246e-38
0.0040129079 -0.0040546595 0.11300001 1.8002302e-38
0.019199269 -0.0047821496 0.11300001 2.0942861e-38
0.0037097868 -0.0038121629 0.11300001 1.7726796e-38
0.0043539195 -0.0035772442 0.11300002 1.7909388e-38
0.018017096 -0.0031452968 0.11300001 2.1779822e-38
0.0049222708 -0.0029634242 0.11300001 1.8000504e-38
0.0054678884 -0.0025996789 0.11300001 1.7908666e-38
0.0065793321 -0.0021551019 0.11300002 1.864552e-38
0.0074230186 -0.0020995296 0.11300001 2.0125338e-38
0.01653938 -0.002167732 0.11300002 2.112651e-38
0.017341571 -0.0026516428 0.11300002 2.084886e-38
0.0068319328 -0.0016903164 0.11300001 1.8277097e-38
0.0075983959 -0.0014434893 0.11300003 1.9474927e-38
0.0084478008 -0.0013545516 0.11300003 1.8551879e-38
0.0093781492 -0.0013265712 0.11300003 1.901142e-38
0.010287513 -0.0012720095 0.11300002 1.9840834e-38
0.013773404 -0.0012053229 0.11300001 2.0389328e-38
0.014516048 -0.0012811031 0.11300003 2.0665917e-38
0.015522844 -0.0014564802 0.11300002 2.1125807e-38
0.016289307 -0.0016903164 0.11300001 2.0757726e-38
0.0086051906 -0.0007354854 0.11300001 1.8734828e-38
0.0093781492 -0.00059908093 0.11300003 1.8827019e-38
0.010435882 -0.00052250311 0.11300001 1.9103978e-38
0.011305998 -0.00041720847 0.11300002 1.9472047e-38
0.012579108 -0.00034445943 0.11300002 2.038932e-38
0.01354303 -0.00048995746 0.11300003 2.0483679e-38
0.01436311 -0.00061561487 0.11300003 1.9837947e-38
0.010469384 0.0001284092 0.11300001 1.8919577e-38
0.011424216 0.0001284092 0.11300001 1.8919592e-38
0.012651856 0.0001890334 0.11300001 1.9653912e-38
0.013392338 0.00023233637 0.11300002 2.0115253e-38
-0.0092977602 -0.031580877 0.11446665 1.5858241e-38
-0.0087773344 -0.03141335 0.11416668 1.5305426e-38
-0.0091501139 -0.030964695 0.115 1.5489482e-38
-0.0084025152 -0.03065997 0.11490001 1.4844836e-38
0.017626094 -0.02372312 0.11400001 1.4466656e-38
0.02388873 -0.014121367 0.115 2.0596014e-38
0.024258913 -0.014121367 0.115 2.0135758e-38
0.023772743 -0.01381509 0.11400001 2.0871522e-38
0.024431609 -0.013614926 0.11400001 1.9857735e-38
0.02453655 -0.01208536 0.115 2.141966e-38
0.023680441 -0.011398173 0.1148 2.0128209e-38
0.02435259 -0.011477221 0.11425001 2.0866489e-38
0.022947073 -0.010145449 0.11400001 2.1044763e-38
0.023554744 -0.010525695 0.11485714 1.9940937e-38
0.024455704 -0.01047164 0.11400001 2.0314037e-38
0.025249882 -0.01035118 0.11425 1.9851256e-38
0.021387475 -0.0091057178 0.11400001 2.1969967e-38
0.022947073 -0.0095032621 0.11400001 2.2245465e-38
0.023460576 -0.0094702607 0.11471429 2.1230597e-38
0.024854356 -0.0096836826 0.11433334 1.957647e-38
0.020622967 -0.0083717899 0.114 2.260741e-38
0.021479217 -0.0086775925 0.11400001 2.1689058e-38
0.022488369 -0.0086775925 0.11400001 2.2244028e-38
0.023324553 -0.0088081975 0.1145 2.2428777e-38
0.02043337 -0.0077234865 0.11400001 2.3350735e-38
0.024292609 -0.0078825038 0.114 2.0029894e-38
0.020378325 -0.0061088437 0.11400001 2.1031091e-38
0.019827878 -0.0050079515 0.11400001 2.1500354e-38
0.020304769 -0.0054792836 0.11475001 2.0482237e-38
0.0023766949 -0.0041720886 0.11400001 1.6081294e-38
0.019541478 -0.0043970072 0.11483333 2.0665914e-38
0.020094354 -0.004496607 0.115 2.0761348e-38
0.0024394426 -0.0034840659 0.1143 1.5440957e-38
0.0033812129 -0.0034066536 0.11400001 1.7360168e-38
0.0041860323 -0.0032190019 0.11400001 1.7634241e-38
0.018624566 -0.0032476727 0.11450001 2.1132653e-38
0.019347817 -0.003484773 0.115 2.0853185e-38
0.020063505 -0.0038796347 0.115 2.0204933e-38
0.002598891 -0.0026721691 0.11483333 1.4710219e-38
0.0035313913 -0.0027012229 0.11454546 1.7176137e-38
0.0044298084 -0.0025727672 0.114375 1.7633519e-38
0.0053652297 -0.0021796827 0.11414287 1.7725352e-38
0.017580224 -0.0023015914 0.11400001 2.038932e-38
0.018397029 -0.0024342856 0.114875 2.0393282e-38
0.019122621 -0.0025068724 0.115 2.0395808e-38
0.0056149228 -0.0015065973 0.11462501 1.7725352e-38
0.0064680902 -0.0013727135 0.11399999 1.7724998e-38
0.015852433 -0.00127715 0.11400001 2.0941412e-38
0.016643155 -0.001390734 0.114 2.0480421e-38
0.017436197 -0.0015045512 0.11422224 2.0113079e-38
0.018150892 -0.0017202334 0.115 1.9561712e-38
0.0058731511 -0.00073307863 0.115 1.7633157e-38
0.0066819862 -0.00059032312 0.11433333 1.7633158e-38
0.0075997771 -0.00051290193 0.11412499 1.8184537e-38
0.0084723765 -0.00038012679 0.11400001 1.8827382e-38
0.0094611412 -0.00023741853 0.11400001 1.8918492e-38
0.014690381 -0.00042090056 0.114 1.9561719e-38
0.015431131 -0.00068095641 0.1146 1.9837585e-38
0.016485067 -0.00071545085 0.115 2.0204202e-38
0.017040342 -0.00079477578 0.115 2.0112359e-38
0.0078023039 0.00031561111 0.11485714 1.7724995e-38
0.0085902978 0.00038451533 0.11415385 1.84604e-38
0.009459231 0.00038761337 0.11419999 1.8642987e-38
0.010357382 0.00046828159 0.114 1.8735538e-38
0.011424402 0.0004965096 0.11399999 1.8736274e-38
0.012433551 0.00053320604 0.11400001 1.901106e-38
0.013619491 0.00054387137 0.11425001 1.9746829e-38
0.014140415 0.00040803512 0.11475001 1.9839386e-38
0.0086906571 0.0012000996 0.11499999 1.7908669e-38
0.0095441341 0.001241231 0.115 1.8184174e-38
0.010452683 0.0012572226 0.1149091 1.8368195e-38
0.011406338 0.001223461 0.1146154 1.8552237e-38
0.012515345 0.0013094924 0.114875 1.8460049e-38
0.013557256 0.0012244046 0.115 1.8735554e-38
0.014078878 0.0011486853 0.115 1.8918863e-38
-0.0095564062 -0.031093929 0.116 1.5305111e-38
-0.0092815422 -0.030466404 0.116 1.4752328e-38
-0.0085202157 -0.030263111 0.11600001 1.438462e-38
-0.0076893964 -0.030160423 0.116 1.3553772e-38
-0.0083895251 -0.029574391 0.116 1.3832199e-38
-0.0075493697 -0.029460292 0.11600003 1.3462689e-38
-0.0074249026 -0.028682373 0.116 1.4016606e-38
-0.0064525013 -0.027663298 0.116 1.3924054e-38
-0.0053556333 -0.026846483 0.116 1.3002089e-38
0.017328545 -0.024559394 0.116 1.3545774e-38
0.023909757 -0.0211521 0.116 1.563756e-38
0.024345392 -0.0211521 0.116 1.4445854e-38
0.023847522 -0.020467529 0.116 1.7378853e-38
0.024469862 -0.020545322 0.11600003 1.6467332e-38
0.025092198 -0.020467529 0.116 1.5640809e-38
0.023785291 -0.019627374 0.116 1.7552459e-38
0.024444969 -0.019583814 0.11600003 1.7835888e-38
0.025092198 -0.019782959 0.116 1.7476822e-38
0.024679899 -0.018631635 0.116 1.8014163e-38
0.025104642 -0.018500945 0.11600001 1.8018481e-38
0.024843263 -0.017978182 0.116 1.7920168e-38
0.025163323 -0.017658124 0.116 1.8476943e-38
0.024656562 -0.012377151 0.116 2.1604415e-38
0.023816407 -0.0073362235 0.116 2.2238632e-38
0.021109242 -0.0062160166 0.116 2.1124731e-38
0.020735839 -0.0054692128 0.116 2.0296403e-38
0.021183919 -0.0052825115 0.11600001 2.0204204e-38
0.020629153 -0.0045890505 0.116 2.0208173e-38
0.021171475 -0.004846876 0.116 1.9928696e-38
0.019740099 -0.0031043328 0.116 2.1130491e-38
0.020381108 -0.0034715116 0.11600001 2.0020899e-38
0.0028747714 -0.0024197623 0.116 1.4981774e-38
0.003434875 -0.0021708275 0.116 1.6719111e-38
0.0042127958 -0.0021085939 0.116 1.7541684e-38
0.018868828 -0.0021085939 0.116 1.9933025e-38
0.019428931 -0.0024819961 0.116 2.0119581e-38
0.0037460432 -0.0017351919 0.116 1.6808434e-38
0.0045728618 -0.0016285056 0.116 1.7449846e-38
0.0050996258 -0.0013151146 0.116 1.7725352e-38
0.01787309 -0.0012373226 0.116 2.0020882e-38
0.018433193 -0.0015173741 0.116 1.9469513e-38
0.0055063674 -0.00058831426 0.116 1.754168e-38
0.0063598575 -0.00024158377 0.116 1.7633157e-38
0.014948106 -0.00024158377 0.116 1.9562078e-38
0.015694911 -0.00052163529 0.116 1.9561715e-38
0.016388372 -0.00034827008 0.116 1.9653903e-38
0.017499687 -0.00073945319 0.116 2.0020522e-38
0.019428931 -0.00033493427 0.116 1.8642627e-38
0.0068577281 0.00019405196 0.116 1.7632795e-38
0.0074178302 0.00047410352 0.116 1.7816465e-38
0.014636938 0.00047410352 0.116 1.9562075e-38
0.015881613 0.00050522038 0.116 1.9009972e-38
0.016201671 0.00031851931 0.116 1.9009973e-38
0.019428931 0.00013181829 0.116 1.8275639e-38
0.007853467 0.001158674 0.116 1.7816465e-38
0.008366894 0.0014854008 0.116 1.7724995e-38
0.0096893599 0.0018743612 0.116 1.7816835e-38
0.010429941 0.001886808 0.11600001 1.790831e-38
0.011517475 0.0018821404 0.116 1.84604e-38
0.012408972 0.0019614885 0.11600001 1.8368571e-38
0.01337152 0.0018536167 0.116 1.8276737e-38
0.014540758 0.0013538613 0.11600001 1.8827025e-38
0.015197041 0.0012520246 0.116 1.8918493e-38
0.01196089 0.0021855298 0.116 1.8368568e-38
0.01263768 0.0023955686 0.116 1.8184541e-38
0.013127771 0.0026989577 0.116 1.8001589e-38
0.013174446 0.0031190349 0.116 1.7725721e-38
-0.0047897929 -0.026230518 0.11700001 1.3740023e-38
0.023927566 -0.02161691 0.11700001 1.4076351e-38
0.024445418 -0.021616912 0.117 1.3160873e-38
0.025852518 -0.020476587 0.117 1.3801213e-38
0.02557805 -0.019451335 0.11699999 1.7380671e-38
0.026478315 -0.019536935 0.11699999 1.5541064e-38
0.02583421 -0.01865102 0.117 1.793025e-38
0.026187291 -0.018792253 0.11700001 1.7654381e-38
0.025528204 -0.01747408 0.11700001 1.8845365e-38
0.025339894 -0.016814992 0.11700001 1.8935764e-38
0.025198663 -0.0096121151 0.11700001 1.9482118e-38
0.024492497 -0.0081527084 0.11700001 2.1687616e-38
0.022044459 -0.0070228456 0.11700001 2.2984469e-38
0.023613716 -0.0070228451 0.11700001 2.1776215e-38
0.024266524 -0.0072864802 0.11700001 2.1778012e-38
0.021338295 -0.0061283698 0.11700001 2.1216923e-38
0.022044459 -0.0067403796 0.11700001 2.2980513e-38
0.023802025 -0.0067717643 0.11700001 2.1590383e-38
0.024210032 -0.0068345349 0.11700001 2.1315234e-38
0.021503067 -0.0056811324 0.117 2.0664465e-38
0.021342576 -0.0043864977 0.11699999 1.9930143e-38
0.020537974 -0.0030683242 0.11700001 1.9931579e-38
0.021102907 -0.0035391003 0.11700001 1.9837584e-38
0.0024601631 -0.0022523119 0.11700001 1.3070111e-38
0.019763809 -0.0023987757 0.117 2.0302892e-38
0.020387327 -0.0024657305 0.11700001 2.0487278e-38
0.0035335333 -0.0015053469 0.117 1.5894382e-38
0.0043118834 -0.0013107592 0.11700001 1.7082501e-38
0.018767856 -0.0013358673 0.11700001 1.9285841e-38
0.019300507 -0.0015887416 0.117 1.9378762e-38
0.020349665 -0.0015618399 0.11700001 1.9379128e-38
0.0045880722 -0.00060145633 0.117 1.6806992e-38
0.0053978073 -0.00028132851 0.11700001 1.7266172e-38
0.015594824 -0.00029074401 0.11700001 1.9377683e-38
0.016960075 -0.00024366639 0.11700001 1.9653902e-38
0.017587779 -0.00055751723 0.11700001 2.0020882e-38
0.018582443 -0.00054786023 0.11699999 1.9285479e-38
0.019031491 -0.00052613218 0.11700001 1.8918137e-38
0.0055269348 0.00021365916 0.117 1.7082501e-38
0.0064146845 0.00052406115 0.11699999 1.754132e-38
0.0071679261 0.00088619674 0.11700001 1.7816463e-38
0.014888659 0.00088619674 0.11700001 1.9194368e-38
0.015366677 0.00043714864 0.11699999 1.9102171e-38
0.016715271 0.0005284067 0.117 1.901033e-38
0.018843181 0.00013295465 0.11700001 1.9009972e-38
0.019031491 0.00013295465 0.11700001 1.8550791e-38
0.0068383822 0.0011215849 0.11700001 1.7541317e-38
0.007450392 0.0012628176 0.11700001 1.7724986e-38
0.0084233293 0.0018277493 0.11700001 1.7724995e-38
0.014700348 0.0018277493 0.11700001 1.8460043e-38
0.015600054 0.0014511282 0.117 1.8827015e-38
0.016081294 0.0011372775 0.11700001 1.8918851e-38
0.0094747301 0.0021102149 0.11700001 1.7633522e-38
0.010541823 0.0024083734 0.11699999 1.7633522e-38
0.011369606 0.0025692219 0.11699999 1.7725719e-38
0.012228774 0.0027457632 0.117 1.8093424e-38
0.013489781 0.0023657794 0.117 1.8277457e-38
0.014229573 0.0020160598 0.11700001 1.8184901e-38
0.010745826 0.0031459229 0.11700001 1.7266542e-38
0.011379235 0.0033684717 0.11699999 1.7451296e-38
0.012377851 0.0031459229 0.11700001 1.7726804e-38
0.013240942 0.0034283889 0.11700001 1.7450213e-38
0.009804274 0.004652407 0.11700001 1.6994634e-38
0.017864713 -0.025315192 0.11800001 1.3270264e-38
0.018035371 -0.025612378 0.11850001 1.2993676e-38
0.018416017 -0.024755325 0.11850001 1.4466655e-38
0.026917567 -0.019111138 0.11800001 1.6732417e-38
0.027455673 -0.019570112 0.11800002 1.4075997e-38
