# .PCD v0.7 - Point Cloud Data file format
VERSION 0.7
FIELDS x y z rgb
SIZE 4 4 4 4
TYPE F F F F
COUNT 1 1 1 1
WIDTH 1013
HEIGHT 1
VIEWPOINT 0 0 0 1 0 0 0
POINTS 1013
DATA ascii
0.031447854 0.0093381796 0.13966666 1.9197608e-38
0.073841795 0.0091067282 0.13900001 2.1107595e-38
0.074373037 0.0096229017 0.14 1.9727164e-38
0.028874205 0.010560904 0.13900001 1.9386318e-38
0.029560922 0.010401276 0.13945456 1.8927144e-38
-0.005802298 0.011120202 0.13900001 1.7913719e-38
0.028650487 0.011455783 0.13900003 1.93802e-38
0.029364444 0.011464013 0.13955556 1.8647674e-38
0.017911954 0.012686238 0.13900001 1.6074125e-38
0.018471252 0.012641494 0.13900003 1.7547815e-38
0.019340318 0.012634611 0.13900003 1.7636413e-38
0.020149149 0.012909957 0.13900001 1.7634971e-38
0.022610061 0.012909957 0.13900001 1.8276375e-38
0.02328122 0.012630308 0.13900001 1.8460049e-38
0.028650487 0.012574378 0.13900003 1.7911192e-38
0.029426325 0.012561058 0.13960001 1.8188138e-38
0.015898481 0.013357395 0.13900001 1.487845e-38
0.016189819 0.013645722 0.1392 1.5801491e-38
0.017800095 0.013525185 0.13900001 1.6349988e-38
0.018433966 0.013581116 0.13900001 1.7455618e-38
0.019415228 0.013589391 0.13908336 1.8000875e-38
0.020520531 0.013672523 0.1397 1.7727882e-38
0.021492783 0.013588537 0.1393 1.7454534e-38
0.022589574 0.013589615 0.13961539 1.7818275e-38
0.023489676 0.013514944 0.14 1.8184541e-38
0.024385592 0.013656929 0.13977778 1.8187422e-38
0.028650485 0.013618402 0.13900001 1.7178306e-38
0.029571479 0.013501816 0.13991666 1.7452732e-38
0.016179388 0.014303541 0.13950001 1.5711458e-38
0.017911954 0.014587853 0.13900001 1.6348904e-38
0.01844486 0.014556235 0.13918184 1.6993912e-38
0.019500446 0.014537096 0.1398 1.7817558e-38
0.020519434 0.014580135 0.14 1.7633885e-38
0.02149586 0.014580137 0.14 1.7731474e-38
0.022547396 0.014580135 0.14 1.7455962e-38
0.023577468 0.014515757 0.14 1.7816477e-38
0.024350025 0.014580137 0.14 1.7632805e-38
0.025153125 0.014657282 0.13966666 1.8003026e-38
0.027904755 0.014475991 0.13900001 1.7731842e-38
0.028633878 0.014595486 0.13987499 1.7181543e-38
0.029382372 0.014429917 0.14 1.6719845e-38
0.016793357 0.015818309 0.13900001 1.635287e-38
0.017560298 0.015725415 0.13916667 1.6259954e-38
0.018503333 0.015495794 0.13987499 1.6625131e-38
0.01961812 0.015481452 0.14 1.7082151e-38
0.020519434 0.015537784 0.14 1.6990314e-38
0.021495862 0.015537784 0.14 1.7270138e-38
0.022389665 0.01539132 0.14 1.7459917e-38
0.024575355 0.015030794 0.14 1.7724999e-38
0.025323328 0.015608376 0.139625 1.7173983e-38
0.027755609 0.01559459 0.13900001 1.7268703e-38
0.028481057 0.015181012 0.14 1.7363775e-38
0.016793357 0.016936906 0.13900001 1.6353227e-38
0.017424054 0.016501607 0.13941668 1.6168839e-38
0.018097151 0.016439099 0.14 1.6906401e-38
0.019768339 0.016307656 0.14 1.6989952e-38
0.020569509 0.01643284 0.14 1.680664e-38
0.02149586 0.016532984 0.14 1.7083228e-38
0.022096736 0.016157437 0.14 1.7454529e-38
0.025702 0.016157437 0.14 1.6989952e-38
0.026301432 0.016265746 0.13900001 1.6993551e-38
0.016463516 0.01750941 0.14 1.5615302e-38
0.017745296 0.01761895 0.1398 1.6074481e-38
0.018040817 0.017058752 0.14 1.6815284e-38
0.021533417 0.017321637 0.14 1.7174705e-38
0.027643748 0.017384343 0.13900001 1.6169547e-38
0.028180618 0.01750941 0.14 1.6073757e-38
0.016688844 0.018185398 0.14 1.5707858e-38
0.017471811 0.018373542 0.13950001 1.6533296e-38
0.021555949 0.018636055 0.14 1.7265816e-38
0.020970093 0.019086713 0.14 1.7358012e-38
0.02127053 0.019161822 0.14 1.7265817e-38
0.016793357 0.023872204 0.13900001 2.2430882e-38
0.016715778 0.024282269 0.13975 2.2616705e-38
-0.042347316 0.051759392 0.14 2.3234378e-38
-0.041727662 0.051562235 0.14 2.3234378e-38
-0.029516548 0.05183712 0.13900001 1.3372713e-38
-0.044449817 0.052955721 0.13900001 1.7893188e-38
-0.043610871 0.052955721 0.13900001 2.0751592e-38
-0.036038108 0.052886035 0.14 2.3234378e-38
-0.03534849 0.052809015 0.13950001 2.3234378e-38
-0.034662094 0.052642506 0.13900001 2.2590453e-38
-0.044451632 0.053530354 0.13915387 1.7985748e-38
-0.043496225 0.053669564 0.13911112 2.0935262e-38
-0.042529564 0.053776026 0.13900001 2.27752e-38
-0.041485149 0.053407539 0.13960001 2.3234378e-38
-0.040817708 0.053541761 0.13987499 2.3234378e-38
-0.036038108 0.053224027 0.14 2.3234378e-38
-0.035345122 0.053421311 0.13940001 2.09313e-38
-0.034572452 0.053498078 0.13944446 1.6231141e-38
-0.04428203 0.054074317 0.13900001 1.8537846e-38
-0.043387145 0.054521758 0.13900003 2.0291696e-38
-0.042517792 0.054468788 0.13913336 2.2315664e-38
-0.041858885 0.054043498 0.13950001 2.3234378e-38
-0.04055671 0.054398336 0.13961111 2.3142542e-38
-0.038017884 0.054969195 0.13900001 2.3050707e-38
-0.037682306 0.054969195 0.13900001 2.2867037e-38
-0.036263436 0.054538444 0.14 1.8075769e-38
-0.042380415 0.055192914 0.13900001 2.1673174e-38
-0.040201932 0.055175051 0.13933335 2.3050707e-38
-0.039441027 0.055634931 0.13911112 2.3050707e-38
-0.038386442 0.055562682 0.1392 2.1577384e-38
-0.037548102 0.05546606 0.139125 1.7706264e-38
-0.040143222 0.056087792 0.13900001 2.3142542e-38
-0.039360199 0.056535233 0.13900003 2.0932379e-38
-0.038529243 0.056551211 0.13900003 1.5770879e-38
-0.03924834 0.057206389 0.13900001 1.6508805e-38
0.0075035784 -0.045000501 0.141 1.5766401e-38
0.0079574548 -0.044092745 0.141 1.5582012e-38
0.0084113311 -0.044092745 0.141 1.3277499e-38
0.0087517388 -0.043184992 0.141 1.3553738e-38
0.0088652084 -0.042844586 0.141 1.3553025e-38
0.0096594924 -0.040915608 0.141 1.3368631e-38
0.010907654 -0.037625004 0.141 1.3000925e-38
0.03927495 -0.035469089 0.141 1.3098272e-38
0.048806358 -0.033653583 0.141 1.3282268e-38
-0.008155168 -0.015271578 0.141 1.3635842e-38
-0.0079282299 -0.015498516 0.141 1.3452524e-38
0.024977831 -0.00426507 0.141 1.4460599e-38
0.025431708 -0.0044920081 0.141 1.3633348e-38
0.041601069 -0.004662212 0.141 1.7978766e-38
0.024977831 -0.0033573166 0.141 1.6753619e-38
0.025250157 -0.0032892353 0.141 1.6752174e-38
0.026339464 -0.0031303782 0.141 1.7117361e-38
0.027209394 -0.0031682013 0.14100002 1.6288677e-38
0.030537821 -0.0033005821 0.141 1.5818327e-38
0.024977831 -0.0023360942 0.141 1.7845923e-38
0.025399286 -0.0023036744 0.14100002 1.7838373e-38
0.026263816 -0.0022604482 0.14100002 1.8389388e-38
0.027360687 -0.0022509922 0.14100002 1.728483e-38
0.029743537 -0.0021091558 0.141 1.6363237e-38
0.032239862 -0.0021091558 0.141 1.3697492e-38
0.024977831 -0.00154181 0.141 1.8027424e-38
0.025561389 -0.0014931803 0.14100002 1.8197797e-38
0.026294073 -0.0015645039 0.141 1.865554e-38
0.027519543 -0.0016098914 0.141 1.7554223e-38
0.028381908 -0.0013526948 0.141 1.7915818e-38
0.029403131 -0.0014283408 0.141 1.7370557e-38
0.033374552 -0.00097446417 0.141 1.3326208e-38
0.058224298 -0.00018018008 0.141 1.3093156e-38
0.032920673 0.00084104238 0.141 1.7276937e-38
0.033374552 0.00053845794 0.141 1.6630132e-38
0.032693736 0.0017235802 0.14100002 1.800983e-38
0.033419941 0.0016126325 0.141 1.7180789e-38
0.031559046 0.0026565485 0.141 1.8554024e-38
0.032549322 0.002553395 0.14100002 1.8003008e-38
0.033556104 0.0025203857 0.141 1.773073e-38
0.032410063 0.0033373637 0.141 1.8091968e-38
0.034282304 0.0032238946 0.141 1.7641421e-38
0.032580268 0.0040181787 0.141 1.8183807e-38
0.033737652 0.0055159717 0.141 1.791154e-38
0.034236915 0.0055159717 0.141 1.7636032e-38
0.032504622 0.0066279694 0.14100002 1.8645876e-38
0.034480877 0.0062591946 0.14100002 1.7545278e-38
0.030878229 0.0076491921 0.141 1.855152e-38
0.031559046 0.0076491921 0.141 1.8643353e-38
0.03239115 0.0073466077 0.14100002 1.9289086e-38
0.036097813 0.0071953158 0.141 1.6633044e-38
0.067793541 0.007270962 0.141 1.8991406e-38
0.068096116 0.0073087849 0.141 1.9175796e-38
0.030802583 0.0081787147 0.141 2.0112365e-38
0.03150231 0.0081598032 0.141 1.9194005e-38
0.032769382 0.0085569462 0.141 1.8462205e-38
0.03348802 0.0083300071 0.141 1.7821508e-38
0.072407946 0.0087838834 0.141 2.009309e-38
0.030359512 0.0094971191 0.14100002 2.1219077e-38
0.032239862 0.0092377607 0.141 1.9015735e-38
-0.0077012912 0.010372452 0.141 1.8277094e-38
-0.0063396608 0.01071286 0.141 1.8831714e-38
0.030560518 0.010372452 0.14100002 1.8924264e-38
0.031332105 0.010145513 0.141 1.9290527e-38
0.074677326 0.010145513 0.141 1.8529688e-38
0.030197416 0.011620613 0.141 1.7640724e-38
0.031672515 0.011847552 0.141 1.8006266e-38
0.032239862 0.011734082 0.141 1.763748e-38
0.030359516 0.012674255 0.14100002 1.7730398e-38
0.023843139 0.013549589 0.141 1.7908314e-38
0.024070079 0.013549589 0.141 1.7908314e-38
0.030537819 0.013594976 0.14100002 1.7362335e-38
0.031559043 0.013663057 0.141 1.6813841e-38
0.032239862 0.013776527 0.141 1.662693e-38
0.0236162 0.014911219 0.141 1.7817195e-38
0.029573334 0.014854484 0.141 1.6628368e-38
0.030395987 0.014343873 0.14100002 1.7085751e-38
0.031559043 0.014003465 0.141 1.6630529e-38
0.032239862 0.014003465 0.141 1.6719848e-38
0.018737026 0.015818972 0.141 1.6440738e-38
0.019077433 0.015818972 0.141 1.6715885e-38
0.022821918 0.015818972 0.141 1.6907463e-38
0.023587832 0.015563666 0.14100002 1.7266539e-38
0.024438852 0.015563666 0.14100002 1.7633165e-38
0.029176192 0.015138157 0.141 1.6997871e-38
0.016581113 0.016651079 0.141 1.5614223e-38
0.018668946 0.016567867 0.14100002 1.644146e-38
0.019389475 0.016698359 0.14100002 1.6990314e-38
0.020552535 0.016953664 0.141 1.6898836e-38
0.02270845 0.016567867 0.14100002 1.7272294e-38
0.023253102 0.016409012 0.141 1.6625128e-38
0.024902185 0.016121555 0.141 1.7173987e-38
0.025507353 0.01642414 0.141 1.6989952e-38
0.026112523 0.016726725 0.141 1.6623689e-38
0.028154969 0.016272848 0.141 1.6992116e-38
0.016354173 0.017180601 0.141 1.4789858e-38
0.018547913 0.017445361 0.14100002 1.671877e-38
0.019667473 0.017271375 0.141 1.7082148e-38
0.020666003 0.017558834 0.14100002 1.7173983e-38
0.021346817 0.017785771 0.141 1.7265816e-38
0.02253194 0.017558832 0.14100002 1.7640366e-38
0.023162324 0.017180601 0.141 1.6625494e-38
0.028268438 0.017861417 0.141 1.5800047e-38
0.01680805 0.018769169 0.141 1.5983362e-38
0.017602336 0.018996108 0.141 1.6992476e-38
0.01839662 0.01854223 0.141 1.6991395e-38
0.020741649 0.018491799 0.14100002 1.7357653e-38
0.021444079 0.018380133 0.14100002 1.735765e-38
0.022163797 0.018315293 0.141 1.7360178e-38
0.027549801 0.018088356 0.141 1.6356099e-38
0.028154969 0.018088356 0.141 1.5803284e-38
0.017715804 0.019223046 0.141 1.6716609e-38
0.020779472 0.019336514 0.141 1.726618e-38
0.021725049 0.019374339 0.141 1.7265817e-38
0.022027632 0.019223046 0.141 1.7174343e-38
0.028410275 0.02047121 0.14100002 1.570929e-38
0.029062724 0.020584676 0.141 1.5801844e-38
0.028336519 0.021378959 0.14100002 1.5801487e-38
0.029062724 0.021038553 0.141 1.5803284e-38
0.028154969 0.022173245 0.141 1.6078073e-38
0.01680805 0.023761813 0.141 2.1970627e-38
0.016581113 0.024669565 0.141 2.2067121e-38
-0.042422857 0.051523935 0.141 2.3050707e-38
-0.043103676 0.052356038 0.141 2.3050707e-38
-0.04247959 0.052526243 0.141 2.3234378e-38
-0.041666396 0.05250733 0.141 2.3234378e-38
-0.044238362 0.05337726 0.141 2.1488786e-38
-0.043602936 0.053581506 0.141 2.2867036e-38
-0.042479593 0.053263791 0.14100002 2.3234378e-38
-0.041515104 0.053198952 0.14100002 2.3234378e-38
-0.04333061 0.054171547 0.141 2.2867036e-38
-0.042536326 0.054171547 0.141 2.3142542e-38
-0.040531706 0.054398488 0.141 2.3234378e-38
-0.039018784 0.054625422 0.141 2.3234378e-38
-0.040380411 0.055419706 0.141 2.3050707e-38
-0.039472658 0.055646643 0.141 2.3050707e-38
-0.038640551 0.055381883 0.141 2.3050707e-38
-0.037657153 0.055760115 0.141 1.8627141e-38
-0.036825046 0.055684466 0.141 1.3372713e-38
-0.040153474 0.05621399 0.141 2.3050707e-38
-0.039472658 0.056440931 0.141 2.3050707e-38
0.0068711517 -0.04531965 0.142 1.6043343e-38
0.0075567947 -0.045548197 0.142 1.5582013e-38
0.037496563 -0.036863383 0.142 1.3282663e-38
0.03886785 -0.035949189 0.142 1.3467054e-38
0.047781218 -0.035263546 0.142 1.3470272e-38
0.011899204 -0.034577902 0.142 1.3923213e-38
0.048390675 -0.034730267 0.142 1.319152e-38
0.012813396 -0.032635245 0.142 1.3000914e-38
0.025688259 -0.0044095921 0.142 1.4001411e-38
0.042753167 -0.0044095926 0.142 1.8716331e-38
0.025726348 -0.0033811273 0.142 1.6660699e-38
0.026526267 -0.0034382641 0.142 1.6293357e-38
0.027897555 -0.0030383056 0.142 1.6469825e-38
0.031325772 -0.003723949 0.142 1.3796867e-38
0.025840623 -0.0024669361 0.142 1.8022404e-38
0.027897555 -0.0024669361 0.142 1.710224e-38
0.028202286 -0.0023526624 0.142 1.7283037e-38
0.029954486 -0.0024669361 0.142 1.6365035e-38
0.028659381 -0.0015908362 0.142 1.8010172e-38
0.02926884 -0.0014384709 0.142 1.7830815e-38
0.033382703 -0.00029573185 0.142 1.6537935e-38
0.033839799 0.00084700715 0.142 1.6630132e-38
0.033782661 0.0014755137 0.142 1.7088592e-38
0.034296893 0.001075555 0.142 1.6262441e-38
0.033154156 0.0029039374 0.142 1.8096283e-38
0.03441117 0.0029039374 0.142 1.76425e-38
0.033839799 0.0031324853 0.142 1.8004084e-38
0.03447973 0.003589581 0.142 1.7639984e-38
0.034601625 0.0045037726 0.142 1.736124e-38
0.034845412 0.0053722537 0.142 1.7635672e-38
0.035439633 0.0054179635 0.142 1.7636391e-38
0.032468513 0.0065607023 0.142 1.919905e-38
0.067893431 0.0070177983 0.142 1.9267998e-38
0.068617158 0.0072463457 0.142 1.9359467e-38
0.069306269 0.0073917853 0.14199999 1.9451296e-38
0.033382703 0.008617633 0.142 1.8370368e-38
0.069436125 0.0082176737 0.142 1.8254185e-38
0.072692931 0.008617633 0.142 1.9817209e-38
0.073378578 0.0083890855 0.142 2.04615e-38
-0.0088986494 0.0097603723 0.142 1.7637119e-38
0.032354236 0.0094175506 0.142 1.8830266e-38
0.070864551 0.0096460981 0.142 2.0093458e-38
0.071093097 0.0095318239 0.142 2.0922153e-38
0.072350115 0.0090747289 0.142 2.0644834e-38
-0.0084415544 0.010331742 0.142 1.7269415e-38
0.031211499 0.010560289 0.142 1.8832427e-38
0.071435913 0.010446016 0.142 2.193346e-38
-0.0066131707 0.011360207 0.142 1.8651284e-38
0.030640131 0.011588755 0.142 1.8193539e-38
0.031325772 0.01174112 0.142 1.7641445e-38
0.032354236 0.011703029 0.142 1.7821871e-38
0.030640129 0.01204585 0.142 1.8009865e-38
0.031304996 0.01260683 0.14199999 1.7735439e-38
0.032239962 0.012731493 0.142 1.7269783e-38
0.031325772 0.013417137 0.142 1.7550327e-38
0.032439943 0.01355998 0.142 1.6902438e-38
0.033154156 0.013874233 0.142 1.7086825e-38
0.031249588 0.014559876 0.142 1.727302e-38
0.0324228 0.014468457 0.142 1.6445419e-38
0.033268429 0.014502739 0.142 1.6536533e-38
0.028811745 0.015931163 0.142 1.7086469e-38
0.029497389 0.015753403 0.142 1.681204e-38
0.030411581 0.015474067 0.14199999 1.6534735e-38
0.031097224 0.015016972 0.142 1.7364495e-38
0.023669418 0.01673108 0.142 1.6992116e-38
0.024240788 0.016479678 0.142 1.7361264e-38
0.025612075 0.016845355 0.142 1.7082151e-38
0.02862891 0.016616806 0.142 1.6718043e-38
0.029440254 0.016540626 0.14199999 1.662693e-38
0.030297307 0.016540624 0.142 1.662729e-38
0.018755639 0.017988093 0.142 1.6441463e-38
0.019506585 0.017890144 0.142 1.6898477e-38
0.023583712 0.017530996 0.142 1.6993919e-38
0.028720325 0.017576706 0.142 1.6166312e-38
0.029440252 0.017530996 0.14199999 1.6351422e-38
0.030228743 0.017439578 0.142 1.6627648e-38
0.01647016 0.018902285 0.142 1.5893331e-38
0.018755639 0.01852137 0.142 1.6715169e-38
0.019441284 0.018369006 0.142 1.6806643e-38
0.020355474 0.018673737 0.142 1.7266179e-38
0.022732371 0.018445188 0.142 1.7919115e-38
0.023098048 0.018216642 0.142 1.7548536e-38
0.027897555 0.018445188 0.142 1.6541928e-38
0.028583199 0.018490897 0.142 1.5985159e-38
0.029325977 0.018388052 0.142 1.625887e-38
0.016927257 0.019130832 0.142 1.6166674e-38
0.017384352 0.019511744 0.142 1.6993556e-38
0.018461792 0.019424679 0.142 1.6990315e-38
0.019212736 0.019130832 0.142 1.6898478e-38
0.020469747 0.01935938 0.142 1.7082511e-38
0.022488587 0.019207016 0.142 1.7450932e-38
0.017612901 0.020273572 0.142 1.6808442e-38
0.018184271 0.020444982 0.142 1.6806999e-38
0.020812569 0.020045023 0.142 1.7174346e-38
0.021383941 0.020045023 0.142 1.7358017e-38
0.027897555 0.020959215 0.142 1.5433425e-38
0.028430833 0.020121206 0.142 1.5800765e-38
0.029040294 0.020273572 0.142 1.5800407e-38
0.027897557 0.021416312 0.142 1.5433425e-38
0.029497391 0.021187762 0.142 1.5618892e-38
0.027897557 0.022330502 0.142 1.5433781e-38
0.028126102 0.022559049 0.142 1.58944e-38
0.016927257 0.023701789 0.142 2.1692966e-38
-0.04340937 0.051698897 0.142 2.2958871e-38
-0.042323768 0.051641759 0.142 2.3050707e-38
-0.045409169 0.052727357 0.14199999 1.5310984e-38
-0.044454165 0.052792661 0.142 2.1579186e-38
-0.043790285 0.052574992 0.142 2.2958871e-38
-0.042038083 0.05238454 0.142 2.3234378e-38
-0.04158099 0.052574996 0.142 2.3234378e-38
-0.038724139 0.052270263 0.142 2.3234378e-38
-0.045294896 0.053555846 0.142 1.8077573e-38
-0.044247378 0.05348919 0.142 2.2407858e-38
-0.043729339 0.05364155 0.142 2.2958871e-38
-0.039466921 0.053755827 0.142 2.3234378e-38
-0.04363792 0.054327194 0.142 2.3050707e-38
-0.041123893 0.054327194 0.142 2.3234378e-38
-0.039556708 0.054588396 0.142 2.3234378e-38
-0.039491408 0.055437285 0.142 2.3050707e-38
-0.038838416 0.055584207 0.142 2.3050707e-38
-0.04043825 0.056155577 0.142 2.3050707e-38
-0.019183302 0.058669604 0.142 1.6602434e-38
-0.01880239 0.058517236 0.142 1.4849635e-38
0.0069195405 -0.046099119 0.14300001 1.6043343e-38
0.0073798555 -0.046099115 0.14300001 1.5858241e-38
0.0069195405 -0.045868963 0.14300001 1.6043343e-38
0.037760623 -0.036892828 0.14300001 1.3374859e-38
0.011752843 -0.035511881 0.14300001 1.383067e-38
0.039141569 -0.035972197 0.14300001 1.3374859e-38
0.031431299 -0.0098493416 0.14300001 1.4105487e-38
0.026344821 -0.0046247719 0.14300001 1.326564e-38
0.043687176 -0.0042680278 0.14300001 1.8992559e-38
0.026540454 -0.0037501741 0.14300001 1.5652662e-38
0.027518623 -0.0035200168 0.14300001 1.574054e-38
0.029935276 -0.0030597022 0.14300001 1.6279673e-38
0.030472308 -0.0035200168 0.14300001 1.59134e-38
0.028669411 -0.0023692301 0.14300001 1.7191201e-38
0.029321522 -0.0021390729 0.14300001 1.7374512e-38
0.029474961 -0.0016787583 0.14300001 1.746491e-38
0.034078106 -0.00098828645 0.14300001 1.3049621e-38
0.056173209 -6.7657173e-05 0.14300001 1.825389e-38
0.034154829 0.0005460956 0.14300001 1.6538301e-38
0.05962557 0.00016250013 0.14300001 1.3276096e-38
0.060546197 0.0006228147 0.14300001 1.3739226e-38
0.033617791 0.0029243878 0.14300001 1.8096283e-38
0.035228893 0.0029243878 0.14300001 1.5620322e-38
0.033157479 0.0031545451 0.14300001 1.8277078e-38
0.035228893 0.0034614215 0.14300001 1.5987661e-38
0.034308266 0.0043053315 0.14300001 1.7727144e-38
0.035228893 0.0041902531 0.14300001 1.6811662e-38
0.068486623 0.0066069048 0.14300001 1.9636059e-38
0.069614395 0.0065608732 0.14300001 1.9636053e-38
0.070212804 0.0064918259 0.14300001 1.9543502e-38
0.069982648 0.0070672194 0.14300001 1.9727883e-38
0.070586808 0.0074124555 0.14300001 1.9543489e-38
0.07130605 0.0077001522 0.14300001 2.0004465e-38
0.07216914 0.0077576917 0.14300001 2.0372549e-38
0.070607349 0.0084810425 0.14300001 1.8990666e-38
0.071297832 0.0084152836 0.14300001 2.018851e-38
0.072514378 0.008448163 0.14300001 2.0002326e-38
0.033157479 0.0091386354 0.14300001 1.8370368e-38
0.071517028 0.0094455117 0.14300001 2.0646639e-38
0.072284222 0.0095003108 0.14300001 2.1381693e-38
0.073204853 0.0093687922 0.14300001 2.0920348e-38
0.074815951 0.0093687922 0.14300001 2.0462225e-38
0.075276271 0.0095989499 0.14300001 2.0002322e-38
-0.009191473 0.010289421 0.14300001 1.525765e-38
-0.0087311585 0.010519579 0.14300001 1.6447205e-38
0.031373758 0.010922355 0.14300001 1.837397e-38
0.032006692 0.010634657 0.14300001 1.874095e-38
0.071363591 0.01046204 0.14300001 1.9998775e-38
0.072054066 0.010289421 0.14300001 2.2210403e-38
0.031270187 0.011532272 0.14300001 1.7918752e-38
0.032513037 0.01148624 0.14300001 1.7730037e-38
0.033234198 0.011747085 0.14300001 1.7270854e-38
0.032927319 0.012360837 0.14300001 1.745345e-38
0.033234198 0.013665062 0.14300001 1.7086468e-38
-0.0022867532 0.014202096 0.14300001 1.7637488e-38
-0.0011359664 0.014892568 0.14300001 1.7451299e-38
0.032409467 0.014892568 0.14300001 1.6446498e-38
0.033157479 0.014892568 0.14300001 1.663017e-38
-0.00067565171 0.015122725 0.14300001 1.7543494e-38
0.031086061 0.015583039 0.14300001 1.6903519e-38
0.024411498 0.016848905 0.14300001 1.7455618e-38
0.030855903 0.016657107 0.14300001 1.6534735e-38
0.031086061 0.016158432 0.14300001 1.6719126e-38
0.015895676 0.017884612 0.14300001 1.4239926e-38
0.024564937 0.017385939 0.14300001 1.7089353e-38
0.025447205 0.017194141 0.14300001 1.6715889e-38
0.030855903 0.017501017 0.14300001 1.6627646e-38
0.019578194 0.018575085 0.14300001 1.6715166e-38
0.020038508 0.018575085 0.14300001 1.6990671e-38
0.023692258 0.018431237 0.14300001 1.7086478e-38
0.024411498 0.01811477 0.14300001 1.7271947e-38
0.027633702 0.018575085 0.14300001 1.6261385e-38
0.029935276 0.018575085 0.14300001 1.6536533e-38
0.030472308 0.018344929 0.14300001 1.6444693e-38
0.015205204 0.019956028 0.14300001 1.5897647e-38
0.018887721 0.019956028 0.14300001 1.7174346e-38
0.019405575 0.019582022 0.14300001 1.6898837e-38
0.020115227 0.019265557 0.14300001 1.6898838e-38
0.022524206 0.019863967 0.14300001 1.7266539e-38
0.02341415 0.019188836 0.14300001 1.7546014e-38
0.028324174 0.019035399 0.14300001 1.635682e-38
0.029705118 0.019035399 0.14300001 1.6812043e-38
0.01727662 0.020186186 0.14300001 1.689992e-38
0.018887721 0.020416342 0.14300001 1.7174343e-38
0.019209942 0.02037031 0.14300001 1.7358014e-38
0.022471601 0.020317703 0.14300001 1.7635686e-38
0.02786386 0.020646499 0.14300001 1.5709656e-38
0.029474961 0.020416342 0.14300001 1.5616734e-38
0.017852012 0.021221895 0.14300001 1.7173982e-38
0.018558925 0.021402732 0.14300001 1.7449844e-38
0.019117879 0.021221895 0.14300001 1.7633521e-38
0.029820196 0.021221895 0.14300001 1.5342305e-38
0.017621856 0.023638545 0.14300001 2.0218552e-38
0.017161541 0.024329018 0.14300001 2.2062819e-38
0.017046463 0.025249645 0.14300001 2.1975645e-38
-0.045383714 0.051890351 0.14300001 1.3465985e-38
-0.044606932 0.051746503 0.14300001 1.9551615e-38
-0.043669041 0.051671702 0.14300001 2.2683365e-38
-0.042564284 0.05171774 0.14300001 2.3050707e-38
-0.041873813 0.051947892 0.14300001 2.3050707e-38
-0.045418233 0.052454241 0.14300001 1.6233297e-38
-0.044664465 0.052523281 0.14300001 2.1487707e-38
-0.041873813 0.052408203 0.14300001 2.3234378e-38
-0.039227001 0.052868523 0.14300001 2.3234378e-38
-0.04155159 0.053420901 0.14300001 2.3234378e-38
-0.040170651 0.053605031 0.14300001 2.3234378e-38
-0.039342083 0.053482279 0.14300001 2.3234378e-38
-0.038559549 0.053558998 0.14300001 2.3234378e-38
-0.041321434 0.054249465 0.14300001 2.3234378e-38
-0.040569589 0.054428477 0.14300001 2.3234378e-38
-0.039380442 0.054633066 0.14300001 2.3234378e-38
-0.038467485 0.054709785 0.14300001 2.3234378e-38
-0.037961137 0.054939941 0.14300001 2.3234378e-38
-0.041183341 0.055860568 0.14300001 2.3050707e-38
-0.040607944 0.055476975 0.14300001 2.3142542e-38
-0.039111923 0.055285178 0.14300001 2.3234378e-38
-0.038421452 0.055476971 0.14300001 2.3142542e-38
-0.037961137 0.055476975 0.14300001 2.3142542e-38
-0.040646307 0.056167442 0.14300001 2.3050707e-38
-0.038467485 0.056182791 0.14300001 2.2866677e-38
-0.037961137 0.056090727 0.14300001 2.0563246e-38
-0.018397767 0.059082773 0.14300001 1.4574846e-38
0.03851397 -0.036455519 0.14400001 1.3190109e-38
0.031303447 -0.010034102 0.14400001 1.5119276e-38
0.026436344 -0.0043558162 0.14400001 1.4092528e-38
0.027595177 -0.003776399 0.14400001 1.5099488e-38
0.028651007 -0.0035188806 0.14400001 1.5646901e-38
0.029623138 -0.003370807 0.14400001 1.6010279e-38
0.030144613 -0.0035446321 0.14400001 1.5826248e-38
0.028811952 -0.0027913901 0.14400001 1.6738495e-38
0.029565195 -0.002617565 0.14400001 1.6827452e-38
0.034250196 -0.00026678757 0.14400001 1.5620303e-38
0.05650809 -0.00018401371 0.14400001 1.7977663e-38
0.057029564 -6.8130299e-05 0.14400001 1.825389e-38
0.058497418 -0.0002998971 0.14400001 1.4936686e-38
0.034548182 0.0003954033 0.14400001 1.5620309e-38
0.057029564 0.00016363649 0.14400001 1.8530477e-38
0.061896667 0.0010907036 0.14400001 1.429168e-38
0.06259197 0.0013886895 0.14400001 1.3922529e-38
0.035243481 0.0027130712 0.14400001 1.6815262e-38
0.063287266 0.002944838 0.14400001 1.8714487e-38
0.033698373 0.0033311162 0.14400001 1.8277437e-38
0.034084648 0.0036401385 0.14400001 1.800265e-38
0.063634917 0.0033794008 0.14400001 1.899143e-38
0.064677872 0.0036401385 0.14400001 1.8899595e-38
0.065527685 0.0036401385 0.14400001 1.8162032e-38
0.066532001 0.003673248 0.14400001 1.7056053e-38
0.064755119 0.0042968108 0.14400001 1.9268015e-38
0.065465882 0.0041963784 0.14400001 1.9175818e-38
0.066454746 0.0041036718 0.14400001 1.8530451e-38
0.067613587 0.0059578065 0.14400001 1.9452392e-38
0.068559967 0.0058419229 0.14400001 1.9636425e-38
0.069313206 0.0058419229 0.14400001 1.9359475e-38
0.070124388 0.0059578065 0.14400001 1.9267634e-38
0.067690842 0.0061895731 0.14400001 1.9544585e-38
0.068664268 0.0063749864 0.14400001 1.9728256e-38
0.069390468 0.0063054562 0.14400001 1.9544222e-38
0.070182338 0.0062475149 0.14400001 1.9452024e-38
0.072326176 0.0085734604 0.14400001 2.0556583e-38
0.073330499 0.0084299855 0.14400001 1.9449144e-38
0.072326176 0.0092025418 0.14400001 2.0831744e-38
0.031998746 0.010709026 0.14400001 1.8924263e-38
0.032230515 0.010824909 0.14400001 1.8558e-38
0.033528406 0.010732202 0.14400001 1.8285729e-38
0.034161907 0.010747653 0.14400001 1.8288245e-38
0.032809932 0.011056677 0.14400001 1.7637122e-38
0.033621114 0.011420881 0.14400001 1.7917664e-38
0.034337487 0.01154128 0.14400002 1.7090421e-38
0.035177261 0.011785087 0.14400001 1.6630523e-38
0.075570911 0.011751977 0.14400001 1.6868368e-38
0.034548182 0.012447277 0.14400001 1.6627283e-38
0.035127599 0.012447277 0.14400001 1.6628002e-38
0.014848 0.013837878 0.14400001 1.3501277e-38
0.015311535 0.013837878 0.14400001 1.3868257e-38
0.015543302 0.014185527 0.14400001 1.4235959e-38
0.016006835 0.016850846 0.14400001 1.4791299e-38
0.015775068 0.01731438 0.14400001 1.3964418e-38
0.016006835 0.017198496 0.14400001 1.4515431e-38
0.025277508 0.017546147 0.14400001 1.7178312e-38
0.024615318 0.018440103 0.14400001 1.7179391e-38
0.025277508 0.018125564 0.14400001 1.6995358e-38
0.026899878 0.018704981 0.14400001 1.6073759e-38
0.02736341 0.018704981 0.14400001 1.6166674e-38
0.03072403 0.018589098 0.14400001 1.6352857e-38
0.019946871 0.019632047 0.14400001 1.6715166e-38
0.02771106 0.019168515 0.14400001 1.5985877e-38
0.028661305 0.019446632 0.14400001 1.6354661e-38
0.029565196 0.01940028 0.14400001 1.6166674e-38
0.030144613 0.019168515 0.14400001 1.6812043e-38
0.016933903 0.020095581 0.14400001 1.6533298e-38
0.017165668 0.020790882 0.14400001 1.6899201e-38
0.019830987 0.020211466 0.14400001 1.7174704e-38
0.020178638 0.020443231 0.14400001 1.7174706e-38
0.021476533 0.020651823 0.14400001 1.7174346e-38
0.022110028 0.020713627 0.14400001 1.7358017e-38
0.023191607 0.020095581 0.14400001 1.7174343e-38
0.027826944 0.020559115 0.14400001 1.5801488e-38
0.028580187 0.020153522 0.14400001 1.6077354e-38
0.029758334 0.02048186 0.14400001 1.5708571e-38
0.017562984 0.02165173 0.14400001 1.7726078e-38
0.018479014 0.021949716 0.14400001 1.7724993e-38
0.019425396 0.021717949 0.14400001 1.7541685e-38
0.020178638 0.021254415 0.14400001 1.7543129e-38
0.022310894 0.02134712 0.14400001 1.7544208e-38
0.030144613 0.021254415 0.14400001 1.5157914e-38
0.017600231 0.022673987 0.14400001 1.8921733e-38
0.018324502 0.022645013 0.14400001 1.836892e-38
0.016856648 0.023726596 0.14400001 2.1783727e-38
0.017455377 0.023398258 0.14400001 2.0122772e-38
0.018092737 0.023572084 0.14400001 1.8742709e-38
0.017629202 0.024615034 0.14400001 2.1877709e-38
0.022728072 0.024267383 0.14400001 1.6626925e-38
0.017165668 0.025889751 0.14400001 2.1332072e-38
-0.044407051 0.050920565 0.14400001 1.567832e-38
-0.043292366 0.050721906 0.14400001 2.111857e-38
-0.042707428 0.05084331 0.14400001 2.27752e-38
-0.044219431 0.051350988 0.14400001 1.9551252e-38
-0.043325473 0.051461354 0.14400001 2.27752e-38
-0.042514287 0.051499981 0.14400001 2.2958871e-38
-0.042243894 0.052311163 0.14400001 2.3050707e-38
-0.041934866 0.052388418 0.14400001 2.3050707e-38
-0.041405119 0.053569324 0.14400001 2.3234378e-38
-0.04044494 0.053304445 0.14400001 2.3234378e-38
-0.041355453 0.054165296 0.14400001 2.3234378e-38
-0.038458366 0.056714732 0.14400001 2.0839821e-38
-0.038690135 0.057178266 0.14400001 1.8442753e-38
0.013550854 -0.03180778 0.14500001 1.3369705e-38
0.031054076 -0.0098704081 0.14500001 1.6872067e-38
0.041789386 -0.0054362579 0.14500001 1.5489482e-38
0.027286714 -0.0045694313 0.145 1.3264561e-38
0.028516112 -0.0046486128 0.145 1.298797e-38
0.029245412 -0.0044444087 0.14500001 1.3998162e-38
0.030820699 -0.0042693764 0.14500001 1.4355781e-38
0.042722892 -0.0049695056 0.14500001 1.7978767e-38
0.043656398 -0.0047361292 0.14500001 1.8716332e-38
0.044589903 -0.0045027528 0.14500001 1.917659e-38
0.028253561 -0.0038026241 0.14500001 1.5006571e-38
0.02953713 -0.00374428 0.14500001 1.5371389e-38
0.030587323 -0.0038026241 0.14500001 1.5917355e-38
0.056764364 -0.0011576927 0.145 1.4290946e-38
0.0574256 -0.0011187968 0.14500001 1.300022e-38
0.056325398 -0.00040199814 0.145 1.7885113e-38
0.057620082 -0.00037977181 0.145 1.6687646e-38
0.058320213 -0.00022418762 0.145 1.622668e-38
0.057581186 0.00047594125 0.14500001 1.8715224e-38
0.058475792 0.00039814913 0.14500001 1.8069857e-38
0.059467643 0.00039814913 0.14500001 1.6595817e-38
0.060459491 0.00063152547 0.14500001 1.5949366e-38
0.061276309 0.00086490175 0.14500001 1.5213967e-38
0.061626375 0.001098278 0.14500001 1.5950444e-38
0.06226816 0.0015066864 0.14500001 1.6502892e-38
0.063260011 0.0017984068 0.14500001 1.5580935e-38
0.062715463 0.0021095753 0.14500001 1.7609222e-38
0.063464209 0.0025860518 0.145 1.7885806e-38
0.064660259 0.0031986646 0.14500001 1.853153e-38
0.065360397 0.0031986646 0.14500001 1.7793614e-38
0.067694157 0.0038987934 0.14500001 1.6871303e-38
0.065710455 0.0048322985 0.14500001 1.9360565e-38
0.066660635 0.0046322616 0.145 1.9175815e-38
0.067382991 0.0044433381 0.14500001 1.8622644e-38
0.065749355 0.0051434669 0.14500001 1.926837e-38
0.066585615 0.0051823631 0.145 1.9452042e-38
0.067616366 0.0055324272 0.14500001 1.9452036e-38
0.06847208 0.0055324272 0.14500001 1.9452036e-38
0.069405586 0.0053768433 0.14500001 1.899106e-38
0.074228697 0.008566319 0.14500001 1.9448777e-38
-0.010020154 0.0094998237 0.14500001 1.7179015e-38
0.075745642 0.0099665765 0.14500001 1.889598e-38
0.032765504 0.010822289 0.14500001 1.8096661e-38
0.033154462 0.010666706 0.14500001 1.80981e-38
0.034788098 0.010900081 0.14500001 1.6996069e-38
0.075862326 0.010433329 0.14500001 1.7883249e-38
-0.007686391 0.011133458 0.14500001 1.8185977e-38
0.035021473 0.011133458 0.14500001 1.7180104e-38
0.034321345 0.012533716 0.14500001 1.6811675e-38
-0.004185746 0.013933974 0.14500001 1.6903883e-38
-0.0030188644 0.014400726 0.14500001 1.7637488e-38
0.014834423 0.01445907 0.14500001 1.3042458e-38
0.015242833 0.014575758 0.14500001 1.4235961e-38
0.031520829 0.015800985 0.14500001 1.6903517e-38
0.014951112 0.016967867 0.14500001 1.3045699e-38
0.015301176 0.016967867 0.14500001 1.3045699e-38
0.031520829 0.016967867 0.14500001 1.6718047e-38
0.014951113 0.017434618 0.14500001 1.3137895e-38
0.015301176 0.017434618 0.145 1.3321207e-38
0.031520829 0.017201243 0.14500001 1.6718047e-38
0.015417865 0.018134747 0.14500001 1.3412684e-38
0.02521967 0.018601499 0.14500001 1.6995716e-38
0.031054076 0.018251434 0.14500001 1.6444693e-38
0.016468059 0.019651692 0.14500001 1.6168477e-38
0.024986293 0.019068252 0.14500001 1.708539e-38
0.026486566 0.019535005 0.145 1.6165951e-38
0.027390068 0.019581681 0.145 1.5707852e-38
0.028486937 0.019768381 0.14500001 1.5895119e-38
0.029653819 0.019768381 0.14500001 1.5983001e-38
0.030587323 0.019418316 0.145 1.6260666e-38
0.031054076 0.019068252 0.14500001 1.5986233e-38
0.023119284 0.020701887 0.14500001 1.6991753e-38
0.026464343 0.020390719 0.145 1.6075908e-38
0.027386736 0.02055186 0.145 1.5247955e-38
0.028253561 0.020235134 0.14500001 1.5802205e-38
0.029653817 0.020235134 0.14500001 1.5800047e-38
0.030431738 0.020662991 0.145 1.570929e-38
0.016740331 0.021790974 0.14500001 1.7271937e-38
0.017284876 0.021868767 0.14500001 1.7635324e-38
0.021874612 0.021635391 0.14500001 1.726582e-38
0.022652529 0.021810422 0.14500001 1.7638203e-38
0.023386 0.02170207 0.145 1.6625491e-38
0.027553432 0.021635391 0.14500001 1.4696939e-38
0.030587323 0.021402014 0.14500001 1.5342305e-38
0.016701434 0.022491105 0.145 1.8559076e-38
0.017284876 0.02233552 0.14500001 1.8462204e-38
0.018918509 0.022685584 0.14500001 1.8000141e-38
0.019618638 0.022491105 0.145 1.7633521e-38
0.020085391 0.022802273 0.14500001 1.745021e-38
0.0219524 0.022491105 0.14500001 1.7265819e-38
0.02257474 0.022491105 0.145 1.7177585e-38
0.023319321 0.02243554 0.145 1.6442179e-38
0.027553432 0.022491105 0.14500001 1.4880608e-38
0.016678097 0.023362378 0.14500001 2.0307176e-38
0.01859178 0.023549076 0.14500001 1.8829529e-38
0.019651977 0.023335705 0.145 1.800158e-38
0.02034794 0.0235024 0.145 1.7542044e-38
0.021719024 0.023657987 0.14500001 1.7175422e-38
0.022574738 0.023560746 0.145 1.6901715e-38
0.02316596 0.023455728 0.14500001 1.6259223e-38
0.018296173 0.024358116 0.14500001 1.9756859e-38
0.022185778 0.024202531 0.14500001 1.7085744e-38
0.017634939 0.0254861 0.14500001 2.2614188e-38
0.017518252 0.026186228 0.14500001 2.2246125e-38
-0.04385972 0.050574049 0.14500001 1.6599555e-38
-0.044559851 0.051040802 0.14500001 1.5215903e-38
-0.04250614 0.051367529 0.14500001 2.2958871e-38
-0.041992713 0.051040802 0.14500001 2.3050707e-38
-0.041992713 0.052557748 0.14500001 2.3050707e-38
-0.041817676 0.053374566 0.14500001 2.3234378e-38
-0.020522088 0.059208971 0.14500001 1.3373061e-38
-0.0083247488 -0.033606932 0.147 1.4935923e-38
-0.0084557654 -0.032377459 0.14620002 1.6041898e-38
-0.0076581645 -0.032439742 0.14644445 1.4935573e-38
-0.0083268648 -0.031557169 0.14600001 1.576603e-38
-0.0079743862 -0.031557169 0.14600001 1.5581639e-38
0.030441392 -0.010290466 0.147 1.6779868e-38
0.031184392 -0.010358205 0.1467143 1.58572e-38
0.032192193 -0.010479742 0.147 1.3551597e-38
0.042312577 -0.0054737492 0.14600001 1.6503634e-38
0.043667067 -0.00503805 0.147 1.8070961e-38
0.04449515 -0.00503805 0.147 1.8624137e-38
0.027978441 -0.0045338064 0.14600001 1.3079451e-38
0.028448412 -0.0045925528 0.14600001 1.3079807e-38
0.029623343 -0.0046512992 0.14600001 1.3539339e-38
0.030392606 -0.0045778994 0.14672726 1.3811244e-38
0.044731747 -0.004801455 0.147 1.8716332e-38
0.045630805 -0.0044229021 0.147 1.8808168e-38
0.030093314 -0.0038288489 0.14600001 1.5279192e-38
0.044968341 -0.0038550738 0.147 1.8807805e-38
0.045559831 -0.0038550738 0.147 1.9084393e-38
0.051593009 -0.0033818833 0.147 1.4659369e-38
0.050883222 -0.0027903952 0.147 1.8438661e-38
0.051286221 -0.0028104193 0.14680001 1.8161354e-38
0.052444752 -0.0025774599 0.147 1.7055712e-38
0.053595811 -0.0025525636 0.1469375 1.5028146e-38
0.053958964 -0.0017257165 0.147 1.8254258e-38
0.054727897 -0.0016665678 0.147 1.74245e-38
0.055660646 -0.0013664627 0.14650001 1.6595105e-38
0.056490049 -0.0014528817 0.14600001 1.4015089e-38
0.055863429 -0.00046071954 0.14600001 1.8530845e-38
0.058588002 0.00069686404 0.146375 1.8622669e-38
0.059514631 0.00077186275 0.14628573 1.816205e-38
0.06034774 0.00081212015 0.14600001 1.7608876e-38
0.061111443 0.00087086658 0.14600001 1.6595087e-38
0.058809169 0.0011134266 0.147 1.8807061e-38
0.059726562 0.0013881922 0.14683335 1.8715224e-38
0.060279839 0.0014466319 0.14642859 1.8530471e-38
0.061335664 0.0015076478 0.14620002 1.7977655e-38
0.062227629 0.0017520632 0.14600001 1.7701421e-38
0.064369157 0.0018232125 0.147 1.5304348e-38
0.059873845 0.0020598078 0.147 1.8899612e-38
0.060110439 0.0020598078 0.147 1.8899612e-38
0.061547145 0.002134002 0.14666666 1.8623023e-38
0.06232373 0.0021429141 0.14620002 1.8254234e-38
0.063422777 0.0027695936 0.147 1.8623373e-38
0.064468883 0.0025987665 0.14633334 1.7608861e-38
0.033853088 0.0039256816 0.14600001 1.8183807e-38
0.065315537 0.0030061889 0.147 1.8530451e-38
0.068864465 0.0039525698 0.147 1.6041545e-38
0.034321554 0.0043074628 0.147 1.809197e-38
0.067926034 0.0046306392 0.14600001 1.8899231e-38
0.068583086 0.0045550307 0.14660001 1.8345701e-38
0.067808539 0.0052181035 0.14600001 1.9452042e-38
0.068395622 0.0052268375 0.14625001 1.9267648e-38
0.069337659 0.005253844 0.147 1.9083614e-38
0.074505635 0.0083904108 0.14600001 1.944913e-38
-0.010324244 0.0098003261 0.14600001 1.4804215e-38
0.076435514 0.0098674512 0.147 1.9632112e-38
-0.0093843006 0.010857762 0.14600001 1.6828929e-38
-0.0085226865 0.010975254 0.14600001 1.6996063e-38
-0.0079743862 0.010975255 0.14600001 1.8001586e-38
0.032665387 0.010104046 0.147 1.9931578e-38
0.033553798 0.010440951 0.14675 1.7821869e-38
0.034381427 0.010287481 0.14625001 1.8377563e-38
0.075915553 0.010505283 0.14600001 1.7975097e-38
-0.0094485767 0.011996808 0.147 1.52972e-38
-0.0085689686 0.011707235 0.14633334 1.6088847e-38
-0.0078177294 0.011836869 0.14600001 1.7271571e-38
0.077560447 0.011680212 0.14600001 1.8345299e-38
-0.010213657 0.012834975 0.14666666 1.4837659e-38
-0.0096513731 0.012740395 0.147 1.5390116e-38
-0.0089753866 0.012627729 0.147 1.3726999e-38
0.033611767 0.012706595 0.147 1.7545645e-38
0.034498572 0.012862029 0.14675 1.6902431e-38
-0.010213657 0.013228764 0.14666666 1.5205719e-38
-0.0096851718 0.013495247 0.147 1.5758536e-38
-0.0089753866 0.013495247 0.147 1.5021335e-38
0.034558147 0.013179785 0.147 1.6810236e-38
-0.009527442 0.014205031 0.147 1.6404624e-38
-0.0089753866 0.014126167 0.147 1.57589e-38
-0.0049532666 0.014126167 0.147 1.7458136e-38
0.035263002 0.014876018 0.14600001 1.6628725e-38
-0.0034153969 0.015072548 0.147 1.6994277e-38
-0.0018647553 0.015439985 0.14600001 1.736198e-38
0.031738214 0.015439985 0.14600001 1.6995713e-38
0.032669108 0.015510487 0.14666666 1.6630529e-38
0.033383116 0.015439985 0.14600001 1.6631249e-38
0.034794744 0.015545739 0.147 1.6169189e-38
0.035504527 0.015309143 0.147 1.6353576e-38
0.032381471 0.016373822 0.14699998 1.7088269e-38
0.015759181 0.017084885 0.14600001 1.3871141e-38
0.031738214 0.017672349 0.14600001 1.6627286e-38
0.032428786 0.017438501 0.147 1.6903157e-38
0.033138577 0.017438501 0.147 1.7183341e-38
0.01481084 0.01861769 0.14650001 1.2954222e-38
0.015210881 0.0184948 0.14600001 1.3413043e-38
0.031679466 0.018553546 0.14600001 1.6537968e-38
0.032381471 0.01850318 0.14699998 1.6352859e-38
0.014802442 0.019567857 0.147 1.3875098e-38
0.015661888 0.019596236 0.14609092 1.5159722e-38
0.016229153 0.019904714 0.14600001 1.5800054e-38
0.023513712 0.019904714 0.14600001 1.7635324e-38
0.030798271 0.019904714 0.14600001 1.6076996e-38
0.031402521 0.019602587 0.14600001 1.5985877e-38
0.03242879 0.019567858 0.147 1.5802922e-38
0.033138577 0.019567858 0.147 1.5892242e-38
0.014802441 0.020041049 0.147 1.4610145e-38
0.015798345 0.020531343 0.14600001 1.5895485e-38
0.016507607 0.020656893 0.14612502 1.6075919e-38
0.023513712 0.020609673 0.14600001 1.7174346e-38
0.025620751 0.02065669 0.14612502 1.7266179e-38
0.026176885 0.020766331 0.14600001 1.6992469e-38
0.030798271 0.020492179 0.14600001 1.5893681e-38
0.031457659 0.020656457 0.14633335 1.5525618e-38
0.032251343 0.020336792 0.147 1.5618534e-38
0.01658163 0.021353794 0.14600001 1.6445054e-38
0.022808755 0.021079645 0.14600001 1.7728965e-38
0.023983683 0.02131463 0.14600001 1.6899198e-38
0.024595313 0.021503909 0.14622223 1.6717324e-38
0.025536867 0.021504443 0.14622223 1.6532933e-38
0.026419595 0.021521024 0.14633334 1.5982996e-38
0.027155992 0.02166711 0.14600001 1.4882046e-38
0.031346571 0.0212363 0.14600001 1.5434861e-38
0.021633826 0.02295953 0.14600001 1.7265822e-38
0.023889687 0.022771543 0.14600001 1.6073757e-38
0.024420084 0.022489561 0.14600001 1.5799689e-38
0.025488662 0.022446433 0.147 1.570857e-38
0.026987098 0.022407001 0.147 1.5341587e-38
0.027240289 0.022514457 0.14666666 1.5066079e-38
0.019225221 0.023840727 0.14600001 1.8735187e-38
0.020928869 0.023899473 0.14600001 1.7266539e-38
0.021633826 0.023711484 0.14600001 1.7174702e-38
0.02377807 0.023635112 0.14600001 1.5799685e-38
0.024597449 0.023398286 0.14685714 1.5524181e-38
0.027366081 0.023155652 0.14650001 1.5525618e-38
0.01857901 0.024839416 0.14600001 2.0489757e-38
0.019369418 0.024412172 0.14600001 1.9196158e-38
0.020341404 0.024251953 0.14600001 1.8093776e-38
0.02170711 0.024334604 0.14650001 1.7359811e-38
0.022338783 0.024839416 0.14600001 1.7455605e-38
0.023748698 0.024134459 0.14600001 1.5800402e-38
0.024384551 0.024063168 0.147 1.5525255e-38
0.017639067 0.025779359 0.14600001 2.3074806e-38
0.018344022 0.025387714 0.14600001 2.1781205e-38
0.019264031 0.025249418 0.14620002 2.0211016e-38
0.01846379 0.026426282 0.1462 2.122588e-38
0.019179454 0.026429119 0.147 2.1039691e-38
-0.043183029 0.050839901 0.14666666 2.0012592e-38
-0.042634793 0.050922837 0.14600001 2.2683366e-38
-0.044228088 0.051508218 0.147 1.9551615e-38
-0.043459155 0.051153328 0.147 2.0473209e-38
-0.042517301 0.052567739 0.14600001 2.3050707e-38
-0.042047329 0.053272694 0.14600001 2.3142542e-38
-0.041518614 0.053448934 0.14600001 2.3142542e-38
-0.023249969 0.056279559 0.147 1.5032227e-38
-0.022934509 0.056240126 0.147 1.5216256e-38
0.030505551 -0.010729686 0.148 1.558097e-38
0.043487713 -0.0060251416 0.148 1.6043015e-38
0.044440527 -0.0061442438 0.148 1.5304378e-38
0.045631554 -0.0060251416 0.148 1.3092414e-38
0.042653996 -0.0057869367 0.148 1.4844832e-38
0.043368608 -0.0056678341 0.148 1.6965331e-38
0.04444053 -0.0056678345 0.148 1.7425232e-38
0.045631554 -0.0054693301 0.148 1.650328e-38
0.04666945 -0.0053785858 0.148 1.4751197e-38
0.047596745 -0.0051914249 0.148 1.3645217e-38
0.045750659 -0.0048341178 0.148 1.8623776e-38
0.046703476 -0.0045165112 0.148 1.8254986e-38
0.047656298 -0.0045165112 0.148 1.7424863e-38
0.048529711 -0.0045165117 0.148 1.5764987e-38
0.04932373 -0.0043100677 0.148 1.5396209e-38
0.050514754 -0.0041195038 0.148 1.3829616e-38
0.045750659 -0.0035239914 0.148 1.843938e-38
0.046703476 -0.0036430943 0.148 1.8992192e-38
0.047622267 -0.0037111524 0.148 1.8992549e-38
0.048529714 -0.0037621965 0.148 1.8715962e-38
0.049403131 -0.0038812989 0.148 1.7517782e-38
0.050647095 -0.0036960281 0.148 1.613522e-38
0.051497348 -0.0036728694 0.148 1.4289871e-38
0.04586976 -0.0028093774 0.148 1.7148275e-38
0.046663776 -0.0027696767 0.148 1.7794005e-38
0.054564238 -0.0014992513 0.148 1.8346454e-38
0.055278853 -0.0011419442 0.148 1.8623041e-38
0.058851924 0.0015974105 0.148 1.8807061e-38
0.059407737 0.0016768122 0.148 1.8807059e-38
0.060995769 0.0018356154 0.148 1.8991808e-38
0.061233971 0.0018356154 0.148 1.9084004e-38
0.064807042 0.0015974105 0.148 1.3829964e-38
0.065283455 0.0018356154 0.148 1.456608e-38
0.061353073 0.0020738202 0.148 1.8991808e-38
0.062663198 0.0023120248 0.148 1.8438984e-38
0.06313961 0.0023120248 0.148 1.8438982e-38
0.065362856 0.0023914266 0.148 1.68713e-38
0.06599807 0.0030266391 0.148 1.84379e-38
0.034078624 0.0044558677 0.148 1.790794e-38
0.069809347 0.0051704822 0.148 1.8898863e-38
-0.010703877 0.010410986 0.148 1.5835628e-38
0.033125803 0.010410986 0.148 1.8923542e-38
0.034555033 0.010490388 0.148 1.9298802e-38
-0.0096716555 0.011522609 0.148 1.5198527e-38
-0.0099892626 0.012316625 0.148 1.4101531e-38
0.07814651 0.01255483 0.148 1.7147119e-38
0.07814651 0.013031239 0.148 1.6778346e-38
0.034793235 0.014936877 0.148 1.6535454e-38
0.0328876 0.016485209 0.148 1.7273019e-38
0.033185355 0.016306555 0.148 1.6722364e-38
0.033244908 0.017795336 0.148 1.7091146e-38
0.0328876 0.018629052 0.148 1.6444694e-38
0.033185355 0.018509949 0.148 1.6721284e-38
0.033125803 0.019462768 0.148 1.5984798e-38
0.026396517 0.022440327 0.148 1.5615655e-38
0.025413925 0.023482474 0.148 1.5525978e-38
0.024193127 0.024703272 0.148 1.5984792e-38
0.019667234 0.025536988 0.148 2.0489757e-38
-0.044052549 0.050905798 0.148 1.4295743e-38
-0.043695241 0.050905798 0.148 1.632405e-38
-0.03809743 0.050905798 0.148 2.3050707e-38
-0.037859224 0.050905798 0.148 2.3050707e-38
-0.044449557 0.051302802 0.148 1.5586483e-38
-0.03809743 0.051144 0.148 2.3050707e-38
-0.037501916 0.051382203 0.148 2.3050707e-38
-0.036906406 0.051382206 0.148 2.3050707e-38
-0.022682175 0.056588683 0.148 1.3280508e-38
-0.02275704 0.057432603 0.148 1.3188679e-38
-0.021423092 0.060910393 0.148 1.7154532e-38
-0.021423092 0.061148603 0.148 1.8078297e-38
0.043517753 -0.0063536288 0.149 1.4383852e-38
0.045340341 -0.0036677097 0.149 1.8346824e-38
0.047978297 -0.0034278953 0.149 1.917694e-38
0.049656998 -0.0036677097 0.149 1.8530492e-38
0.050136626 -0.0036677097 0.149 1.7886569e-38
0.045580156 -0.0028283598 0.149 1.6686938e-38
0.047498669 -0.0028683289 0.149 1.8439373e-38
0.054573193 -0.0013894744 0.149 1.8806713e-38
0.061168082 0.0020878322 0.149 1.8807417e-38
0.062606968 0.0023276466 0.149 1.862302e-38
0.06356623 0.0028072749 0.149 1.8807764e-38
0.066683814 0.0030470893 0.149 1.8345704e-38
0.070041209 0.0045659128 0.149 1.7700333e-38
0.033829257 0.010481331 0.149 1.8097019e-38
0.034069069 0.010001702 0.149 1.8833142e-38
-0.0087377802 0.012399845 0.149 1.5732283e-38
0.034228947 0.013678855 0.149 1.7177945e-38
0.0345487 0.015157709 0.149 1.6905317e-38
0.035268143 0.015517431 0.149 1.6168829e-38
0.033349626 0.01887483 0.149 1.6628728e-38
0.024956128 0.021272972 0.149 1.7269059e-38
0.026634827 0.022951672 0.149 1.5249031e-38
0.025915386 0.023671115 0.149 1.5897274e-38
0.026360754 0.023362782 0.149 1.5158632e-38
0.027194394 0.023431301 0.149 1.5434502e-38
0.02487619 0.024550436 0.149 1.5894397e-38
0.025515696 0.024310619 0.149 1.5620326e-38
0.02735427 0.024150744 0.149 1.5987675e-38
0.020399656 0.025349814 0.149 1.9385943e-38
-0.036915958 0.050410405 0.149 2.1947603e-38
-0.038115032 0.051009938 0.149 2.3050707e-38
-0.037601143 0.051181234 0.149 2.3050707e-38
-0.036766075 0.051459588 0.149 2.3050707e-38
-0.036436331 0.052209008 0.149 2.3050707e-38
-0.037635401 0.053647894 0.149 2.3050707e-38
-0.022143397 0.061273992 0.149 1.7247804e-38
0.029227821 -0.0090036476 0.15000001 1.3185308e-38
0.048541725 -0.0034509012 0.15000001 1.9360253e-38
0.066527799 0.0027054041 0.15000001 1.7792892e-38
-0.011331372 0.010793099 0.15000001 1.4193724e-38
0.035826739 0.010712624 0.15000001 1.7456325e-38
-0.011089948 0.011034523 0.15000001 1.4193727e-38
0.035746265 0.011034523 0.15000001 1.7273375e-38
-0.0093999822 0.013207337 0.15000001 1.5758181e-38
0.033814874 0.013931609 0.15000001 1.6719129e-38
0.025727179 0.024674965 0.15000001 1.5252621e-38
0.026330737 0.024071407 0.15000001 1.5345896e-38
0.027055008 0.024071407 0.15000001 1.5343745e-38
0.020295143 0.025761371 0.15000001 1.9571037e-38
0.024709748 0.02551995 0.14999999 1.6172058e-38
0.025123619 0.025278524 0.15000001 1.6082739e-38
0.02005372 0.026002796 0.15000001 2.0218559e-38
-0.037646566 0.049420897 0.15000001 1.3465977e-38
-0.038129412 0.050869443 0.15000001 2.2591529e-38
-0.037598282 0.050483167 0.15000001 2.0288453e-38
-0.037370652 0.053559583 0.14999999 2.3050707e-38
-0.03668087 0.053766526 0.15000001 2.3050707e-38
-0.037439626 0.054214884 0.14999999 2.3050707e-38
-0.03668087 0.054128662 0.15000001 2.3050707e-38
-0.026154792 0.056567043 0.15000001 1.4109915e-38
-0.025816798 0.056180764 0.15000001 1.7152364e-38
-0.022557577 0.057629306 0.15000001 1.3281228e-38
-0.022557575 0.058474287 0.14999999 1.3097202e-38
-0.021833304 0.058655359 0.15000001 1.3835484e-38
-0.024368256 0.061733514 0.14999999 1.9736001e-38
-0.023590334 0.061679859 0.14999999 1.853818e-38
-0.022919713 0.061411615 0.15000001 1.6140376e-38
0.031123906 -0.011494004 0.15100001 1.3091705e-38
0.045705903 -0.0034739072 0.15100001 1.7609615e-38
0.049229883 -0.0034739072 0.15100001 1.9360253e-38
0.048136234 -0.0027448079 0.15100001 1.8163142e-38
0.054455101 -0.0015296416 0.15100001 1.8899625e-38
0.067335866 0.0027234401 0.15100001 1.7424116e-38
0.060044866 0.0033310233 0.15100001 1.512105e-38
-0.011892981 0.00989292 0.15100001 1.4464913e-38
-0.011892981 0.010135953 0.15100001 1.4007531e-38
-0.010920848 0.01135112 0.15100001 1.4650389e-38
0.026658172 0.024596432 0.15100001 1.497783e-38
0.020673478 0.025447048 0.15100001 1.9016085e-38
