# .PCD v0.7 - Point Cloud Data file format
VERSION 0.7
FIELDS x y z rgb
SIZE 4 4 4 4
TYPE F F F F
COUNT 1 1 1 1
WIDTH 994
HEIGHT 1
VIEWPOINT 0 0 0 1 0 0 0
POINTS 994
DATA ascii
0.022828538 0.0014570975 0.13500001 1.6920748e-38
0.023045821 0.0011311753 0.13500001 1.6742116e-38
0.026956886 0.0010225347 0.13500001 1.8116752e-38
0.027490212 0.0014175918 0.13500001 1.7742931e-38
0.028423535 0.0014570974 0.13500001 1.7372351e-38
0.02943055 0.001540667 0.13500001 1.7372352e-38
0.02282854 0.0023986499 0.13500001 1.7278732e-38
0.023045821 0.0025435043 0.13500001 1.727801e-38
0.024784071 0.0029780669 0.13500001 1.9025051e-38
0.0253997 0.0025435043 0.13500001 1.8569459e-38
0.0261964 0.0021089416 0.13500001 1.8389014e-38
0.02760873 0.0021813686 0.13500001 1.7648575e-38
0.02811572 0.0021813686 0.13500001 1.7462385e-38
0.029564261 0.0021089416 0.13500001 1.7459155e-38
0.03369261 0.0023262228 0.13500001 1.4797006e-38
0.022828538 0.0038471927 0.13500001 1.7923758e-38
0.023480384 0.0038471927 0.13500001 1.8295053e-38
0.024240868 0.0034669503 0.13500001 1.8108132e-38
0.022828538 0.0040644738 0.13500001 1.7643581e-38
0.023589024 0.0041187941 0.13500001 1.8202143e-38
0.028912418 0.0040644738 0.13500001 2.0223266e-38
0.029129699 0.0047163181 0.13500001 2.0505617e-38
0.029998826 0.0066718506 0.13500001 1.856554e-38
0.029998826 0.0072150538 0.13500001 1.9393868e-38
0.027826011 0.0088446643 0.13500001 2.1520141e-38
0.028423535 0.0088446643 0.13500001 2.1430104e-38
0.029520806 0.0087577524 0.13500001 1.9218125e-38
0.031230086 0.0085911704 0.13500001 1.8838541e-38
0.027826011 0.0091705862 0.13500001 2.0870813e-38
0.028379088 0.0092594754 0.13500001 2.1056644e-38
0.02934698 0.0090619456 0.13500001 1.9864936e-38
0.031737074 0.0090619456 0.13500001 1.8747421e-38
0.034127172 0.010582916 0.13500001 1.791298e-38
0.019134754 0.011669322 0.13500001 1.6074831e-38
0.028912418 0.011669322 0.13500001 1.9858459e-38
0.029564261 0.011234759 0.13500001 1.9300245e-38
0.033258047 0.0113434 0.13500001 1.7911546e-38
0.034127172 0.011017478 0.13500001 1.7820785e-38
0.027826011 0.012973011 0.13500001 1.9484645e-38
0.028206253 0.012755729 0.13500001 1.9385967e-38
0.029491834 0.012828156 0.13500001 1.9575037e-38
0.030433388 0.012429806 0.13500001 2.0590628e-38
0.019569319 0.013516214 0.13500001 1.5803284e-38
0.027826011 0.013407573 0.13500001 1.9207336e-38
0.028043292 0.013190292 0.13500001 1.9848029e-38
0.02934698 0.013298932 0.13500001 1.8927146e-38
0.01674466 0.014385339 0.13500001 1.3503791e-38
0.019569319 0.01449398 0.13500001 1.5340869e-38
0.027826011 0.014385339 0.13500001 1.8924986e-38
0.019569319 0.01542829 0.13500001 1.5890809e-38
0.020097001 0.015518306 0.13500001 1.6258511e-38
0.027826011 0.015471745 0.13500001 1.8002665e-38
0.019623639 0.016395191 0.13500001 1.6351065e-38
0.020547085 0.016377084 0.13500001 1.6808446e-38
0.021090288 0.016666794 0.13500001 1.6900276e-38
0.022828538 0.016666794 0.13500001 1.7363419e-38
0.023045821 0.016666794 0.13500001 1.7363419e-38
0.02760873 0.016449511 0.13500001 1.8002306e-38
0.019569319 0.017427279 0.13500001 1.634962e-38
0.020873005 0.017318638 0.13500001 1.7268343e-38
0.021491425 0.01750249 0.13500001 1.7084667e-38
0.022466401 0.017282424 0.13500001 1.6810238e-38
0.023480382 0.01731864 0.13500001 1.6900636e-38
0.024204655 0.017680774 0.13500001 1.6990312e-38
0.026956886 0.017535919 0.13500001 1.7453094e-38
0.027174167 0.017318638 0.13500001 1.7543848e-38
0.019569319 0.018513685 0.13500001 1.5704973e-38
0.021742132 0.018187763 0.13500001 1.7454529e-38
0.024349509 0.018513685 0.13500001 1.6074468e-38
0.026956886 0.018513685 0.13500001 1.6902073e-38
0.018917473 0.019708732 0.13500001 1.5157561e-38
0.019460678 0.019545771 0.13500001 1.5338351e-38
0.023914946 0.019708732 0.13500001 1.6353576e-38
0.024132228 0.01927417 0.13500001 1.6353936e-38
0.026956886 0.01938281 0.13500001 1.6256703e-38
0.017613785 0.020360576 0.13500001 1.4698022e-38
0.01848291 0.020143295 0.13500001 1.4974609e-38
0.019134754 0.020143295 0.13500001 1.5340873e-38
0.023914946 0.020143295 0.13500001 1.6537612e-38
0.024485311 0.020387735 0.13500001 1.6169909e-38
0.025001353 0.020360576 0.13500001 1.6078073e-38
0.015875533 0.021881547 0.13500001 1.3872939e-38
0.016679477 0.021685995 0.13500001 1.433104e-38
0.024349509 0.021338344 0.13500001 1.598588e-38
0.015875533 0.022316109 0.13500001 1.451651e-38
0.016551521 0.022485105 0.13500001 1.4974247e-38
0.018627765 0.027458435 0.13500001 1.893321e-38
-0.031274531 0.042088713 0.13500001 1.9737454e-38
-0.030296763 0.04491337 0.13500001 2.3142542e-38
-0.030188123 0.045130651 0.13500001 2.3050707e-38
-0.029427638 0.045619532 0.13500001 2.3142542e-38
-0.028558511 0.045782495 0.13500001 2.3142542e-38
-0.029536279 0.046380017 0.13500001 2.3050707e-38
-0.028558511 0.046217058 0.13500001 2.3234378e-38
-0.033881906 0.048389871 0.13500001 1.438902e-38
-0.033881906 0.049258996 0.13500001 1.4204269e-38
-0.02975356 0.049693558 0.13500001 1.7615157e-38
-0.033664625 0.050128121 0.13500001 1.3835484e-38
-0.031491812 0.050671324 0.13500001 1.5127301e-38
-0.030459724 0.050544571 0.13500001 1.5495725e-38
-0.029434884 0.050475772 0.13500001 1.3651817e-38
-0.033230063 0.051431816 0.13500001 1.3190114e-38
-0.032505792 0.051576663 0.13500001 1.3190114e-38
-0.030477835 0.051407669 0.13500001 1.3282673e-38
-0.033230063 0.052083656 0.13500001 1.328231e-38
-0.031600453 0.052083656 0.13500001 1.3190836e-38
-0.033230063 0.053170066 0.13500001 1.3466701e-38
-0.02193143 0.05382191 0.13500001 1.5495011e-38
-0.022148712 0.054256473 0.13500001 1.7246727e-38
-0.021442547 0.054256473 0.13500001 2.1118567e-38
-0.018020364 0.055342879 0.13500001 2.3050707e-38
0.045806073 -0.037429012 0.13600002 1.4392215e-38
0.045981184 -0.036400229 0.13600001 1.706043e-38
0.046637852 -0.036400232 0.13600002 1.4483329e-38
0.046783786 -0.03581652 0.13600001 1.5679685e-38
0.047648124 -0.035541501 0.13600002 1.365611e-38
0.047863644 -0.034473989 0.13600001 1.5863724e-38
0.048534911 -0.034430206 0.13600002 1.3931969e-38
0.048568074 -0.03353475 0.13600002 1.6139936e-38
0.049538165 -0.03349993 0.13600002 1.301218e-38
0.048753802 -0.032752048 0.13600001 1.7704712e-38
0.049538162 -0.03240547 0.13600002 1.5771871e-38
0.049775291 -0.031438701 0.13600002 1.7888358e-38
0.050504927 -0.031365737 0.13600002 1.5401649e-38
0.0510704 -0.031311013 0.13600001 1.3099681e-38
0.05057789 -0.030538818 0.13600002 1.7703973e-38
0.051424269 -0.030402619 0.13600002 1.5032145e-38
0.051609807 -0.029614609 0.13600002 1.7058609e-38
0.052508112 -0.029435517 0.13600002 1.4018363e-38
0.052669514 -0.028739044 0.13600002 1.5952995e-38
0.053542875 -0.028480358 0.13600002 1.3281529e-38
0.053773701 -0.027557036 0.13600001 1.5861512e-38
0.054167707 -0.027425703 0.13600001 1.475555e-38
0.054517929 -0.026659584 0.13600002 1.6413599e-38
0.055466454 -0.025601612 0.13600001 1.6781296e-38
0.060482703 -0.021296758 0.13600001 1.5305077e-38
0.031753276 -0.0066310707 0.13600001 1.6780943e-38
0.032191057 -0.0066310707 0.13600001 1.6688391e-38
0.031753276 -0.0054271715 0.13600001 1.5583121e-38
0.032519393 -0.0050988351 0.13600001 1.3187473e-38
0.023727275 -0.00021027254 0.13600001 1.584319e-38
0.024785249 -0.00072101783 0.13600002 1.5569841e-38
0.025551366 -0.00050212699 0.13600002 1.5936103e-38
0.026470708 -0.00053131243 0.13600002 1.5198169e-38
0.027375456 -0.00061157247 0.13600001 1.4368765e-38
0.02851369 -0.00041457065 0.13600001 1.4458076e-38
0.02923603 -6.434528e-05 0.13600001 1.5189886e-38
0.023216531 0.00051936368 0.13600001 1.5926753e-38
0.024967657 0.00070177275 0.13600001 1.8313755e-38
0.025551369 0.00051936368 0.13600002 1.8224796e-38
0.026249733 0.00056105718 0.13600002 1.7853851e-38
0.029345475 0.00015454557 0.13600001 1.5462154e-38
0.023479199 0.0016867816 0.13600001 1.710046e-38
0.024967657 0.0013219635 0.13600001 1.8394067e-38
0.025551369 0.0014678907 0.13600002 1.8578089e-38
0.026445171 0.0014314088 0.13600002 1.8483732e-38
0.027156565 0.0019056725 0.13600001 1.8202105e-38
0.029783256 0.001030109 0.13600001 1.7011122e-38
0.030221038 0.0015773361 0.13600001 1.6823133e-38
0.023610534 0.0024310104 0.13600001 1.7277653e-38
0.024858212 0.002562345 0.13600001 1.8750621e-38
0.025332475 0.0021975269 0.13600001 1.8479778e-38
0.026828229 0.0021245633 0.13600001 1.8111708e-38
0.028579358 0.0024528997 0.13600001 1.7551712e-38
0.02947681 0.0023434539 0.13600001 1.7459155e-38
0.030286705 0.0024528997 0.13600002 1.7366959e-38
0.03344968 0.0022887315 0.13600001 1.5071789e-38
0.02374812 0.003312828 0.13600002 1.7741145e-38
0.024165057 0.00307309 0.13600001 1.7644991e-38
0.02825102 0.0030001267 0.13600001 1.7826508e-38
0.029783256 0.0030001267 0.13600001 1.7641751e-38
0.030396152 0.0030439049 0.13600001 1.7640313e-38
0.031574186 0.0034180097 0.13600002 1.7822555e-38
0.029783256 0.0049701445 0.13600001 2.0411623e-38
0.030002147 0.0049701445 0.13600001 2.0317988e-38
0.031972166 0.0040945811 0.13600001 1.8279943e-38
0.032541282 0.0047512539 0.13600001 1.8188111e-38
0.03322297 0.0046261735 0.13600002 1.7915475e-38
0.030221039 0.0054808906 0.13600001 1.930419e-38
0.032628838 0.0051890356 0.13600001 1.8187397e-38
0.033066619 0.0051890356 0.13600001 1.8188829e-38
0.030585857 0.007669799 0.13600001 1.966542e-38
0.033553045 0.010491057 0.13600002 1.7820427e-38
0.034161076 0.010442416 0.13600001 1.8281763e-38
0.030002147 0.01131798 0.13600001 1.9294846e-38
0.03366857 0.011153812 0.13600001 1.7911546e-38
0.034161076 0.01131798 0.13600001 1.7912625e-38
0.028907694 0.012631325 0.13600001 1.9477082e-38
0.029564366 0.01252188 0.13600001 2.0220769e-38
0.030221039 0.012631324 0.13600001 2.040732e-38
0.028594989 0.013413078 0.13600002 1.9294137e-38
0.029345475 0.01356161 0.13600001 1.9201934e-38
0.030095961 0.013444348 0.13600002 1.9019338e-38
0.029564366 0.014163561 0.13600001 1.9289448e-38
0.030111592 0.014163561 0.13600001 1.8553678e-38
0.019933166 0.016680805 0.13600001 1.6625494e-38
0.020297986 0.016717287 0.13600001 1.6532578e-38
0.027813239 0.016680805 0.13600001 1.80945e-38
0.02803213 0.016498396 0.13600001 1.8002305e-38
0.019933166 0.017556369 0.13600001 1.6716246e-38
0.020453034 0.017638452 0.13600002 1.7084309e-38
0.022778749 0.01777526 0.13600002 1.6626566e-38
0.023581348 0.017884705 0.13600001 1.653329e-38
0.027667312 0.017629333 0.13600002 1.7543849e-38
0.02803213 0.017337479 0.13600001 1.7911551e-38
0.019933166 0.018650824 0.13600001 1.5888284e-38
0.020516878 0.018650824 0.13600002 1.5980478e-38
0.021481037 0.018697729 0.13600002 1.6441097e-38
0.022575492 0.018666459 0.13600002 1.6721637e-38
0.02358135 0.018650822 0.13600002 1.6261738e-38
0.024092093 0.018650824 0.13600001 1.6076628e-38
0.027375458 0.018431932 0.13600001 1.6902435e-38
0.019933166 0.019635832 0.13600001 1.5520943e-38
0.020516876 0.019635832 0.13600002 1.5612778e-38
0.021520127 0.019526387 0.13600002 1.5704611e-38
0.022122076 0.019416941 0.13600001 1.6165229e-38
0.023800239 0.019489905 0.13600001 1.6445772e-38
0.026937675 0.019854723 0.13600001 1.6257065e-38
0.017689535 0.020730287 0.13600001 1.4606185e-38
0.018663598 0.020598952 0.13600001 1.5157561e-38
0.019446742 0.020535717 0.13600002 1.5523825e-38
0.020370949 0.020292506 0.13600001 1.5706412e-38
0.023873203 0.020511396 0.13600001 1.6352141e-38
0.024092093 0.020620842 0.13600001 1.616775e-38
0.017525367 0.021386959 0.13600001 1.4423236e-38
0.02058984 0.021496404 0.13600001 1.5888642e-38
0.017087584 0.022700304 0.13600001 1.5065721e-38
0.02058984 0.022043632 0.13600001 1.570533e-38
0.016722767 0.023284012 0.13600001 1.5248313e-38
0.01861982 0.027515903 0.13600001 1.9210516e-38
-0.032162864 0.042181592 0.13600001 1.586379e-38
-0.031856418 0.04261937 0.13600001 1.8907331e-38
-0.031943973 0.043494936 0.13600001 2.1212205e-38
-0.031943973 0.044151608 0.13600001 2.1213998e-38
-0.030557664 0.045683846 0.13600001 2.3050707e-38
-0.029973956 0.045902736 0.13600001 2.3234378e-38
-0.030411739 0.046559408 0.13600001 2.2591529e-38
-0.029481452 0.046723578 0.13600001 2.3142542e-38
-0.028879503 0.046778299 0.13600001 2.3234378e-38
-0.030192846 0.04721608 0.13600001 2.2499694e-38
-0.029536175 0.04721608 0.13600001 2.3050707e-38
-0.034351774 0.048310533 0.13600001 1.3744373e-38
-0.033403248 0.048894245 0.13600001 1.5680478e-38
-0.029317284 0.048835874 0.13600001 2.0752668e-38
-0.033913992 0.049733326 0.13600001 1.4665247e-38
-0.031798046 0.049623881 0.13600001 1.669427e-38
-0.029344648 0.049651243 0.13600002 1.77088e-38
-0.028587649 0.049733326 0.13600002 1.5495016e-38
-0.033344876 0.050630778 0.13600001 1.4665244e-38
-0.032272309 0.050827779 0.13600001 1.5495005e-38
-0.03147883 0.050472084 0.13600002 1.6048179e-38
-0.030776555 0.050207589 0.13600001 1.6877944e-38
-0.029317284 0.050171107 0.13600001 1.5864155e-38
-0.033169765 0.051637679 0.13600001 1.3374505e-38
-0.021874994 0.054220583 0.13600001 1.6970141e-38
0.040476024 -0.045487892 0.13699999 1.4574083e-38
0.04058627 -0.044532392 0.13700001 1.6692042e-38
0.04068077 -0.043660887 0.13700001 1.8441931e-38
0.041578524 -0.043503392 0.13699999 1.558751e-38
0.041608591 -0.042581294 0.13699999 1.7981315e-38
0.042570774 -0.042547889 0.13700001 1.4207469e-38
0.041835774 -0.041886386 0.13700001 1.8809615e-38
0.04257077 -0.041574005 0.13699999 1.6968972e-38
0.043563027 -0.041574012 0.13699999 1.3379523e-38
0.042614873 -0.040769186 0.13700001 1.8718494e-38
0.043563027 -0.040636886 0.13699999 1.5864447e-38
0.043820277 -0.039901882 0.13700001 1.7060813e-38
0.044592023 -0.039497633 0.13699999 1.5311644e-38
0.044751272 -0.038701382 0.13700001 1.6968612e-38
0.04543728 -0.038431879 0.13700001 1.5035773e-38
0.044996276 -0.037990879 0.13700001 1.7889468e-38
0.04554753 -0.037660129 0.13700001 1.6784941e-38
0.04580478 -0.03681488 0.13700001 1.8165318e-38
0.030222751 -0.006018328 0.13700001 1.4293104e-38
0.031986754 -0.0062388284 0.13700001 1.7242284e-38
0.032593131 -0.0065144538 0.13700001 1.6688394e-38
0.033254631 -0.0066247038 0.13700001 1.3646308e-38
0.030112501 -0.0055773272 0.13700001 1.300272e-38
0.031986754 -0.0055773272 0.13700001 1.6228492e-38
0.032501254 -0.0054303273 0.13700001 1.5030309e-38
0.033486158 -0.0054450273 0.13700001 1.3647738e-38
0.02471024 -0.00017506859 0.13700001 1.7040654e-38
0.027686998 -0.00094681978 0.13700001 1.3264931e-38
0.028568998 -0.00079981954 0.13700001 1.3356402e-38
0.029487751 -0.00055481918 0.13700001 1.3997811e-38
0.030075751 -0.00035881888 0.13700001 1.445519e-38
0.023695938 0.00059668266 0.13700001 1.6385211e-38
0.02457794 0.0006407827 0.13700001 1.7487955e-38
0.029781751 0.00037618232 0.13700001 1.5917733e-38
0.030002251 0.00037618232 0.13700001 1.5825538e-38
0.023717988 0.0010376833 0.13700001 1.6929028e-38
0.024615739 0.0014786841 0.13700001 1.7931656e-38
0.026694745 0.0018094346 0.13700001 1.8389014e-38
0.030884253 0.0019196848 0.13700001 1.672878e-38
0.033199508 0.0016256842 0.13700001 1.489207e-38
0.02448974 0.0023291856 0.13700001 1.8105255e-38
0.02882625 0.0025076857 0.13700001 1.7459872e-38
0.02919375 0.0026546859 0.13700001 1.7642827e-38
0.030884253 0.0022504353 0.13700001 1.7369476e-38
0.031104753 0.0023606855 0.13700001 1.6910297e-38
0.033309758 0.0021401851 0.13700001 1.5438772e-38
0.02889975 0.0036836874 0.13700001 1.828211e-38
0.030663753 0.0035513875 0.13700001 1.8098781e-38
0.031104753 0.0036101872 0.13700001 1.8189539e-38
0.031913254 0.0044186884 0.13700001 1.8463259e-38
0.032207254 0.0047861892 0.13700001 1.8646214e-38
0.031325255 0.010519199 0.13700001 1.846976e-38
0.030222751 0.0111807 0.13700001 1.9295565e-38
0.02889975 0.012503702 0.13700001 1.9200132e-38
0.02934075 0.012338327 0.13700001 1.9666872e-38
0.030002251 0.012062701 0.13700001 1.9951737e-38
0.0287895 0.013826704 0.13700001 1.92005e-38
0.02882625 0.014341205 0.13700001 1.9381649e-38
0.02912025 0.014267704 0.13700001 1.9565322e-38
0.030443251 0.014377955 0.13700001 1.8645875e-38
0.028238248 0.015149706 0.13700001 1.8372169e-38
0.02867925 0.016693208 0.13700001 1.7818993e-38
0.020300234 0.01735471 0.13700001 1.708539e-38
0.02867925 0.01764871 0.13700001 1.7544925e-38
0.0292305 0.01779571 0.13700001 1.7362333e-38
0.027742121 0.018732836 0.13700001 1.681024e-38
0.028441787 0.018491132 0.13699999 1.7086467e-38
0.02934075 0.018126462 0.13700001 1.7179382e-38
0.022505237 0.019669963 0.13700001 1.6165229e-38
0.027576748 0.019515613 0.13700001 1.6257065e-38
0.028017748 0.019339213 0.13700001 1.6441816e-38
0.018315729 0.020882715 0.13700001 1.5065365e-38
0.019859232 0.020882715 0.13700001 1.5615658e-38
0.020667734 0.020735715 0.13700001 1.5980841e-38
0.021623233 0.020496838 0.13699999 1.5980479e-38
0.022064237 0.020221215 0.13700001 1.5888642e-38
0.023681238 0.020662215 0.13700001 1.6074834e-38
0.017543979 0.021874966 0.13700001 1.4698384e-38
0.018701605 0.021378841 0.13700001 1.5247957e-38
0.019587846 0.021578141 0.13699999 1.533907e-38
0.020493172 0.021461528 0.13700001 1.5889364e-38
0.021512985 0.021103216 0.13700001 1.6348181e-38
0.023717988 0.021103216 0.13700001 1.6168832e-38
0.02404874 0.021470716 0.13700001 1.6353943e-38
0.017488852 0.022481343 0.13700001 1.5065005e-38
0.019859232 0.022426218 0.13700001 1.579717e-38
0.020447234 0.022683466 0.13700001 1.5888646e-38
0.016661977 0.023969721 0.13700001 1.5248312e-38
0.017286727 0.023491969 0.13700001 1.533943e-38
0.020667734 0.023234719 0.13700001 1.5889004e-38
0.016661977 0.024410721 0.13700001 1.5982634e-38
-0.030855855 0.046681255 0.13700001 2.2683365e-38
-0.030591255 0.047739655 0.13700001 2.1948322e-38
-0.029349102 0.047710255 0.13700001 2.3142542e-38
-0.02865085 0.047673505 0.13700001 2.3234378e-38
-0.030414851 0.048445258 0.13699999 2.056792e-38
-0.029422604 0.048445258 0.13699999 2.2591529e-38
-0.028503848 0.048494264 0.13700001 2.203872e-38
-0.03383261 0.049400758 0.13700001 1.5495368e-38
-0.032575756 0.049547758 0.13700001 1.6602434e-38
-0.031572483 0.049933638 0.13700001 1.6878302e-38
-0.030495035 0.049587846 0.13699999 1.8261974e-38
-0.029091852 0.049217008 0.13700001 2.0753024e-38
-0.02843035 0.049547758 0.13699999 1.6878671e-38
-0.032399356 0.050576761 0.13700001 1.6232571e-38
-0.031572483 0.050319508 0.13700001 1.6601355e-38
-0.030635355 0.050209265 0.13700001 1.7524037e-38
-0.032840356 0.051091261 0.13700001 1.5402809e-38
-0.0085853161 0.053075764 0.13700001 2.2775197e-38
0.03999408 -0.047152579 0.13800001 1.4112017e-38
0.040216189 -0.047263633 0.13800001 1.3190802e-38
0.03977197 -0.046375193 0.13800001 1.6967527e-38
0.040216189 -0.046708357 0.13800001 1.4020912e-38
0.039883025 -0.045431226 0.13800001 1.853483e-38
0.040216189 -0.045153588 0.13800001 1.8165707e-38
0.03999408 -0.044931479 0.13800001 1.9273102e-38
0.040271718 -0.044431731 0.13800001 1.9824486e-38
0.040660411 -0.043450747 0.13800001 2.0653511e-38
0.04110463 -0.043154601 0.13800001 2.0100711e-38
0.041215684 -0.042710382 0.13800001 2.0376919e-38
0.030221246 -0.0062843673 0.13800001 1.3739932e-38
0.031998124 -0.0062843673 0.13800001 1.7333764e-38
0.032664455 -0.0061955238 0.13800001 1.7057533e-38
0.033653852 -0.0062843668 0.13800001 1.429239e-38
0.03277551 -0.0056180377 0.13800001 1.5767517e-38
0.033219729 -0.0056180377 0.13800001 1.5122147e-38
0.024446387 -6.5291533e-05 0.13800001 1.6854465e-38
0.030665467 -0.00017634645 0.13800001 1.4820735e-38
0.024390861 0.00026787323 0.13800001 1.6850506e-38
0.024446389 0.0015635141 0.13800001 1.7469961e-38
0.030776521 0.0014894775 0.13800001 1.6730938e-38
0.032886565 0.0012673676 0.13800001 1.535448e-38
0.024446387 0.0021558069 0.13800001 1.7645719e-38
0.029523188 0.0032663564 0.13800001 1.8099859e-38
0.030221246 0.0037105756 0.13800001 1.8465413e-38
0.029999137 0.004821125 0.13800001 2.0504538e-38
0.030221246 0.004821125 0.13800001 2.0412342e-38
0.031553905 0.0042658504 0.13800001 1.8924237e-38
0.030665467 0.0050432347 0.13800001 1.9488228e-38
0.030221246 0.0068201139 0.13800001 1.875137e-38
0.029554917 0.01215075 0.13800001 1.9580077e-38
0.030776521 0.013594464 0.13800001 1.9112614e-38
0.028740516 0.014742032 0.13800001 1.9014663e-38
0.02948088 0.014667995 0.13800001 1.9289448e-38
0.030665467 0.014593958 0.13800001 1.8645155e-38
0.033997115 0.014816068 0.13800001 1.7364849e-38
0.034552388 0.014621723 0.13800001 1.7182975e-38
0.035163194 0.014649486 0.13800001 1.7000745e-38
0.028761668 0.015545858 0.13800001 1.8186696e-38
0.033997115 0.015371343 0.13800001 1.6812392e-38
0.034515366 0.015482398 0.13800001 1.662908e-38
0.035181701 0.015334324 0.13800001 1.6539763e-38
0.028666478 0.016370837 0.13800001 1.7818993e-38
0.029643759 0.017747918 0.13800001 1.7271217e-38
0.029721498 0.018591935 0.13800001 1.6904952e-38
0.022891618 0.019813539 0.13800001 1.634962e-38
0.023409875 0.019850558 0.13800001 1.6351058e-38
0.027778037 0.019924594 0.13800001 1.6165229e-38
0.028629459 0.019406339 0.13800001 1.6626566e-38
0.029110696 0.019036155 0.13800001 1.6903873e-38
0.022521436 0.02066496 0.13800001 1.6165948e-38
0.023409875 0.020516887 0.13800001 1.6257784e-38
0.018199548 0.021673711 0.13800001 1.4881333e-38
0.02067052 0.021812528 0.13800001 1.5980838e-38
0.021447904 0.021812528 0.13800001 1.6347458e-38
0.022558456 0.021479361 0.13800001 1.6626565e-38
0.023508592 0.021578079 0.13800001 1.6628728e-38
0.018338367 0.022515872 0.13800001 1.5339074e-38
0.019310098 0.022562148 0.13800001 1.5613499e-38
0.02067052 0.022589913 0.13800001 1.5704974e-38
0.021447904 0.022515876 0.13800001 1.6071952e-38
0.022373363 0.02240482 0.13800001 1.6347817e-38
0.017560981 0.023922572 0.13800001 1.5247229e-38
0.018227313 0.023322873 0.13800001 1.5614578e-38
0.019448917 0.023034133 0.13800001 1.5980843e-38
0.020448409 0.023626424 0.13800001 1.6073755e-38
0.021425692 0.023448739 0.13800001 1.6073034e-38
0.022225289 0.023034133 0.13800001 1.6531494e-38
0.017370602 0.024525443 0.13800001 1.5982274e-38
0.018005202 0.024440831 0.13800001 1.6164866e-38
0.02067052 0.024144681 0.13800001 1.6441813e-38
0.021225795 0.024440827 0.13800001 1.6440734e-38
0.016894652 0.025421815 0.13800001 1.7453439e-38
0.017294448 0.025366282 0.13800001 1.7269407e-38
0.021114741 0.025255231 0.13800001 1.6532567e-38
0.017116763 0.02614367 0.13800001 1.8098798e-38
-0.031969517 0.045911446 0.13800001 2.2040518e-38
-0.03219163 0.04624461 0.13800001 2.0753384e-38
-0.031880673 0.046488933 0.13800001 2.1580623e-38
-0.034856949 0.047910433 0.13800001 1.346743e-38
-0.033080067 0.047244105 0.13800001 1.7247816e-38
-0.03241374 0.047342818 0.13800001 1.8262693e-38
-0.031858463 0.047410686 0.13800001 1.9645976e-38
-0.034856949 0.048132546 0.13800001 1.3559625e-38
-0.031451263 0.048354656 0.13800001 1.9094246e-38
-0.034301672 0.049243093 0.13800001 1.5127304e-38
-0.033191122 0.049354151 0.13800001 1.6602434e-38
-0.03241374 0.049642894 0.13800001 1.6970859e-38
-0.031646449 0.049445011 0.13800001 1.7800631e-38
-0.028193651 0.049465206 0.13800001 1.7339646e-38
-0.027971542 0.049909424 0.13800001 1.4020959e-38
-0.034190618 0.050575752 0.13800001 1.503403e-38
-0.033468761 0.050242588 0.13800001 1.6141096e-38
-0.031525299 0.050131533 0.13800001 1.7338566e-38
-0.033302177 0.051205069 0.13800001 1.5679396e-38
-0.0085739465 0.05324107 0.13800001 2.2223107e-38
-0.021752466 0.054795839 0.13800001 1.7799901e-38
-0.022418795 0.055240061 0.13800001 1.6970864e-38
-0.02186352 0.055240061 0.13800001 2.1211484e-38
0.016012859 -6.6237793e-05 0.14 1.8003384e-38
0.015787529 0.00015909104 0.14 1.8370368e-38
0.030884564 0.00015909104 0.14 1.5461068e-38
0.015787529 0.0018490572 0.14 1.8556925e-38
0.016425962 0.0015110642 0.14 1.8097021e-38
0.017139502 0.0012857352 0.14 1.7729312e-38
0.032901153 0.0017239901 0.13900001 1.5439848e-38
0.034489825 0.0019617216 0.14 1.4432536e-38
0.015787529 0.0024123793 0.14 1.8464363e-38
0.016012859 0.0025625986 0.14 1.8188135e-38
0.031560551 0.0026377081 0.14 1.7642467e-38
0.015898481 0.0035137446 0.13900001 1.809414e-38
0.0161222 0.0031781658 0.13900001 1.80945e-38
0.029880943 0.0038493234 0.13900001 1.8466139e-38
0.0305521 0.0039611831 0.13900001 1.8648727e-38
0.03066344 0.0043771579 0.13916667 1.8928203e-38
0.031484265 0.004483195 0.13900001 1.8740206e-38
0.058600012 0.0048909965 0.14 1.8071296e-38
0.059340384 0.0046978579 0.14 1.7794704e-38
0.031785879 0.0051163253 0.14 1.874057e-38
0.058524903 0.0051914346 0.14 1.8254606e-38
0.05934038 0.0052128946 0.14 1.825496e-38
0.06680198 0.00741468 0.14 1.6227726e-38
0.067162514 0.0075949426 0.14 1.659722e-38
0.014435556 0.0082709286 0.14 1.7817548e-38
0.066847041 0.0082258629 0.14 1.8255299e-38
0.067500509 0.0082427626 0.14 1.7702127e-38
0.068702258 0.0084587028 0.14 1.6595781e-38
0.069528461 0.0085244235 0.14 1.429055e-38
0.014435556 0.009172244 0.14 1.7633519e-38
0.068785526 0.0094003053 0.13957143 1.871519e-38
0.069483109 0.0092737218 0.13983333 1.7978708e-38
0.03088768 0.010672764 0.13900001 1.9389558e-38
0.03066396 0.011120202 0.13900001 1.9296288e-38
0.029545363 0.012462518 0.13900001 1.993806e-38
0.029769083 0.014923431 0.13900001 1.9289089e-38
0.031335223 0.014354807 0.14 1.8372164e-38
0.032677434 0.014923431 0.13900001 1.7823306e-38
0.029728614 0.015632255 0.13933334 1.8370008e-38
0.030433906 0.015030794 0.14 1.9012501e-38
0.031604953 0.015819218 0.1398 1.8190293e-38
0.032344513 0.015468067 0.139375 1.7731832e-38
0.03401975 0.015818309 0.13900001 1.672128e-38
0.028874205 0.016825046 0.13900001 1.7911188e-38
0.029630207 0.016522104 0.13975 1.7726438e-38
0.030682554 0.016651323 0.1398 1.7819351e-38
0.031435512 0.016642768 0.13966666 1.7728955e-38
0.029799679 0.017337831 0.13914286 1.7545284e-38
0.030634901 0.017620338 0.1398889 1.7086467e-38
0.031523246 0.017563945 0.13983333 1.699463e-38
0.032011207 0.01728408 0.14 1.7362332e-38
0.030440241 0.018279221 0.13900001 1.681204e-38
0.029627198 0.019720513 0.1397 1.653617e-38
0.030433906 0.019875363 0.14 1.6353576e-38
0.023132073 0.020441841 0.13900001 1.6165229e-38
0.027475957 0.020684205 0.13900001 1.5981918e-38
0.028522614 0.020545006 0.1398 1.5982276e-38
0.029614531 0.020479655 0.14 1.5892239e-38
0.030433906 0.020213356 0.14 1.6261381e-38
0.027488705 0.021477308 0.13942857 1.5524179e-38
0.028518612 0.021415113 0.14 1.5524536e-38
0.029532591 0.021415111 0.14 1.5524537e-38
0.022610061 0.022977328 0.13900001 1.6531488e-38
0.023325965 0.022395656 0.13900001 1.6440736e-38
0.027504632 0.02242158 0.14 1.525011e-38
0.02851861 0.022410315 0.14 1.5251548e-38
0.029397395 0.022196252 0.14 1.5250829e-38
0.018806832 0.023648486 0.13900001 1.5981921e-38
0.01942206 0.023648484 0.13900001 1.6073398e-38
0.020149149 0.023872204 0.13900001 1.6165952e-38
0.022547133 0.023511393 0.13922222 1.6440377e-38
0.02772996 0.023142632 0.14 1.4974958e-38
0.028293282 0.023142632 0.14 1.5067153e-38
0.018588772 0.024475645 0.13925001 1.5980835e-38
0.019543013 0.024494605 0.14 1.6164868e-38
0.020274732 0.024427045 0.13942857 1.6257422e-38
0.021938903 0.024095925 0.13900001 1.6350699e-38
0.027689457 0.024749199 0.139375 1.4790931e-38
0.028571714 0.024539711 0.13990909 1.4607619e-38
0.029419927 0.024494603 0.14 1.4516501e-38
0.030884564 0.024269275 0.14 1.479165e-38
0.017800095 0.025606031 0.13900001 1.7360526e-38
0.018538501 0.025454367 0.13950001 1.7083581e-38
0.019543013 0.025395921 0.14 1.6624763e-38
0.020369215 0.025395919 0.14 1.6624764e-38
0.021298992 0.025519263 0.1392 1.6624404e-38
0.027576108 0.025376281 0.13971429 1.4606898e-38
0.028523413 0.025350571 0.13975 1.4699454e-38
0.029382372 0.025245702 0.14 1.4792008e-38
0.017650949 0.026407689 0.13900001 1.7914764e-38
0.018580066 0.026376992 0.13957144 1.7635308e-38
0.019492937 0.026322272 0.14 1.7175413e-38
0.020474371 0.026207104 0.14 1.6716955e-38
0.021195421 0.026297236 0.14 1.6625842e-38
0.02772996 0.026071906 0.14 1.4607259e-38
0.017688235 0.027116133 0.13900001 1.8749183e-38
0.018524725 0.027370153 0.13946155 1.8469362e-38
0.019167462 0.027311215 0.14 1.8004799e-38
0.020744763 0.027198551 0.14 1.7083217e-38
0.018716805 0.028325194 0.14 1.9579298e-38
-0.03355949 0.043647554 0.14 1.5033308e-38
-0.033319779 0.045349259 0.13900001 1.8540357e-38
-0.034607787 0.046674818 0.13942857 1.475853e-38
-0.033446826 0.046802159 0.14 1.8538926e-38
-0.032872342 0.046691574 0.13900001 1.8725467e-38
-0.034586657 0.047354817 0.13921431 1.512731e-38
-0.033682402 0.047371365 0.13907695 1.6970865e-38
-0.032760479 0.047139015 0.13900001 1.8540003e-38
-0.035109535 0.048705049 0.13900001 1.3744017e-38
-0.034666464 0.048462808 0.13918184 1.5035113e-38
-0.033680767 0.048528712 0.13920002 1.6602438e-38
-0.032872342 0.048257612 0.13900001 1.7617322e-38
-0.035109535 0.049152486 0.13900001 1.3744373e-38
-0.034662094 0.049264345 0.13900001 1.4942914e-38
-0.033671051 0.049464703 0.13936365 1.651024e-38
-0.032432847 0.049280778 0.14 1.8169774e-38
-0.028602254 0.049844097 0.14 1.936651e-38
-0.027587393 0.049626548 0.1392 1.5494292e-38
-0.03381196 0.050808012 0.13900001 1.6048181e-38
-0.034550235 0.051389679 0.13900001 1.4296465e-38
-0.033990938 0.051389679 0.13900001 1.5402812e-38
-0.0087733166 0.052886035 0.14 2.1120724e-38
-0.0086400313 0.053358313 0.13966666 2.1118568e-38
-0.009674632 0.054012679 0.14 2.295887e-38
0.016354173 -6.671092e-05 0.141 1.8095579e-38
0.016505467 0.00065192714 0.14100002 1.8095219e-38
0.030878229 0.00084104238 0.141 1.6554106e-38
0.031332105 0.00053845794 0.141 1.5914133e-38
0.01680805 0.0010679807 0.141 1.7911908e-38
0.031332105 0.0010679807 0.141 1.6642339e-38
0.032920673 0.0019757338 0.141 1.5899026e-38
0.032920673 0.0024296106 0.141 1.6267087e-38
0.056673553 0.0036399483 0.141 1.8163863e-38
0.031407755 0.0047746398 0.141 1.8929288e-38
0.058337767 0.0046989936 0.14100002 1.825497e-38
0.059290908 0.0042905048 0.141 1.7518477e-38
0.060524628 0.0045133173 0.14100002 1.6596518e-38
0.061492212 0.0044947485 0.14100002 1.4107261e-38
0.031559046 0.0051528704 0.141 1.9667574e-38
0.058224298 0.0051528704 0.141 1.8254607e-38
0.060524628 0.0054829624 0.14100002 1.82546e-38
0.061469518 0.0052436455 0.141 1.7517392e-38
0.062604211 0.005198258 0.141 1.5673844e-38
0.06342119 0.0055159717 0.141 1.4844456e-38
0.030651292 0.0069683772 0.141 1.8935762e-38
0.06060715 0.0060606236 0.141 1.8438629e-38
0.063708641 0.0063632079 0.14100002 1.7609578e-38
0.064011224 0.0065901466 0.141 1.7609577e-38
0.063784286 0.0073087849 0.141 1.8347139e-38
0.06438946 0.0073087849 0.14100002 1.8254944e-38
0.066734485 0.007422254 0.141 1.6964922e-38
0.06684795 0.0084434757 0.141 1.8715196e-38
0.067566596 0.0087838834 0.141 1.8715913e-38
0.068512172 0.0085569462 0.14100002 1.770177e-38
0.069003873 0.0082165375 0.141 1.558128e-38
0.068625636 0.0093134074 0.141 1.8807746e-38
0.070668086 0.0094646988 0.141 1.7425176e-38
0.07115978 0.0093512293 0.141 1.6410672e-38
0.030878229 0.011280205 0.141 1.893254e-38
0.030605903 0.015682807 0.141 1.8553679e-38
0.031559043 0.015705504 0.141 1.8555836e-38
0.030651292 0.016045909 0.141 1.8278171e-38
0.030424353 0.019336514 0.141 1.6812396e-38
0.030537821 0.020811616 0.141 1.607735e-38
0.030242804 0.021356266 0.141 1.5617092e-38
0.026566401 0.022627121 0.141 1.5710009e-38
0.027020277 0.022627121 0.141 1.5342305e-38
0.029743537 0.022627121 0.141 1.543558e-38
0.030197417 0.022400184 0.141 1.5158274e-38
0.026360095 0.023452349 0.14100002 1.5982994e-38
0.027334502 0.023482503 0.14100002 1.5249747e-38
0.028381908 0.023648344 0.14100002 1.5066798e-38
0.029425828 0.023444097 0.14100002 1.515935e-38
0.030197416 0.023421403 0.141 1.5343742e-38
0.031407755 0.023610523 0.141 1.4974962e-38
0.026566401 0.024329159 0.141 1.5982636e-38
0.027371 0.024421996 0.14100002 1.5341224e-38
0.028325174 0.024272423 0.141 1.4882765e-38
0.029403131 0.024215689 0.141 1.479165e-38
0.030197416 0.024329159 0.141 1.4699814e-38
0.031332105 0.024442628 0.141 1.4699095e-38
0.021800695 0.025804257 0.141 1.6532567e-38
0.022027632 0.025804257 0.141 1.6440371e-38
0.027020277 0.025123443 0.141 1.5157191e-38
0.019701514 0.026882213 0.141 1.763459e-38
0.020575229 0.02671201 0.141 1.6716955e-38
0.021703435 0.026647169 0.14100002 1.644145e-38
0.022027632 0.026598539 0.141 1.6349615e-38
0.027701093 0.026371602 0.141 1.4515063e-38
0.019682603 0.027544117 0.14100002 1.7820409e-38
0.020439064 0.027392825 0.141 1.7542753e-38
0.022254571 0.027392825 0.141 1.6258501e-38
0.018850496 0.028981393 0.141 2.0039197e-38
-0.034674536 0.045385789 0.14100002 1.4113515e-38
-0.034706954 0.04679605 0.141 1.5680844e-38
-0.033685729 0.046909519 0.141 1.8540003e-38
-0.034820423 0.047136459 0.141 1.5496452e-38
-0.033118386 0.050086655 0.141 1.7340002e-38
-0.028579617 0.050086655 0.141 1.9182114e-38
-0.0090629216 0.053036854 0.141 2.1305468e-38
-0.0083821062 0.0536042 0.141 2.019878e-38
-0.009516798 0.054171547 0.141 2.249969e-38
0.047095574 -0.00052427966 0.142 1.853266e-38
0.032011416 0.00016136377 0.142 1.5367791e-38
0.050904706 0.00046609421 0.142 1.8347544e-38
0.051666528 0.00054227677 0.142 1.7609979e-38
0.052504536 0.00054227677 0.142 1.5397645e-38
0.031554319 0.0015326506 0.142 1.6822414e-38
0.032354236 0.0017611984 0.142 1.6268882e-38
0.052504539 0.001075555 0.142 1.797912e-38
0.053266369 0.0014818622 0.142 1.7794726e-38
0.054809064 0.0013612398 0.142 1.3922517e-38
0.055399481 0.0015897875 0.14199999 1.3369709e-38
0.032697059 0.0024468419 0.142 1.6634789e-38
0.055399477 0.0024468417 0.142 1.7886556e-38
0.056397468 0.0026068254 0.14199999 1.733338e-38
0.057265952 0.0027896636 0.142 1.6596175e-38
0.058294419 0.0029039374 0.142 1.4660075e-38
0.056400739 0.0032957334 0.142 1.8347177e-38
0.057412881 0.0033283832 0.142 1.7610327e-38
0.058408696 0.0034981617 0.14199999 1.696495e-38
0.059380017 0.0037038545 0.142 1.6319937e-38
0.060465623 0.0038181287 0.142 1.4383844e-38
0.056923132 0.0040466767 0.142 1.834753e-38
0.057380229 0.0041609504 0.142 1.8255333e-38
0.058465827 0.0041609504 0.142 1.7978743e-38
0.059437156 0.0040466767 0.142 1.7334084e-38
0.060465623 0.0040466767 0.142 1.5490895e-38
0.061265539 0.0040466767 0.142 1.3277503e-38
0.061608359 0.0058750589 0.142 1.8346433e-38
0.062522553 0.0054179635 0.142 1.7148966e-38
0.06332247 0.0058750589 0.142 1.7609943e-38
0.063551016 0.0062750177 0.142 1.7886528e-38
0.064693756 0.0065607023 0.142 1.7517376e-38
0.063779563 0.0072463467 0.142 1.8347139e-38
0.064556628 0.0075663128 0.142 1.8254942e-38
0.065379396 0.0077034417 0.142 1.8347496e-38
0.066659272 0.0074748942 0.142 1.7610292e-38
0.064739466 0.0082519557 0.142 1.8255298e-38
0.06515085 0.0083890855 0.142 1.8347134e-38
0.066864967 0.0083890855 0.142 1.8807033e-38
0.067779154 0.0093032764 0.142 1.8900302e-38
0.068236247 0.0093032764 0.142 1.8900663e-38
0.071321644 0.0097603723 0.142 1.7886511e-38
0.071321644 0.010217467 0.142 1.8715546e-38
0.031097224 0.015931163 0.142 1.8553678e-38
0.032239962 0.01524552 0.142 1.8189211e-38
0.031554319 0.018216642 0.142 1.6811322e-38
0.032011416 0.018216642 0.142 1.6903517e-38
0.030640129 0.020045023 0.142 1.6536889e-38
0.031097224 0.020045023 0.142 1.6261381e-38
0.030640129 0.021530584 0.142 1.561709e-38
0.025794914 0.02452456 0.142 1.634926e-38
0.026265068 0.024648631 0.142 1.6165948e-38
0.030411581 0.024158884 0.142 1.4974962e-38
0.021841034 0.025530171 0.142 1.6531851e-38
0.022640953 0.025987267 0.142 1.644145e-38
0.025840623 0.025415897 0.142 1.5524896e-38
0.026697678 0.025558738 0.142 1.4973521e-38
0.027211912 0.025987267 0.142 1.4698375e-38
0.022412404 0.026672909 0.142 1.6349615e-38
0.027326185 0.026558638 0.142 1.4607257e-38
0.021955309 0.027587101 0.142 1.644181e-38
0.022412404 0.027130006 0.142 1.6349618e-38
0.018755639 0.028958388 0.142 2.0131396e-38
-0.035257835 0.046556566 0.142 1.3837287e-38
-0.034267459 0.046785116 0.142 1.8169775e-38
-0.034267459 0.047089849 0.142 1.7802077e-38
-0.0087272385 0.052898772 0.142 1.595562e-38
-0.0095842928 0.053755827 0.142 2.15799e-38
-0.0084701218 0.053555846 0.142 2.0383886e-38
-0.0095842928 0.054327194 0.142 2.1947237e-38
-0.0085558277 0.054555744 0.142 2.1117489e-38
0.045355815 -0.0023692299 0.14300001 1.4017228e-38
0.046391528 -0.0023692301 0.14300001 1.3093839e-38
0.045509253 -0.0016020392 0.14300001 1.6873855e-38
0.046401989 -0.0014695246 0.14300001 1.7703621e-38
0.04742723 -0.001448601 0.14300001 1.7242277e-38
0.048462942 -0.0014486009 0.14300001 1.4844476e-38
0.032236848 -6.7657173e-05 0.14300001 1.5094801e-38
0.046736762 -0.00098828645 0.14300001 1.8532304e-38
0.047519293 -0.00075812911 0.14300001 1.8440466e-38
0.048495818 -0.00052797177 0.14300001 1.8163875e-38
0.049613729 -0.00047043248 0.14300001 1.7241914e-38
0.050649434 -0.00047043248 0.14300001 1.456717e-38
0.032006692 0.00085297204 0.14300001 1.6093128e-38
0.049690444 0.00031593835 0.14300001 1.8715969e-38
0.050572712 0.00043101699 0.14300001 1.8623771e-38
0.032236848 0.0010831293 0.14300001 1.6089168e-38
0.053871635 0.0017736012 0.14300001 1.8163509e-38
0.054562107 0.0014859044 0.14300001 1.678057e-38
0.032927319 0.0029243878 0.14300001 1.7367322e-38
0.053641476 0.0020037584 0.14300001 1.8532291e-38
0.054792263 0.0020037584 0.14300001 1.7886919e-38
0.055285458 0.0026613509 0.14300001 1.8347536e-38
0.056173209 0.0029243878 0.14300001 1.8531924e-38
0.05810653 0.0026942305 0.14300001 1.4568601e-38
0.055827972 0.0031545451 0.14300001 1.862412e-38
0.058935095 0.0031545451 0.14300001 1.5858966e-38
0.059165254 0.0031545451 0.14300001 1.4844819e-38
0.062847771 0.0054561179 0.14300001 1.7425551e-38
0.063308083 0.0059164325 0.14300001 1.7794331e-38
0.063538246 0.006376747 0.14300001 1.825459e-38
0.063814439 0.0074815028 0.14300001 1.8254588e-38
0.065782279 0.0072398372 0.14300001 1.8070549e-38
0.06636589 0.0074288952 0.14300001 1.7886877e-38
0.063998558 0.0082180062 0.14300001 1.8162392e-38
0.064458869 0.0082180062 0.14300001 1.8254944e-38
0.06583982 0.008448164 0.14300001 1.8439329e-38
0.066551208 0.0084690861 0.14300001 1.862336e-38
0.066683732 0.0092153549 0.14300001 1.8439328e-38
0.0673742 0.0092920735 0.14300001 1.8715192e-38
0.068448268 0.0095989499 0.14300001 1.8808468e-38
0.069062017 0.0095989499 0.14300001 1.8808468e-38
0.031546377 0.013511624 0.14300001 1.9853424e-38
0.032236848 0.013511624 0.14300001 2.0314044e-38
0.031546377 0.015813196 0.14300001 1.8553678e-38
0.032236848 0.016733827 0.14300001 1.828141e-38
0.03039559 0.022717915 0.14300001 1.5158993e-38
0.023490869 0.023408389 0.14300001 1.6531488e-38
0.025792442 0.023868702 0.14300001 1.6809157e-38
0.030855905 0.023868702 0.14300001 1.5343745e-38
0.030855903 0.024559176 0.14300001 1.479165e-38
0.0224168 0.025479803 0.14300001 1.6441094e-38
0.024871813 0.025479803 0.14300001 1.5985154e-38
0.025504746 0.025537344 0.14300001 1.5524537e-38
0.026329478 0.0258634 0.14300001 1.4974243e-38
0.026559634 0.026400432 0.14300001 1.4699456e-38
0.027173387 0.026860746 0.14300001 1.469981e-38
0.02164961 0.027781375 0.14300001 1.680951e-38
0.019578194 0.02824169 0.14300001 1.8283896e-38
-0.035199251 0.046654273 0.14300001 1.5127307e-38
-0.035199251 0.047229666 0.14300001 1.5587929e-38
-0.034969091 0.047229666 0.14300001 1.6233299e-38
-0.034278624 0.05039433 0.14300001 1.6879024e-38
-0.0097668665 0.053674076 0.14300001 2.1580976e-38
-0.008155765 0.053674076 0.14300001 1.8262674e-38
-0.010112102 0.05401931 0.14300001 2.231602e-38
-0.0081174048 0.054594707 0.14300001 1.9828921e-38
-0.009191473 0.055400256 0.14300001 2.295887e-38
-0.0084242821 0.055668771 0.14300001 2.2590809e-38
-0.0076954504 0.059082773 0.14300001 2.3050707e-38
-0.0069380808 -0.031588413 0.14400001 1.3554819e-38
0.044977691 -0.0022699148 0.14400001 1.3739565e-38
0.045209456 -0.0016904979 0.14400001 1.5674946e-38
0.032230515 0.0003954033 0.14400001 1.5640062e-38
0.054711897 0.0017860041 0.14400001 1.7979115e-38
0.062823735 0.0059578065 0.14400001 1.8254593e-38
0.063287266 0.0059578065 0.14400001 1.8162395e-38
0.03107168 0.0064213397 0.14400001 1.8660604e-38
0.063472681 0.0064676935 0.14400001 1.8346786e-38
0.06575945 0.0064985957 0.14400001 1.6964202e-38
0.06606847 0.0066531072 0.14400001 1.7241145e-38
0.063750803 0.0074642906 0.14400001 1.825459e-38
0.068154372 0.009666075 0.14400001 1.8624076e-38
0.031303447 0.01152021 0.14400001 1.9577909e-38
0.031535212 0.015692012 0.14400001 1.8736992e-38
0.033157583 0.016155547 0.14400001 1.7732192e-38
0.03107168 0.020095581 0.14400001 1.6720201e-38
0.030839913 0.023340316 0.14400001 1.5343745e-38
0.03107168 0.023803851 0.14400001 1.5436296e-38
0.025509275 0.02449915 0.14400001 1.6808078e-38
0.02295984 0.025889751 0.14400001 1.6534009e-38
0.024813974 0.025889751 0.14400001 1.5893681e-38
0.02295984 0.026469167 0.14400001 1.6441812e-38
0.023423374 0.0262374 0.14400001 1.6441452e-38
0.024427695 0.02627603 0.14400001 1.5984434e-38
0.025586531 0.02643054 0.14400001 1.4975319e-38
0.026204575 0.026816819 0.14400001 1.4607977e-38
0.025741041 0.027280351 0.14400001 1.4426097e-38
0.026552226 0.027048584 0.14400001 1.4516498e-38
-0.0076333815 0.054165296 0.14400001 1.6783946e-38
-0.015049919 0.055440012 0.14400001 2.3050707e-38
-0.014725447 0.055602245 0.14400001 2.3050707e-38
-0.011573417 0.055555899 0.14400001 2.3050707e-38
-0.0080969147 0.055671781 0.14400001 2.1211481e-38
-0.015107861 0.056540903 0.14400001 2.3050707e-38
-0.014818153 0.05648296 0.14400001 2.3050707e-38
-0.0091784932 0.056482967 0.14400001 2.3050707e-38
-0.0083286818 0.056598846 0.14400001 2.3050707e-38
-0.0076333815 0.05659885 0.14400001 2.295887e-38
-0.014586386 0.057178266 0.14400001 2.3050707e-38
-0.0083076125 0.057536449 0.14400002 2.3050707e-38
-0.0074016149 0.057525914 0.14400002 2.3050707e-38
-0.0067526675 0.057688154 0.14400001 2.295887e-38
-0.0082514258 0.058491606 0.14400001 2.3050707e-38
-0.0074016144 0.058568869 0.14400001 2.3050707e-38
-0.0065518031 0.058568861 0.14400001 2.3050707e-38
-0.0090239821 0.059495941 0.14400001 2.3234378e-38
-0.0083866231 0.059264168 0.14400001 2.3142542e-38
-0.0073552616 0.059217818 0.14400001 2.3050707e-38
-0.0064166058 0.059264168 0.14400001 2.295887e-38
-0.0057792468 0.059495941 0.14400001 2.295887e-38
0.045873471 -0.001352173 0.14500001 1.6781296e-38
0.046534706 -0.0010021086 0.14500001 1.7979127e-38
0.03222096 -0.000535356 0.14500001 1.4271876e-38
0.031987581 0.00063152547 0.14500001 1.6188922e-38
0.032687712 0.0029652882 0.14500001 1.7549911e-38
0.05474177 0.0020317831 0.14500001 1.83479e-38
0.055091836 0.0028486 0.14500001 1.8531568e-38
0.062793255 0.0064659324 0.14500001 1.8346431e-38
0.063318357 0.006524276 0.14500001 1.8254593e-38
0.031520829 0.0073410934 0.14500001 1.8935045e-38
0.062793255 0.0072827493 0.14500001 1.7885806e-38
0.063522555 0.0073702657 0.145 1.8162395e-38
0.031520829 0.0080995662 0.14500001 1.9118363e-38
0.032687712 0.013933974 0.14500001 2.0128932e-38
0.03163752 0.015800985 0.14500001 1.8828826e-38
0.032921087 0.016501114 0.14500001 1.7916583e-38
0.031579174 0.019301629 0.14500001 1.6812399e-38
0.031520829 0.020235134 0.14500001 1.6445772e-38
0.031520829 0.023969155 0.14500001 1.5436296e-38
0.02521967 0.024902659 0.14500001 1.6532573e-38
0.022885907 0.025836164 0.14500001 1.6625844e-38
0.02451954 0.025836164 0.14500001 1.6352497e-38
0.022652531 0.026069541 0.14500001 1.653257e-38
0.024452861 0.026369596 0.145 1.5984432e-38
0.025336359 0.026769668 0.14500001 1.5343021e-38
0.025608629 0.027236419 0.14500001 1.4792722e-38
0.022185778 0.028403303 0.14500001 1.6626197e-38
-0.007686391 0.054774821 0.14500001 1.7985011e-38
-0.013520799 0.055941705 0.14500001 2.3050707e-38
-0.012120541 0.055941705 0.14500001 2.3050707e-38
-0.011187036 0.055941705 0.14500001 2.3050707e-38
-0.010836971 0.055591639 0.14500001 2.295887e-38
-0.007686391 0.05553329 0.145 1.9183559e-38
-0.0069084694 0.055863913 0.14500001 1.789103e-38
-0.014687681 0.056758523 0.14500001 2.3050707e-38
-0.013676383 0.056797419 0.14500001 2.3050707e-38
-0.010253529 0.056781858 0.14500001 2.3050707e-38
-0.0096700899 0.05687521 0.14500001 2.3050707e-38
-0.0076530511 0.056575153 0.145 2.2406776e-38
-0.0067269546 0.056693692 0.145 2.0011872e-38
-0.016087938 0.057575338 0.14500001 2.3050707e-38
-0.015341133 0.057668693 0.14500001 2.3050707e-38
-0.014454304 0.057542 0.145 2.3050707e-38
-0.013987551 0.057497546 0.14500001 2.3050707e-38
-0.0093200253 0.057341963 0.14500001 2.3050707e-38
-0.0088532725 0.057808716 0.14500001 2.3050707e-38
-0.0074530146 0.057108585 0.14500001 2.295887e-38
-0.0066361963 0.057435315 0.145 2.2222389e-38
-0.014454304 0.05804209 0.14500001 2.3050707e-38
0.045559831 -0.001607419 0.147 1.4752636e-38
0.047334291 -6.9549678e-05 0.147 1.7517783e-38
0.032678157 0.00040089499 0.14600001 1.5640062e-38
0.033138577 0.00064023607 0.147 1.554391e-38
0.047570888 0.00040364085 0.147 1.6780574e-38
0.032553472 0.0027601733 0.14650001 1.7458076e-38
0.054718189 0.0025251876 0.14650001 1.8347893e-38
0.055284042 0.0024437187 0.14633334 1.8531928e-38
0.054787047 0.0030061889 0.147 1.8070943e-38
0.069101058 0.010104046 0.147 1.8347489e-38
0.072155774 0.010505283 0.14600001 1.9083607e-38
0.032678157 0.017084885 0.14600001 1.7912627e-38
0.031894874 0.019748056 0.14600001 1.6537249e-38
0.032570746 0.019615179 0.147 1.6536174e-38
0.031503227 0.020844659 0.14600001 1.6261381e-38
0.032455079 0.020566814 0.147 1.6261381e-38
0.031503227 0.021079645 0.14600001 1.6261381e-38
0.03231049 0.021618351 0.147 1.6076989e-38
0.031561971 0.022783291 0.14600001 1.5341587e-38
0.03231049 0.022564732 0.147 1.5709289e-38
0.031738214 0.023586161 0.14600001 1.5251187e-38
0.032466698 0.02337444 0.1467143 1.525047e-38
0.031973202 0.024134459 0.14600001 1.53441e-38
0.021868812 0.025779359 0.14600001 1.6349257e-38
0.023674766 0.02595593 0.147 1.6535088e-38
0.024773192 0.02563105 0.14650001 1.6351058e-38
0.0253936 0.025191896 0.14600001 1.63489e-38
0.021868812 0.026131839 0.14600001 1.6531851e-38
0.023619151 0.026200699 0.14616668 1.6442173e-38
0.024384551 0.026192525 0.147 1.6443614e-38
0.023513712 0.027424259 0.14600001 1.644181e-38
0.024806134 0.027189273 0.14600001 1.5708204e-38
0.02543015 0.027470618 0.14666666 1.5251182e-38
0.021868812 0.028599188 0.14600001 1.6900624e-38
0.019350007 0.029521994 0.14650001 1.9854809e-38
-0.012051125 0.054820556 0.147 2.2867034e-38
-0.011341339 0.054110769 0.147 1.4939666e-38
-0.010513256 0.054307934 0.147 1.3372701e-38
-0.016388705 0.055451471 0.147 2.27752e-38
-0.015380687 0.055485819 0.14641668 2.2958871e-38
-0.014665545 0.055670142 0.14633334 2.3050707e-38
-0.013614045 0.055857539 0.14600001 2.3050707e-38
-0.012366585 0.055293743 0.147 2.2958871e-38
-0.011625255 0.055293746 0.147 2.295887e-38
-0.010868149 0.055057149 0.147 2.2867034e-38
-0.0071519352 0.055544224 0.14600001 1.6692475e-38
-0.0144312 0.056303237 0.14627273 2.3050707e-38
-0.013566442 0.05632396 0.14633334 2.3050707e-38
-0.012435814 0.056210287 0.1468 2.3050707e-38
-0.011625254 0.056192804 0.147 2.295887e-38
-0.0065506315 0.05639077 0.14642859 1.6416245e-38
-0.014397331 0.057110798 0.14600001 2.3050707e-38
-0.010441737 0.057384942 0.14600001 2.3050707e-38
-0.0096192872 0.057972409 0.14600001 2.3050707e-38
-0.0061414973 0.057361446 0.14600001 1.8075765e-38
-0.01619889 0.058520708 0.14600001 2.3050707e-38
-0.01559837 0.058625154 0.14600001 2.3050707e-38
-0.010394959 0.058369484 0.147 2.3050707e-38
-0.0093843006 0.058520708 0.14600001 2.3050707e-38
-0.0062189493 0.0583908 0.14616668 2.1946521e-38
-0.01619889 0.059147339 0.14600001 2.3050707e-38
-0.015728917 0.059147339 0.14600001 2.3050707e-38
-0.0060944995 0.060087282 0.14600001 2.3050707e-38
-0.0053081596 0.060735438 0.147 2.2682283e-38
-0.0047014328 0.060410958 0.14650001 2.0379933e-38
-0.0036703197 0.060273375 0.14616668 1.4203186e-38
0.047418091 0.00040638671 0.148 1.6318876e-38
0.069094732 0.010410986 0.148 1.7518448e-38
0.033125803 0.019939177 0.148 1.6628728e-38
0.033125803 0.020574389 0.148 1.6261381e-38
0.0328876 0.02255943 0.148 1.5801124e-38
0.033125803 0.02255943 0.148 1.5801123e-38
0.0328876 0.023035839 0.148 1.5710009e-38
0.033125803 0.023035839 0.148 1.5710009e-38
0.024312228 0.026132502 0.148 1.6443614e-38
0.025026843 0.027799934 0.148 1.5708204e-38
0.025145944 0.028038139 0.148 1.5616369e-38
0.019071722 0.030420188 0.148 1.9856961e-38
-0.015610896 0.054574143 0.148 1.4941112e-38
-0.014345006 0.05430872 0.148 1.3374861e-38
-0.013502783 0.054300211 0.148 1.4941827e-38
-0.012456383 0.054410804 0.148 1.5586832e-38
-0.01636124 0.055491235 0.148 2.2316023e-38
-0.015706176 0.055312578 0.148 2.2499695e-38
-0.014481123 0.055465717 0.148 2.2867034e-38
-0.013681437 0.055431683 0.148 2.2958871e-38
-0.012728618 0.05519348 0.148 2.2867034e-38
-0.011497892 0.055391982 0.148 2.2867034e-38
