# .PCD v0.7 - Point Cloud Data file format
VERSION 0.7
FIELDS x y z rgb
SIZE 4 4 4 4
TYPE F F F F
COUNT 1 1 1 1
WIDTH 1003
HEIGHT 1
VIEWPOINT 0 0 0 1 0 0 0
POINTS 1003
DATA ascii
0.026001157 0.018369826 0.13800001 1.662835e-38
0.033108674 0.018369826 0.13800001 1.7095432e-38
0.028444367 0.019702485 0.13800001 1.616989e-38
0.0224474 0.020701978 0.13800001 1.6719829e-38
0.028777532 0.020479869 0.13800001 1.5343366e-38
0.032886565 0.020701978 0.13800001 1.4150218e-38
0.0224474 0.021146199 0.13800001 1.6627634e-38
0.029678311 0.021627437 0.13800001 1.4425007e-38
0.032886565 0.021479364 0.13800001 1.3966543e-38
0.02980479 0.022478856 0.13800001 1.4058022e-38
0.030498883 0.02264544 0.13800001 1.3599561e-38
0.032886565 0.022515876 0.13800001 1.4058737e-38
0.029925101 0.023108169 0.13800001 1.4150218e-38
0.030538548 0.023224512 0.13800001 1.3599202e-38
0.031109685 0.023034133 0.13800001 1.3232218e-38
0.032886565 0.023478352 0.13800001 1.2957427e-38
0.030443355 0.024588902 0.13800001 1.3966906e-38
-0.040409695 0.041247141 0.13800001 2.3234378e-38
-0.042408682 0.0425798 0.13800001 1.7426431e-38
-0.03829965 0.045023005 0.13800001 2.3234378e-38
-0.037078045 0.045245118 0.13800001 2.3234378e-38
-0.035745386 0.046133555 0.13800001 2.3142182e-38
-0.035079058 0.04735516 0.13800001 2.0469249e-38
-0.026860991 0.052796852 0.13800001 1.3092511e-38
-0.025972554 0.053574234 0.13800001 1.7056923e-38
-0.019753477 0.053685293 0.13800001 2.341769e-38
-0.02519517 0.054296095 0.13800001 2.0559286e-38
-0.023529345 0.054795843 0.13800001 2.341769e-38
-0.022640906 0.05474031 0.13800001 2.341769e-38
-0.021974577 0.054795839 0.13800001 2.341769e-38
-0.023751454 0.055240061 0.13800001 2.341769e-38
-0.02186352 0.055240061 0.13800001 2.341769e-38
-0.021308247 0.056683775 0.13800001 2.3234378e-38
0.022772724 0.0086314548 0.14 2.3386662e-38
0.023466915 0.0085884249 0.13966666 2.3390265e-38
0.038968988 0.008578578 0.13950001 1.6120465e-38
0.039165296 0.0086592892 0.13900001 1.5844238e-38
0.02294172 0.0093412409 0.14 2.3012848e-38
0.023420293 0.0093917744 0.13950001 2.3011049e-38
0.038771074 0.0096229017 0.14 1.7037748e-38
0.039295968 0.0094273966 0.13933334 1.6118665e-38
0.022547394 0.010693214 0.14 2.3376604e-38
0.023296654 0.010405913 0.13928571 2.2729432e-38
0.033684172 0.010225325 0.13900001 2.2650545e-38
0.038996402 0.010073559 0.14 1.6761158e-38
0.021665843 0.011469919 0.13916667 2.3000626e-38
0.022274483 0.011120202 0.13900001 2.3464841e-38
0.020970093 0.012777505 0.14 2.3179262e-38
0.021267746 0.012238799 0.13900001 2.1986116e-38
0.039427176 0.012821656 0.13966668 1.5645097e-38
0.020857427 0.013002834 0.14 2.2625731e-38
0.021044025 0.013357395 0.13900001 2.1980003e-38
0.038095087 0.01390415 0.14 1.7110172e-38
0.039672386 0.013408425 0.14 1.5368507e-38
0.040060174 0.013804834 0.13900001 1.4267194e-38
0.024679465 0.014867501 0.13900001 1.8565166e-38
0.025294693 0.014923431 0.13900001 1.9669354e-38
0.026786158 0.014326845 0.13900001 1.9952416e-38
0.02730817 0.014811572 0.13900001 1.9398522e-38
0.033796031 0.014699711 0.13900001 1.9776657e-38
0.034484975 0.014514242 0.1398 1.8948693e-38
0.037742846 0.014541244 0.1392 1.7199488e-38
0.038266733 0.014619727 0.13966666 1.6831425e-38
0.040341534 0.014631374 0.1392 1.3899489e-38
0.021491464 0.015818309 0.13900001 1.7829051e-38
0.024567606 0.015482729 0.13900001 1.792124e-38
0.025294693 0.015482729 0.13900001 1.8563011e-38
0.033646885 0.015669161 0.13900001 1.8572716e-38
0.03424735 0.015527861 0.1392 1.8944018e-38
0.037599258 0.01559459 0.13900001 1.6184616e-38
0.038771074 0.015030794 0.14 1.6463358e-38
0.040439013 0.015519433 0.13966666 1.3714023e-38
0.021715183 0.016545396 0.13900001 1.7551744e-38
0.022274483 0.016936906 0.13900001 1.7091486e-38
0.024542181 0.016733522 0.13900003 1.7919445e-38
0.025294693 0.016825046 0.13900001 1.7735053e-38
0.027531888 0.016936906 0.13900001 1.8192792e-38
0.033583108 0.016494514 0.13966668 1.746637e-38
0.034324516 0.016453363 0.13933335 1.7558567e-38
0.035362069 0.016936906 0.13900001 1.7190143e-38
0.037554514 0.016355235 0.13900001 1.5447054e-38
0.021871408 0.01750941 0.14 1.7275877e-38
0.022398036 0.017528072 0.13925001 1.7275157e-38
0.02339308 0.017719923 0.13900001 1.7182603e-38
0.024424672 0.017458918 0.13900001 1.7457749e-38
0.027435757 0.017707303 0.13977778 1.7639621e-38
0.033584461 0.017533671 0.13975 1.6636972e-38
0.035165813 0.017058752 0.14 1.7097947e-38
0.040573705 0.017058752 0.14 1.3068301e-38
0.022772724 0.018298063 0.14 1.7182603e-38
0.023492131 0.018517289 0.13966666 1.6998211e-38
0.024408078 0.018522987 0.13933334 1.6721266e-38
0.025441876 0.01873319 0.13928571 1.662835e-38
0.026441257 0.018754626 0.13900001 1.6444319e-38
0.027429543 0.018599309 0.13972728 1.6720185e-38
0.033572312 0.018428367 0.13900001 1.7003236e-38
0.023674037 0.019086713 0.14 1.6813823e-38
0.02430496 0.019176845 0.14 1.6353205e-38
0.025431603 0.019266976 0.14 1.644468e-38
0.026358847 0.019700048 0.13975 1.625957e-38
0.027457228 0.019521868 0.13988891 1.6168092e-38
0.028180618 0.019988028 0.14 1.6077697e-38
0.033796031 0.019397818 0.13900001 1.6449703e-38
0.03403917 0.019988028 0.14 1.5713577e-38
0.026513183 0.020438686 0.14 1.6076257e-38
0.027316859 0.020288467 0.14 1.5891864e-38
0.02841115 0.02040259 0.13975 1.552632e-38
0.033636745 0.020535089 0.13950001 1.4610114e-38
0.03403917 0.020213356 0.14 1.543735e-38
0.022998052 0.021415109 0.14 1.6535438e-38
0.028752739 0.02145049 0.13950001 1.4883467e-38
0.029097924 0.021858731 0.13900001 1.4975663e-38
0.033701174 0.021415113 0.14 1.3783233e-38
0.022998052 0.022128653 0.14 1.6352845e-38
0.028743941 0.022241317 0.14 1.5158974e-38
0.029209785 0.022529889 0.13900001 1.4975303e-38
0.033701174 0.022410315 0.14 1.3507724e-38
0.029880943 0.023648486 0.13900001 1.4425366e-38
0.033623856 0.023356656 0.13940001 1.3232574e-38
0.030440241 0.024990801 0.13900001 1.4059101e-38
0.030707758 0.025340611 0.1392 1.3692477e-38
0.031335119 0.02543824 0.13900001 1.3143259e-38
0.030884564 0.026071906 0.14 1.295887e-38
0.031447887 0.026071906 0.14 1.2960666e-38
-0.040627945 0.041993469 0.13900001 2.3234378e-38
-0.043023303 0.042746238 0.14 1.7334236e-38
-0.042939711 0.042440906 0.13900001 1.6504475e-38
-0.041671325 0.042295586 0.14 2.2867036e-38
-0.040926237 0.042217188 0.13900001 2.3234378e-38
-0.03964337 0.042746238 0.14 2.3234378e-38
-0.043023303 0.043422226 0.14 1.7426431e-38
-0.042685308 0.043647554 0.14 1.8440589e-38
-0.042572647 0.044259161 0.14 1.8625698e-38
-0.041896656 0.044098213 0.14 2.1483406e-38
-0.038241606 0.045349259 0.13900001 2.3234378e-38
-0.035114985 0.047565438 0.1392 1.9363265e-38
-0.035230748 0.048484657 0.13933334 1.9639135e-38
-0.034885813 0.04848133 0.13900001 1.871682e-38
-0.026499188 0.051984716 0.14 1.5304847e-38
-0.026442239 0.05268582 0.13964286 1.5858021e-38
-0.025671279 0.05276512 0.13958333 1.8162913e-38
-0.024659 0.052773371 0.14 2.2309922e-38
-0.023870351 0.052773371 0.14 2.3509527e-38
-0.026384478 0.053515021 0.13900001 1.6227162e-38
-0.025467463 0.053565267 0.13908336 1.9269265e-38
-0.024659 0.053411808 0.14 2.231028e-38
-0.023735154 0.053562023 0.14 2.341769e-38
-0.025265884 0.054361958 0.13900001 2.1020264e-38
-0.024626033 0.054488808 0.13975003 2.2864166e-38
-0.023546869 0.05451959 0.13975 2.341769e-38
-0.022546945 0.054476157 0.13955559 2.341769e-38
-0.021508619 0.054758221 0.13947059 2.341769e-38
-0.020492908 0.054619815 0.13925001 2.341769e-38
-0.01922546 0.054969195 0.13900001 2.341769e-38
-0.025154024 0.055192914 0.13900001 2.1666353e-38
-0.024565693 0.055160761 0.13960001 2.341769e-38
-0.023870351 0.055139322 0.14 2.341769e-38
-0.021373166 0.055528492 0.13900003 2.341769e-38
-0.020412492 0.055512317 0.13955554 2.341769e-38
-0.019363774 0.055815309 0.14 2.3325854e-38
-0.018687787 0.055815309 0.14 2.0930587e-38
-0.021341728 0.056558102 0.139125 2.3234019e-38
-0.020230398 0.056409705 0.13930002 2.3325854e-38
-0.019429527 0.056580245 0.13966671 2.3234019e-38
-0.018406892 0.056522585 0.13988237 2.0099027e-38
-0.017504809 0.056547627 0.14 1.6596305e-38
-0.021146737 0.057243168 0.13950001 2.3234378e-38
-0.020387128 0.057182927 0.13960001 2.3234378e-38
-0.019412577 0.057189632 0.13942857 2.3234378e-38
-0.018354973 0.057246614 0.1397 2.0099023e-38
-0.017390545 0.057373982 0.1399 1.6043131e-38
0.024977831 0.0001602274 0.141 1.4281934e-38
0.021800695 0.0087838834 0.141 2.34767e-38
0.022027632 0.0087838834 0.141 2.3293028e-38
0.022282938 0.009493066 0.14100002 2.328836e-38
0.039123658 0.0093890531 0.141 1.67626e-38
0.022440247 0.010351821 0.14100002 2.3285487e-38
0.02111988 0.011734082 0.141 2.3000266e-38
0.020666003 0.012868773 0.141 2.2809763e-38
0.039728824 0.013663057 0.141 1.5826973e-38
0.034509245 0.014911219 0.141 1.9684463e-38
0.038821071 0.01468428 0.141 1.6557354e-38
0.040182702 0.01468428 0.141 1.4908605e-38
0.034622714 0.015138157 0.141 1.9407874e-38
0.034206659 0.016878016 0.141 1.7190143e-38
0.040409639 0.016499788 0.141 1.4170329e-38
0.034327693 0.01740754 0.141 1.6729168e-38
0.035643935 0.017634477 0.141 1.6544774e-38
0.040523108 0.017558832 0.14100002 1.3250177e-38
0.023525426 0.019495372 0.141 1.6722346e-38
0.024637423 0.019752569 0.14100002 1.6261728e-38
0.025318239 0.019676924 0.141 1.6169533e-38
0.034509245 0.019676924 0.141 1.6449703e-38
0.024783313 0.020390159 0.14100002 1.6261369e-38
0.025507353 0.020433385 0.14100002 1.6077337e-38
0.026112523 0.020584676 0.141 1.6169171e-38
0.027701093 0.020811616 0.141 1.5800028e-38
0.028154969 0.020811616 0.141 1.5616356e-38
0.034395773 0.020527942 0.141 1.5070009e-38
0.024977831 0.021416783 0.141 1.6260649e-38
0.025261505 0.021208758 0.141 1.6077337e-38
0.026404303 0.02136275 0.14100002 1.5709994e-38
0.027417421 0.021435695 0.14100002 1.5525241e-38
0.02826844 0.021435697 0.14100002 1.5433404e-38
0.034509245 0.021435695 0.141 1.3875428e-38
0.023843139 0.022286713 0.141 1.6167735e-38
0.024864361 0.022286715 0.141 1.5708554e-38
0.026566401 0.022173245 0.141 1.5526321e-38
0.027453523 0.022379551 0.14100002 1.5067501e-38
0.028317068 0.022432601 0.14100002 1.5159335e-38
0.027701093 0.023080997 0.141 1.5159697e-38
0.028381908 0.023080997 0.141 1.5251892e-38
0.029289663 0.023307934 0.141 1.4883827e-38
0.030424353 0.025804257 0.141 1.3784315e-38
0.030651292 0.026258135 0.141 1.3142183e-38
-0.043671019 0.04282463 0.141 1.6043497e-38
-0.043217137 0.043562181 0.141 1.7703018e-38
-0.042498503 0.043808028 0.14100002 2.0284146e-38
-0.041742042 0.043051567 0.141 2.3050707e-38
-0.040266942 0.043278508 0.141 2.3234378e-38
-0.039926536 0.043618914 0.141 2.3234378e-38
-0.042309389 0.044640135 0.141 2.1391208e-38
-0.038564906 0.045774829 0.141 2.3234378e-38
-0.038224496 0.046001766 0.141 2.3234378e-38
-0.035160828 0.048951965 0.141 1.8164352e-38
-0.03531212 0.049481485 0.141 1.8624975e-38
-0.026991049 0.052129101 0.141 1.401447e-38
-0.023662621 0.053642023 0.141 2.341769e-38
-0.023246568 0.054171547 0.141 2.341769e-38
-0.022622488 0.054341748 0.141 2.341769e-38
-0.021998407 0.054625422 0.141 2.341769e-38
-0.018480863 0.05621399 0.141 1.9455457e-38
-0.017913517 0.056440931 0.141 1.7610097e-38
-0.017157055 0.057424325 0.141 1.4014467e-38
0.021726761 0.0093032764 0.142 2.347311e-38
0.021726761 0.010903111 0.142 2.3374446e-38
0.021383941 0.011474481 0.142 2.3001705e-38
0.020698296 0.012731493 0.142 2.3087068e-38
0.03886785 0.01410278 0.142 1.6833585e-38
0.04001059 0.014674149 0.142 1.5825895e-38
0.0390964 0.015131246 0.142 1.6463718e-38
0.040239137 0.015474068 0.142 1.5548948e-38
0.03470828 0.017850963 0.142 1.6452581e-38
0.035439633 0.017759545 0.142 1.6636972e-38
0.040239137 0.01787382 0.142 1.3430981e-38
0.034616861 0.018536609 0.142 1.6452221e-38
0.03470828 0.019313671 0.142 1.6635174e-38
0.023478961 0.020121207 0.142 1.644504e-38
0.024240788 0.020559257 0.142 1.644504e-38
0.03498254 0.020444984 0.142 1.5622101e-38
0.023631327 0.021568676 0.142 1.6443243e-38
0.024632586 0.021448959 0.142 1.6260649e-38
0.025749203 0.02146202 0.142 1.5985501e-38
0.02606917 0.021530584 0.142 1.5985501e-38
0.03498254 0.021187762 0.142 1.4426801e-38
0.023612281 0.022444775 0.142 1.6352126e-38
0.024526473 0.022530481 0.142 1.5984062e-38
0.025640642 0.022444775 0.142 1.5892946e-38
0.026354855 0.022416206 0.142 1.5709994e-38
0.034525443 0.022559049 0.142 1.3140385e-38
0.024526473 0.023244692 0.142 1.5984422e-38
0.026983364 0.023244692 0.142 1.5617798e-38
0.027473109 0.023538539 0.142 1.5434484e-38
0.028354649 0.023530377 0.142 1.5067861e-38
0.029154569 0.023587514 0.142 1.4976026e-38
0.034525443 0.02347324 0.142 1.3049265e-38
0.027897555 0.024158884 0.142 1.5343009e-38
0.029725939 0.024273157 0.142 1.460976e-38
-0.044399749 0.042823624 0.142 1.4383976e-38
-0.043752193 0.042899806 0.142 1.6965453e-38
-0.042952277 0.042671256 0.142 2.0007556e-38
-0.043333188 0.043280721 0.142 1.8256556e-38
-0.042799909 0.043661635 0.142 2.0468896e-38
-0.041657172 0.043737814 0.142 2.3142542e-38
-0.040895347 0.043813996 0.142 2.3234378e-38
-0.039981153 0.043813996 0.142 2.3234378e-38
-0.042266633 0.044499639 0.142 2.2681211e-38
-0.040601496 0.044434343 0.142 2.3234378e-38
-0.039981153 0.044499639 0.142 2.3234378e-38
-0.039581195 0.045528106 0.142 2.3234378e-38
-0.038838416 0.045870926 0.142 2.3234378e-38
-0.038381319 0.046099473 0.142 2.3234378e-38
-0.036210116 0.047927856 0.142 2.1391199e-38
-0.035410196 0.047927856 0.142 1.8071799e-38
-0.034433678 0.047553871 0.14199999 1.3831516e-38
-0.03538163 0.048356388 0.142 1.7979964e-38
-0.034427442 0.048339248 0.14199999 1.3646766e-38
-0.035410199 0.049070597 0.142 1.8164352e-38
-0.035638746 0.050213333 0.142 1.8717539e-38
-0.026839655 0.052613087 0.142 1.548888e-38
-0.023411438 0.054327194 0.142 2.341769e-38
-0.022611519 0.05478429 0.142 2.341769e-38
-0.018154837 0.056612674 0.142 1.7795213e-38
-0.017354919 0.057298318 0.142 1.4199937e-38
0.02164961 0.010749737 0.14300001 2.3191494e-38
0.039448444 0.01389522 0.14300001 1.6649912e-38
0.039601885 0.014892568 0.14300001 1.6557354e-38
0.039647914 0.015583038 0.14300001 1.6096372e-38
0.040062197 0.015429601 0.14300001 1.6098169e-38
0.040407434 0.016503669 0.14300001 1.5178013e-38
0.040522512 0.017194141 0.14300001 1.444225e-38
0.035430282 0.018316159 0.14300001 1.6175994e-38
0.022646958 0.019188836 0.14300001 1.6814543e-38
0.035286434 0.019208018 0.14300001 1.5991243e-38
0.023444837 0.020554436 0.14300001 1.6352126e-38
0.035516594 0.020473883 0.14300001 1.5806132e-38
0.023692256 0.021250661 0.14300001 1.6443603e-38
0.035505079 0.021498082 0.14300001 1.4335323e-38
0.023951182 0.022257602 0.14300001 1.6351047e-38
0.026406197 0.022948073 0.14300001 1.580111e-38
0.035413019 0.022602838 0.14300001 1.3049267e-38
0.024687687 0.02373061 0.14300001 1.6259929e-38
0.025516253 0.023500452 0.14300001 1.561636e-38
0.026713073 0.023408389 0.14300001 1.5617798e-38
0.027518623 0.024520816 0.14300001 1.5158978e-38
0.024871813 0.025403084 0.14300001 1.5067867e-38
0.025332127 0.025537342 0.14300001 1.5067867e-38
0.030165432 0.025709962 0.14300001 1.4150938e-38
-0.044482261 0.041667532 0.14300001 1.5398128e-38
-0.043945231 0.041820969 0.14300001 1.7426431e-38
-0.044635702 0.042511437 0.14300001 1.4753117e-38
-0.043868512 0.042626519 0.14300001 1.7703376e-38
-0.043599993 0.043201916 0.14300001 1.8532782e-38
-0.04026271 0.043892387 0.14300001 2.3234378e-38
-0.041643657 0.044352699 0.14300001 2.3234378e-38
-0.040032554 0.044237621 0.14300001 2.3234378e-38
-0.039572239 0.044237621 0.14300001 2.3234378e-38
-0.04126006 0.045426767 0.14300001 2.3234378e-38
-0.040328469 0.045667883 0.14300001 2.3234378e-38
-0.039296053 0.045779675 0.14300001 2.3234378e-38
-0.038651612 0.045963801 0.14300001 2.3234378e-38
-0.038536534 0.046424117 0.14300001 2.3234378e-38
-0.038421452 0.047344744 0.14300001 2.3234378e-38
-0.037270665 0.047459826 0.14300001 2.3234378e-38
-0.035602026 0.047632441 0.14300001 1.7795574e-38
-0.034969091 0.049416162 0.14300001 1.567507e-38
-0.035889722 0.050566949 0.14300001 1.8717539e-38
-0.026453272 0.053558998 0.14300001 1.7701213e-38
0.010444432 -0.019459285 0.14400001 1.3454316e-38
0.010598943 -0.018532218 0.14400001 1.3730906e-38
0.010444432 -0.017914172 0.14400001 1.4375557e-38
0.021801006 0.0097819585 0.14400001 2.3287644e-38
0.021646494 0.010593142 0.14400001 2.3284048e-38
0.020873938 0.011751977 0.14400001 2.346232e-38
0.021221589 0.011288444 0.14400001 2.3372285e-38
0.039801564 0.016232802 0.14400001 1.5909468e-38
0.040342353 0.016619079 0.14400001 1.5267695e-38
0.040342353 0.017198496 0.14400001 1.4439737e-38
0.02295984 0.019632047 0.14400001 1.6446119e-38
0.026482696 0.023711145 0.14400001 1.5617798e-38
0.024582207 0.024730915 0.14400001 1.5526684e-38
0.025509274 0.024557091 0.14400002 1.5708916e-38
0.02689988 0.024421893 0.14400001 1.5250457e-38
0.02736341 0.024962684 0.14400001 1.4883113e-38
0.028580187 0.024267383 0.14400001 1.5067861e-38
0.029449312 0.02449915 0.14400001 1.460976e-38
0.025741041 0.025580728 0.14400001 1.5343013e-38
0.026204575 0.025889751 0.14400001 1.5527403e-38
0.027595177 0.025194451 0.14400001 1.4607965e-38
0.025542384 0.026518833 0.14400001 1.4794157e-38
0.026745366 0.027434863 0.14400001 1.4336058e-38
-0.045179605 0.041881658 0.14400001 1.3554215e-38
-0.043093704 0.044546977 0.14400001 2.1851466e-38
-0.042475659 0.044817373 0.14400001 2.3142183e-38
-0.04019662 0.044894628 0.14400001 2.3234378e-38
-0.039733086 0.044778746 0.14400001 2.3234378e-38
-0.04320959 0.045821697 0.14400001 2.1299012e-38
-0.042243894 0.045435417 0.14400001 2.3142183e-38
-0.04193487 0.045474045 0.14400001 2.3234378e-38
-0.040080734 0.045589928 0.14400001 2.3234378e-38
-0.039617203 0.045543574 0.14400001 2.3234378e-38
-0.041471336 0.046285227 0.14400001 2.3234378e-38
-0.036372468 0.047907595 0.14400001 1.9546578e-38
-0.036604233 0.048139364 0.14400001 2.074583e-38
-0.035831679 0.051461354 0.14400001 1.788777e-38
-0.027719839 0.052620187 0.14400001 1.3092152e-38
0.010516962 -0.018738706 0.14500001 1.3823102e-38
0.021018896 0.011133458 0.14500001 2.3464481e-38
0.040155753 0.016967867 0.14500001 1.4988954e-38
0.02638655 0.024591489 0.145 1.5433409e-38
0.028603625 0.024902659 0.14500001 1.50675e-38
0.029362099 0.024844315 0.14500001 1.4700875e-38
0.02451954 0.025369411 0.14500001 1.5343735e-38
0.02638655 0.025447205 0.145 1.5342652e-38
0.027164469 0.02529162 0.14500001 1.4791277e-38
0.028486937 0.025252724 0.145 1.5067858e-38
0.029887196 0.0254861 0.14500001 1.4517561e-38
0.026328208 0.026361261 0.14500001 1.5068584e-38
0.029887196 0.026069541 0.14500001 1.4517564e-38
0.030353947 0.026769668 0.14500001 1.4059104e-38
0.026386552 0.027080836 0.14500001 1.4703396e-38
0.02747564 0.027547589 0.145 1.4519369e-38
0.02837025 0.027353108 0.14500001 1.4241702e-38
0.030587323 0.027003044 0.14500001 1.3876511e-38
0.026619926 0.028169926 0.14500001 1.3970874e-38
0.027086679 0.028169926 0.14500001 1.3970874e-38
-0.043159593 0.045673147 0.14500001 2.2773049e-38
-0.042926215 0.045906525 0.14500001 2.2957438e-38
-0.039658949 0.045673151 0.14500001 2.3234378e-38
-0.043159593 0.0461399 0.14500001 2.2773049e-38
-0.042759519 0.046539973 0.145 2.2957795e-38
-0.041292585 0.046840027 0.14500001 2.3234378e-38
-0.041059207 0.047073405 0.14500001 2.3234378e-38
-0.038492065 0.04730678 0.14500001 2.3234378e-38
-0.036158305 0.047773533 0.14500001 1.8256195e-38
-0.036391679 0.048006911 0.14500001 1.8809013e-38
-0.035224799 0.050340671 0.14500001 1.4476527e-38
-0.019821959 0.050457358 0.14500001 1.4567641e-38
-0.020055335 0.051157489 0.14500001 1.6779976e-38
-0.019821959 0.051040802 0.14500001 1.5766184e-38
-0.027056627 0.054308068 0.14500001 1.668814e-38
0.0097945081 -0.017183274 0.147 1.4466691e-38
0.010188833 -0.017341005 0.147 1.4652512e-38
0.0095973443 -0.016631216 0.147 1.400464e-38
0.010425429 -0.015684837 0.147 1.3637657e-38
0.02139884 0.0098003261 0.14600001 2.3380198e-38
0.021308811 0.010104046 0.147 2.3471675e-38
0.020693883 0.011680212 0.14600001 2.3461961e-38
0.029388357 0.025497377 0.14600001 1.479235e-38
0.030093314 0.025779359 0.14600001 1.4425366e-38
0.024621146 0.026192525 0.147 1.5344095e-38
0.026803512 0.026719302 0.14600001 1.5068583e-38
0.027358163 0.026379442 0.14620002 1.4883833e-38
0.028546643 0.026103435 0.14650001 1.4333177e-38
0.029550212 0.026350254 0.147 1.4609041e-38
0.030093314 0.026719302 0.14600001 1.4242416e-38
0.026803512 0.027189273 0.14600001 1.4610842e-38
0.027422378 0.027220042 0.14616668 1.4793435e-38
0.028732514 0.02741207 0.14625001 1.4058029e-38
0.029514879 0.027459605 0.14688888 1.3874716e-38
0.030195568 0.027400684 0.14650001 1.3783599e-38
0.026987098 0.028795073 0.147 1.3971593e-38
0.027578585 0.028440177 0.147 1.4061991e-38
0.028288372 0.028321881 0.147 1.4427534e-38
-0.039462484 0.046458106 0.14600001 2.3234378e-38
-0.042399809 0.047221813 0.14600001 2.3142183e-38
-0.039159331 0.047427937 0.14633334 2.3234378e-38
-0.038889453 0.047560371 0.14650001 2.3234378e-38
-0.038549799 0.048195884 0.147 2.3234378e-38
-0.037682284 0.048590213 0.147 2.2219874e-38
-0.036172684 0.050687853 0.14600001 1.7426787e-38
-0.0359377 0.050687853 0.14600001 1.6689222e-38
-0.036479592 0.051685661 0.147 1.76101e-38
-0.036649846 0.052511975 0.14650001 1.8349471e-38
-0.035552926 0.052848924 0.147 1.3462372e-38
-0.025063867 0.054347362 0.147 2.3417333e-38
0.009781735 -0.018173585 0.148 1.5204614e-38
0.01001994 -0.018173585 0.148 1.5204614e-38
0.0096229324 -0.017776577 0.148 1.4742918e-38
0.01001994 -0.017935378 0.148 1.5020223e-38
0.009067121 -0.016506152 0.148 1.381953e-38
0.010615451 -0.016327497 0.148 1.4098628e-38
0.009067121 -0.015315127 0.148 1.3635158e-38
0.009067121 -0.014838718 0.148 1.3727724e-38
0.028480809 0.026728012 0.148 1.4424653e-38
0.029235125 0.026767714 0.148 1.4333534e-38
0.02852051 0.027323524 0.148 1.4425011e-38
0.029076323 0.027323525 0.148 1.4242059e-38
0.028838117 0.028514549 0.148 1.4519009e-38
0.029076323 0.028514549 0.148 1.4611205e-38
-0.039645761 0.047690034 0.148 2.3234378e-38
-0.036191791 0.051858615 0.148 1.567507e-38
-0.020470273 0.051382206 0.148 1.5673986e-38
-0.036310896 0.052215923 0.148 1.6043853e-38
-0.037144609 0.053287841 0.148 1.8534226e-38
-0.036906406 0.053287841 0.148 1.8164715e-38
0.0064468253 -0.022569433 0.14900002 1.4097903e-38
0.0072098705 -0.022613036 0.149 1.3268506e-38
0.0061307065 -0.021893593 0.149 1.4649272e-38
0.0093202358 -0.018344341 0.149 1.4926591e-38
0.0091283843 -0.017457029 0.149 1.4188665e-38
0.01056727 -0.016857494 0.149 1.4374853e-38
0.0091283843 -0.015898235 0.149 1.3543313e-38
0.028433435 0.026788699 0.149 1.4423936e-38
0.028793156 0.027028514 0.149 1.4516488e-38
0.030711669 0.027987771 0.149 1.3599927e-38
0.028073713 0.028947027 0.149 1.4154545e-38
0.029752411 0.028587306 0.149 1.3875439e-38
0.02735427 0.029506594 0.149 1.3973751e-38
-0.036796052 0.052928451 0.149 1.6965452e-38
-0.021328028 0.052928451 0.149 1.8715368e-38
-0.037515495 0.05388771 0.149 1.9086321e-38
-0.036724109 0.053695858 0.149 1.6781779e-38
-0.037395589 0.054367337 0.149 1.8624621e-38
-0.036628179 0.05446326 0.149 1.6320441e-38
-0.035956703 0.054487243 0.149 1.3093593e-38
0.0089482255 -0.019384868 0.15000001 1.5387926e-38
0.0091896495 -0.019384868 0.15000001 1.5480122e-38
0.0087872762 -0.018620359 0.14999999 1.4833312e-38
0.0094310734 -0.018902021 0.15000001 1.5479763e-38
0.0076203947 -0.017212054 0.15000001 1.5108105e-38
0.0087068016 -0.017453477 0.15000001 1.4280142e-38
0.0073789707 -0.016548138 0.15000001 1.5015553e-38
0.0087068016 -0.016427428 0.15000001 1.4002846e-38
0.0087068016 -0.015401376 0.15000001 1.4095419e-38
0.021260839 0.010793099 0.15000001 2.3282966e-38
0.027779279 0.029865576 0.15000001 1.378936e-38
0.028020702 0.029382728 0.15000001 1.3879397e-38
0.027296431 0.030106999 0.15000001 1.4344692e-38
-0.021229746 0.052559406 0.15000001 1.79778e-38
-0.024126831 0.056180764 0.15000001 2.341769e-38
0.0070636142 -0.0224305 0.15100001 1.4743636e-38
0.0087648472 -0.021215333 0.15100001 1.4742557e-38
0.0095243258 -0.021579882 0.15100001 1.3452894e-38
0.0087162405 -0.020437628 0.15100001 1.5203892e-38
0.0093724299 -0.020546991 0.15100001 1.4650717e-38
0.007711703 -0.019190056 0.15100001 1.5109534e-38
0.0084408028 -0.019554608 0.15100001 1.5018419e-38
0.0092509137 -0.019757133 0.15100001 1.5480122e-38
0.00758006 -0.01851159 0.15100001 1.5293208e-38
0.0082787806 -0.018541967 0.15100001 1.4924786e-38
0.0057512345 -0.017472621 0.15100001 1.5014829e-38
0.0063345139 -0.017415179 0.15100001 1.538433e-38
0.007395023 -0.01754774 0.15100001 1.538469e-38
0.0082787806 -0.017448317 0.15100001 1.455529e-38
0.0056540212 -0.016306061 0.15100001 1.4553852e-38
0.0063345139 -0.016354669 0.15100001 1.4186152e-38
0.0074802437 -0.01625051 0.15100001 1.4555297e-38
0.0082787806 -0.016354667 0.15100001 1.4371267e-38
0.0064965361 -0.015544557 0.15100001 1.3817377e-38
0.0074281641 -0.015382536 0.15100001 1.4002856e-38
0.0083395392 -0.015382535 0.15100001 1.427981e-38
0.0074281641 -0.014734447 0.15100001 1.3819199e-38
0.0082787806 -0.014896469 0.15100001 1.3912115e-38
0.021159545 0.011108086 0.15100001 2.2913465e-38
0.024318976 0.026905246 0.15100001 1.479488e-38
0.024562011 0.027148278 0.15100001 1.5160785e-38
0.028815091 0.029335579 0.15100001 1.4153825e-38
0.02917964 0.029335579 0.15100001 1.4152745e-38
0.026992342 0.030307712 0.15100001 1.4529086e-38
0.027770048 0.030453533 0.15100001 1.4068825e-38
-0.039112709 0.049507335 0.15100001 2.3234378e-38
-0.021614309 0.053274356 0.15100001 1.8530975e-38
-0.036682375 0.055340137 0.15100001 1.4753114e-38
-0.024287678 0.056555301 0.15100001 2.341769e-38
-0.023558578 0.056798335 0.15100001 2.341769e-38
0.0066211075 -0.022334402 0.15200001 1.4742913e-38
0.0083336066 -0.022579046 0.15200001 1.3267783e-38
0.0083336066 -0.02123351 0.15200001 1.5387927e-38
0.0076812264 -0.020295711 0.15200001 1.5202086e-38
0.0081868218 -0.020621905 0.15200001 1.538792e-38
0.0066560572 -0.019608384 0.15200002 1.5938573e-38
0.0073142624 -0.019684108 0.15200001 1.5293924e-38
0.011636284 -0.019561784 0.15200001 1.2993345e-38
0.0058871792 -0.018420119 0.15200001 1.6030058e-38
0.0066618812 -0.018583214 0.15200001 1.6030058e-38
0.0071103931 -0.018909404 0.15200001 1.5661629e-38
0.011636284 -0.018909404 0.15200001 1.3362126e-38
0.0058056316 -0.015647501 0.15200001 1.40936e-38
0.0062949173 -0.015321312 0.15200001 1.3817739e-38
0.0067434292 -0.014750479 0.15200001 1.3634085e-38
0.0075589051 -0.014220417 0.15200001 1.3452228e-38
0.0081705116 -0.014098098 0.15200001 1.3360757e-38
0.0078443214 -0.013527265 0.15200001 1.3177456e-38
0.008088964 -0.013771907 0.15200001 1.3177095e-38
0.022522885 0.020967361 0.15200001 1.6630871e-38
0.029617526 0.029529855 0.15200001 1.4428252e-38
0.028394312 0.030508427 0.15200001 1.3607127e-38
0.027782705 0.031364676 0.15200001 1.361361e-38
0.028394312 0.031364676 0.15200001 1.37058e-38
-0.027506558 0.053749483 0.15200001 1.8991952e-38
-0.027465785 0.054320317 0.15200001 1.9268539e-38
-0.037414592 0.055951267 0.15200001 1.6504831e-38
-0.036925305 0.055951267 0.15200001 1.4568723e-38
-0.024203882 0.056807518 0.15200001 2.341769e-38
-0.023836918 0.056929838 0.15200001 2.341769e-38
-0.011421297 0.06274011 0.15200001 1.392515e-38
0.0075265504 -0.022727592 0.15300001 1.4190462e-38
0.008757811 -0.022358213 0.15300001 1.3451818e-38
0.0077728024 -0.021126952 0.15300001 1.5295363e-38
0.0086346855 -0.021988835 0.15300001 1.4097187e-38
0.0066154175 -0.020363569 0.15300001 1.5846735e-38
0.0074034245 -0.020757575 0.15300001 1.511025e-38
0.0056796586 -0.019033808 0.15300001 1.6306645e-38
0.0062337262 -0.019280061 0.15300001 1.6491034e-38
0.010686788 -0.019115893 0.15300001 1.492802e-38
0.011097209 -0.019280061 0.15300001 1.4191165e-38
0.0055154902 -0.018705472 0.15300001 1.5661276e-38
0.0061721629 -0.018787557 0.15300001 1.6306645e-38
0.010850956 -0.018787557 0.15300001 1.4928377e-38
0.011425545 -0.018787557 0.15300001 1.4007134e-38
0.0083884336 -0.014478143 0.15300001 1.3452589e-38
0.019223532 0.010516457 0.15300001 2.1252153e-38
0.019346658 0.01199397 0.15300001 2.023585e-38
0.020454792 0.01199397 0.15300001 2.2906988e-38
0.019617535 0.012338723 0.15300001 2.0418802e-38
0.020208541 0.012240223 0.15300001 2.1801369e-38
0.019469785 0.013717736 0.15300001 1.9127348e-38
0.019531347 0.014271803 0.15300001 1.894224e-38
0.022178559 0.020612799 0.15300001 1.663195e-38
0.027103603 0.030955389 0.15300001 1.3337029e-38
0.028581118 0.030216634 0.15300001 1.3788281e-38
0.028581118 0.031940401 0.15300001 1.3064037e-38
-0.021900594 0.053610593 0.15300001 1.8530974e-38
-0.027318144 0.054718729 0.15300001 2.0651123e-38
-0.021900594 0.054349352 0.15300001 1.8899758e-38
-0.027318144 0.055334359 0.15300001 2.0558928e-38
-0.037168235 0.056811873 0.15300001 1.4476527e-38
-0.036921982 0.056319367 0.15300001 1.3093593e-38
-0.023870612 0.058043133 0.15300001 2.341769e-38
0.0065569696 -0.022511477 0.15433334 1.5017697e-38
0.0079733394 -0.022576205 0.15450001 1.4374853e-38
0.0082486151 -0.022525743 0.155 1.4281579e-38
0.0057539023 -0.021028915 0.155 1.6215519e-38
0.0066157598 -0.021244066 0.15475 1.5662701e-38
0.007420952 -0.021494418 0.15440002 1.5202445e-38
0.0067082276 -0.020893244 0.15400001 1.5662701e-38
0.010895372 -0.018411243 0.15450001 1.4744349e-38
0.011530554 -0.01841099 0.15457143 1.4099333e-38
0.0106882 -0.01764442 0.1542 1.4374852e-38
0.010520595 -0.016572911 0.15416668 1.3452549e-38
0.0096825687 -0.01593601 0.15400001 1.354296e-38
0.010539482 -0.015807668 0.1542 1.3083771e-38
0.019844899 0.009841607 0.15400001 2.2176622e-38
0.020092761 0.009841607 0.15400001 2.2545401e-38
0.019720968 0.010419951 0.15400003 2.1990432e-38
0.020411441 0.010372738 0.15400003 2.2544322e-38
0.019514417 0.011328777 0.15400003 2.1250353e-38
0.020505862 0.011328776 0.15400003 2.263364e-38
0.019844899 0.012072362 0.15400001 2.1157082e-38
0.020092761 0.012072362 0.15400001 2.1892842e-38
0.020870171 0.021649525 0.15425001 1.4069551e-38
0.020971647 0.022379074 0.155 1.3519244e-38
0.024214773 0.027867438 0.155 1.397484e-38
0.029366691 0.030643305 0.15437502 1.3789e-38
0.02910999 0.031508345 0.15450001 1.3426693e-38
0.029204197 0.032108448 0.155 1.352285e-38
-0.022291597 0.05346527 0.15400001 1.8255465e-38
-0.021486048 0.053651165 0.15400001 1.6319355e-38
-0.027868487 0.054456715 0.15400001 1.8991952e-38
-0.022477493 0.054704577 0.15400001 1.954477e-38
-0.021520624 0.054575097 0.15425001 1.7333151e-38
-0.027425772 0.055558741 0.155 2.1388688e-38
-0.023035182 0.055200301 0.15400001 2.0927347e-38
-0.022389349 0.055352278 0.15425001 2.0005391e-38
-0.021434911 0.055506811 0.15477777 1.7793769e-38
-0.020590259 0.055384118 0.15499999 1.4199217e-38
-0.027449412 0.056351844 0.15466668 2.1296493e-38
-0.022324903 0.056604173 0.154875 2.1573433e-38
-0.021445194 0.056589339 0.15475 1.9361818e-38
-0.02061877 0.056592274 0.15499999 1.622788e-38
-0.037163302 0.057307124 0.15400001 1.3001757e-38
-0.025180532 0.057554513 0.155 2.341769e-38
-0.022507407 0.057508219 0.154625 2.3233299e-38
-0.021523489 0.057486389 0.15422224 2.2034407e-38
-0.020523734 0.057471354 0.15499999 1.7333511e-38
-0.019585248 0.057590153 0.15499999 1.3001393e-38
-0.024432117 0.058552399 0.155 2.341769e-38
-0.022377664 0.058408443 0.154375 2.341769e-38
-0.021487346 0.058540348 0.15440002 2.2680131e-38
-0.02049063 0.05856083 0.15474999 1.8807927e-38
-0.019449197 0.05855526 0.15435296 1.4845307e-38
-0.022552734 0.059313428 0.15457143 2.341769e-38
-0.021345986 0.059334386 0.15433335 2.2771967e-38
-0.020571576 0.059566438 0.15411113 2.0374534e-38
-0.019441187 0.059661809 0.15400003 1.6320078e-38
-0.021500831 0.060236331 0.155 2.32333e-38
-0.020523734 0.060548168 0.155 2.0006466e-38
-0.019255292 0.060281463 0.15400001 1.5859099e-38
-0.012514828 0.062333211 0.15400003 1.3555647e-38
0.0062931865 -0.022419989 0.156 1.5386114e-38
0.0073288935 -0.022639684 0.156 1.5019499e-38
0.0080507509 -0.02279661 0.156 1.4374853e-38
0.0057910243 -0.021541206 0.156 1.5939288e-38
0.0062094922 -0.021750441 0.156 1.5662701e-38
0.0070464276 -0.021917827 0.156 1.5386114e-38
0.011691421 -0.018151617 0.156 1.4099335e-38
0.012068043 -0.018402698 0.156 1.3638713e-38
0.022362351 0.021770213 0.156 1.5987302e-38
0.02135803 0.022523455 0.156 1.471024e-38
0.030899096 0.029804796 0.156 1.3966555e-38
0.029643694 0.031436823 0.156 1.3331619e-38
0.029643694 0.032190062 0.156 1.3337378e-38
-0.028355956 0.052653138 0.156 1.7885605e-38
-0.027519019 0.052653138 0.156 1.9452932e-38
-0.029109197 0.053657457 0.156 1.5949136e-38
-0.028523343 0.05340638 0.156 1.7608658e-38
-0.027519019 0.05340638 0.156 1.9914276e-38
-0.026640236 0.053490072 0.156 2.0190141e-38
-0.025761455 0.053573761 0.156 2.0005744e-38
-0.022078937 0.053406376 0.156 1.5859459e-38
-0.021702316 0.053406376 0.156 1.3738959e-38
-0.029209629 0.054460913 0.156 1.5581793e-38
-0.028481495 0.054460913 0.156 1.79778e-38
-0.027519019 0.054536235 0.156 2.0467088e-38
-0.026598392 0.054536242 0.156 2.1572719e-38
-0.025573144 0.054599006 0.156 2.1664192e-38
-0.022078937 0.054159619 0.156 1.7517898e-38
-0.027351633 0.055565674 0.156 2.1480525e-38
-0.02659839 0.055666108 0.156 2.2402835e-38
-0.025468526 0.055666104 0.156 2.3048194e-38
-0.024589742 0.055666104 0.156 2.2679052e-38
-0.027100554 0.056586731 0.156 2.2402477e-38
-0.02659839 0.056586727 0.156 2.3048554e-38
-0.025468523 0.056586731 0.156 2.3417331e-38
-0.023262603 0.056526951 0.156 2.2218796e-38
-0.022832179 0.056168266 0.156 2.0558565e-38
-0.027267938 0.057339977 0.156 2.2309923e-38
-0.02659839 0.057373457 0.156 2.3140747e-38
-0.025426678 0.057479467 0.156 2.341769e-38
-0.024506049 0.057842139 0.156 2.341769e-38
-0.023459882 0.05761198 0.156 2.3325494e-38
-0.02007029 0.057172589 0.156 1.3463091e-38
-0.024338663 0.058553528 0.156 2.341769e-38
-0.023585422 0.058176909 0.156 2.341769e-38
-0.024087582 0.059181232 0.156 2.341769e-38
-0.023459882 0.059306771 0.156 2.341769e-38
-0.021576775 0.061189879 0.156 2.341769e-38
-0.019819211 0.06144096 0.156 1.733351e-38
0.011640021 -0.018015284 0.15700001 1.4191531e-38
0.012398092 -0.018520664 0.15700001 1.3177382e-38
0.01138733 -0.017509904 0.15700001 1.4282655e-38
0.01138733 -0.016499143 0.15700001 1.3546177e-38
0.01138733 -0.015993763 0.15700001 1.317776e-38
0.02174763 0.021783421 0.15700001 1.4798477e-38
0.02200032 0.021657076 0.15700001 1.5713233e-38
0.030086407 0.031511992 0.15700001 1.3514931e-38
0.030086407 0.032270063 0.15700001 1.2967515e-38
-0.029295795 0.051600859 0.15700001 1.530413e-38
-0.029295795 0.052358933 0.15700001 1.5765107e-38
-0.02849561 0.052569497 0.15700001 1.7885605e-38
-0.027495377 0.052580036 0.15700001 1.9268541e-38
-0.026389858 0.052737966 0.15700001 1.9084148e-38
-0.029632716 0.053664494 0.15700001 1.4565842e-38
-0.027147928 0.053243347 0.15700001 1.9637685e-38
-0.026263513 0.05336969 0.15700001 1.945293e-38
-0.025758132 0.053496037 0.15700001 1.945293e-38
-0.030053865 0.054001417 0.15700001 1.3366577e-38
-0.029801175 0.054254107 0.15700001 1.4381448e-38
-0.02525275 0.054759488 0.15700001 2.0743312e-38
-0.022473158 0.054001417 0.15700001 1.7610097e-38
-0.025084289 0.055096406 0.15700001 2.1296126e-38
-0.02500006 0.056781009 0.15700001 2.341769e-38
-0.02500006 0.057286393 0.15700001 2.341769e-38
-0.024545219 0.057336926 0.15700001 2.341769e-38
-0.023989299 0.057412736 0.15700001 2.341769e-38
-0.024241989 0.058423497 0.15700001 2.341769e-38
-0.023989299 0.05880253 0.15700001 2.341769e-38
-0.023905069 0.059392143 0.15700001 2.341769e-38
-0.022220468 0.061582122 0.15700001 2.341769e-38
-0.020577982 0.061834812 0.15700001 1.8993398e-38
0.011968461 -0.01813003 0.15800001 1.400714e-38
0.012307527 -0.018299563 0.15800001 1.3546163e-38
0.011815881 -0.017519711 0.15800001 1.4098624e-38
0.011714161 -0.016434699 0.15800001 1.3546178e-38
0.02163185 0.022303618 0.15800001 1.4985748e-38
0.030786639 0.031204106 0.15800001 1.4247461e-38
-0.042705975 0.042901892 0.15800001 2.3141103e-38
-0.042451676 0.043410487 0.15800001 2.2957072e-38
-0.041943077 0.043664791 0.15800001 2.2680128e-38
-0.042324528 0.044300541 0.15800001 2.3049986e-38
-0.041943077 0.04417339 0.15800001 2.3049986e-38
-0.029228091 0.049513683 0.15800001 1.5857301e-38
-0.028719492 0.049513683 0.15800001 1.7055844e-38
-0.029228091 0.050276581 0.15800001 1.5949855e-38
-0.02854996 0.050403729 0.15800001 1.7609375e-38
-0.027702292 0.050429158 0.15800001 1.8623168e-38
-0.026939394 0.05078518 0.15800001 1.8623167e-38
-0.029431531 0.051598944 0.15800001 1.5396324e-38
-0.02854996 0.051548082 0.15800001 1.7701213e-38
-0.027617527 0.051548082 0.15800001 1.8899757e-38
-0.026685094 0.051632851 0.15800001 1.880756e-38
-0.029431531 0.0524127 0.15800001 1.5672911e-38
-0.028528769 0.052183829 0.15800001 1.7885605e-38
-0.027490377 0.052353363 0.15800001 1.9084149e-38
-0.026600327 0.052480511 0.15800001 1.8991952e-38
-0.025858622 0.05256528 0.15800001 1.9084148e-38
-0.030245291 0.053836778 0.15800001 1.2997794e-38
-0.02956716 0.053412944 0.15800001 1.5303767e-38
-0.026176495 0.053073879 0.15800001 1.9176343e-38
-0.025625512 0.053497713 0.15800001 1.9268539e-38
-0.022361999 0.053836778 0.15800001 1.5121894e-38
-0.025604321 0.0545361 0.15800001 2.0190137e-38
-0.024396397 0.057396974 0.15800001 2.341769e-38
-0.021599101 0.062228668 0.15800001 2.2772684e-38
-0.019691853 0.062991567 0.15800001 1.5950936e-38
-0.019691853 0.063245863 0.15800001 1.6043131e-38
0.022152625 0.02270069 0.15900001 1.4798477e-38
0.030725583 0.031785466 0.15900001 1.3606048e-38
-0.042208541 0.043685239 0.15900001 2.2680131e-38
-0.041952632 0.043685239 0.15900001 2.2772326e-38
-0.042208541 0.044836834 0.15900001 2.3142182e-38
-0.041952632 0.044708878 0.15900001 2.2957791e-38
-0.042720359 0.045732513 0.15900001 2.3234378e-38
-0.038369901 0.047523879 0.15900001 1.4107742e-38
-0.038267534 0.048240423 0.15900001 1.3646764e-38
-0.030180808 0.049827058 0.15900001 1.355241e-38
-0.029566625 0.049571145 0.15900001 1.5304127e-38
-0.028499121 0.049498033 0.15900002 1.7609737e-38
-0.027658274 0.049644265 0.15900002 1.7702648e-38
-0.026853988 0.049827058 0.15900001 1.7332784e-38
-0.029924897 0.050594788 0.15900001 1.4658758e-38
-0.02749376 0.050594788 0.15900001 1.8346581e-38
-0.026683383 0.05068009 0.15900002 1.8162547e-38
-0.030180806 0.051533122 0.15900001 1.3645327e-38
-0.029796943 0.051106606 0.15900001 1.502754e-38
-0.02639335 0.051490467 0.15900002 1.8623166e-38
-0.025574442 0.051746376 0.15900001 1.8439133e-38
-0.02608626 0.05238615 0.15900001 1.8991949e-38
-0.025510464 0.052642062 0.15900001 1.8899754e-38
-0.030351415 0.053239185 0.15900001 1.2999235e-38
-0.025420899 0.053409792 0.15900001 1.9176343e-38
-0.023079328 0.053601723 0.15900001 1.6871449e-38
-0.025318533 0.054506544 0.15900002 1.9544766e-38
-0.023399215 0.054497406 0.15900001 1.8439497e-38
-0.025190579 0.055201154 0.15900001 2.0097942e-38
-0.023271259 0.055201154 0.15900001 1.8715365e-38
-0.022503531 0.062622525 0.15900001 2.341769e-38
-0.020328304 0.06287843 0.15900001 1.7518264e-38
-0.020200349 0.063902065 0.15900001 1.7794488e-38
-0.020200349 0.06441389 0.15900001 1.7886684e-38
0.012119961 -0.01720069 0.16000001 1.38224e-38
0.012119961 -0.016428135 0.16000001 1.336215e-38
0.031433862 0.030569021 0.16000001 1.4519009e-38
0.031305104 0.031599097 0.16000001 1.4063787e-38
0.031176344 0.032114133 0.16000001 1.3607127e-38
0.030403789 0.033401728 0.16000001 1.3064037e-38
-0.043761596 0.038680859 0.16000001 1.7333867e-38
-0.042783026 0.04282691 0.16000001 2.2404623e-38
-0.042680018 0.043547966 0.16000001 2.2587934e-38
-0.041958965 0.043831229 0.16000001 2.2680132e-38
-0.03938378 0.043573711 0.16000001 1.6136407e-38
-0.041958965 0.044475026 0.16000001 2.2772685e-38
-0.0429032 0.045590941 0.16000001 2.3234378e-38
-0.039126258 0.047565252 0.16000001 1.6503749e-38
-0.039126258 0.048852846 0.16000001 1.632044e-38
-0.039126258 0.0496254 0.16000001 1.632044e-38
-0.038482461 0.049539555 0.16000001 1.3001756e-38
-0.029598067 0.04945372 0.16000001 1.5764745e-38
-0.028439233 0.049367882 0.16000001 1.751826e-38
-0.027537918 0.0496254 0.16000001 1.7057273e-38
-0.039212096 0.050483797 0.16000001 1.6597027e-38
-0.03886874 0.05014044 0.16000001 1.5307007e-38
-0.026507843 0.050784238 0.16000001 1.7793762e-38
-0.025992807 0.050912995 0.16000001 1.7057273e-38
-0.026250325 0.051170513 0.16000001 1.8070349e-38
-0.025735289 0.051428031 0.16000001 1.7517175e-38
-0.025220251 0.052543949 0.16000001 1.8346579e-38
-0.024962731 0.05297314 0.16000001 1.8530971e-38
-0.025220251 0.05348818 0.16000001 1.8899755e-38
-0.024962731 0.05348818 0.16000001 1.880756e-38
-0.02341762 0.053230658 0.16000001 1.6226081e-38
-0.025220251 0.054389492 0.16000001 1.9268179e-38
-0.024791053 0.054561172 0.16000001 1.9175983e-38
-0.023932656 0.054775771 0.16000001 1.8807561e-38
-0.024447694 0.055290811 0.16000001 1.9175983e-38
-0.022516303 0.063273884 0.16000001 2.341769e-38
-0.02142185 0.063402645 0.16000001 2.1206447e-38
0.012817618 -0.017385934 0.16100001 1.2993718e-38
0.012713967 -0.016660376 0.16100001 1.2994085e-38
0.031826787 0.031994086 0.162 1.4247461e-38
0.031588547 0.032534495 0.16166668 1.3423454e-38
0.032087523 0.032254823 0.162 1.3881553e-38
-0.049001895 0.040728793 0.162 1.7149119e-38
-0.048480418 0.040728793 0.162 1.8439857e-38
-0.049001895 0.04138064 0.162 1.7610097e-38
-0.048480418 0.041511007 0.162 1.8716444e-38
-0.042739466 0.0429391 0.16100001 2.2219875e-38
-0.042481378 0.04363424 0.16133334 2.2495742e-38
-0.04157339 0.043846048 0.16100001 2.1942574e-38
-0.039434183 0.043500476 0.16171429 1.456908e-38
-0.042221963 0.044500872 0.16150001 2.2680491e-38
-0.041702952 0.044493869 0.16100001 2.2403551e-38
-0.040658288 0.044509493 0.162 1.8164352e-38
-0.03954355 0.044234738 0.16100001 1.6043853e-38
-0.038852543 0.044493869 0.16100001 1.3554571e-38
-0.04235233 0.045542218 0.16150001 2.2957791e-38
-0.040136814 0.04542207 0.162 1.733351e-38
-0.03955825 0.045281075 0.16150001 1.5951656e-38
-0.040136814 0.046334654 0.162 1.7334592e-38
-0.039370801 0.046437327 0.16100001 1.6134967e-38
-0.039370798 0.047473844 0.16100001 1.6134967e-38
-0.030437371 0.047638342 0.162 1.4291413e-38
-0.029863749 0.047638338 0.162 1.3462371e-38
-0.039794024 0.048840791 0.16166668 1.6965808e-38
-0.030466061 0.048716243 0.16159999 1.4105584e-38
-0.029531496 0.048670545 0.16174997 1.6319357e-38
-0.030531649 0.049503677 0.16100001 1.3460214e-38
-0.0292648 0.049158175 0.16100001 1.6964367e-38
-0.028487414 0.049158175 0.16100001 1.7057638e-38
-0.040148184 0.050972071 0.16100001 1.8163996e-38
-0.03911167 0.050583377 0.16100001 1.5214452e-38
-0.027191773 0.050194688 0.16100001 1.6872885e-38
-0.040399503 0.051381469 0.1618 1.8348752e-38
-0.039579444 0.051520675 0.16150001 1.6228246e-38
-0.026317716 0.051158298 0.162 1.4291407e-38
-0.040136814 0.052331619 0.162 1.7518627e-38
-0.025399361 0.052423459 0.1618 1.7332784e-38
-0.024157025 0.053859264 0.16150001 1.7609734e-38
-0.025014028 0.054417521 0.162 1.880756e-38
-0.024521859 0.054539084 0.16133334 1.8715364e-38
-0.021624438 0.065629236 0.162 2.1296493e-38
0.032416768 0.031929228 0.163 1.4061628e-38
0.032495476 0.032401454 0.163 1.3696443e-38
-0.040122222 0.042160768 0.163 1.3463094e-38
-0.043008044 0.043997198 0.163 2.2312071e-38
-0.042745695 0.043997198 0.163 2.2312074e-38
-0.039466359 0.043603677 0.163 1.3002116e-38
-0.039335184 0.044390716 0.163 1.3186507e-38
-0.040909264 0.045308933 0.163 1.85317e-38
-0.04327039 0.046620671 0.163 2.3234378e-38
-0.029628336 0.048194751 0.163 1.3554565e-38
-0.040734366 0.050730776 0.163 1.8532782e-38
-0.040122222 0.052654654 0.163 1.6689585e-38
-0.039466359 0.052654654 0.163 1.4108464e-38
-0.025430782 0.0534417 0.163 1.7978153e-38
-0.02490609 0.053529147 0.163 1.7424624e-38
-0.024906088 0.054228738 0.163 1.834658e-38
0.033011582 0.032257095 0.164 1.3693924e-38
-0.050134771 0.03898799 0.164 1.5119736e-38
-0.049518868 0.03898799 0.164 1.6134967e-38
-0.048814986 0.03898799 0.164 1.751898e-38
-0.049518868 0.039515901 0.164 1.6688499e-38
-0.048814986 0.039515901 0.164 1.8163271e-38
-0.044063766 0.043475252 0.164 2.2312071e-38
-0.041160241 0.043739207 0.164 1.7611179e-38
-0.040368371 0.043409266 0.164 1.5305926e-38
-0.04129222 0.044267122 0.164 1.8256911e-38
-0.0414242 0.045850862 0.164 1.9269265e-38
-0.045119591 0.046906687 0.164 2.3234378e-38
-0.0414242 0.046246797 0.164 1.9085953e-38
-0.041160241 0.047170643 0.164 1.8440583e-38
-0.041160241 0.050470099 0.164 1.9177797e-38
-0.04221607 0.051921863 0.164 2.3049986e-38
-0.040368371 0.053241644 0.164 1.6781422e-38
0.013560975 -0.010169579 0.16500001 1.3366468e-38
0.013454748 -0.0094259931 0.16500001 1.3643417e-38
0.014324478 -0.0093396837 0.16500001 1.3182054e-38
0.014534716 -0.008664703 0.16500001 1.3366797e-38
0.032947306 0.031657085 0.16500001 1.387472e-38
0.032681737 0.033383265 0.16500001 1.3332695e-38
-0.048581507 0.037897889 0.16500001 1.5213008e-38
-0.048581507 0.038732525 0.16500001 1.770337e-38
-0.048647895 0.039358504 0.16500001 1.8348381e-38
-0.048847072 0.040022418 0.16500001 1.880864e-38
-0.046456978 0.041084681 0.16500001 2.0560728e-38
-0.046368454 0.042589556 0.16500001 2.2588661e-38
-0.04566028 0.04257185 0.16500001 2.2771972e-38
-0.044598013 0.042678077 0.16500001 2.1667066e-38
-0.046191409 0.04320921 0.16500001 2.314075e-38
-0.045571756 0.043341994 0.16500001 2.3141107e-38
-0.044598013 0.043341994 0.16500001 2.2403905e-38
-0.041145653 0.043607559 0.16500001 1.6964727e-38
-0.048448723 0.044404257 0.16500001 2.1944375e-38
-0.043624271 0.047369748 0.16500001 2.3142182e-38
-0.044598013 0.048387751 0.16500001 2.3234378e-38
-0.044332448 0.049317233 0.16500001 2.3234378e-38
-0.041411221 0.050113931 0.16500001 1.8901208e-38
-0.042207919 0.052238457 0.16500001 2.1759626e-38
-0.040415347 0.053765465 0.16500001 1.5860183e-38
-0.040348954 0.054362986 0.16500001 1.5675432e-38
-0.039817821 0.05449577 0.16500001 1.3094312e-38
0.012841634 -0.0094296848 0.16600001 1.3459758e-38
0.013375987 -0.0091625098 0.16600001 1.3643417e-38
0.013821279 -0.0087172166 0.16600001 1.3459725e-38
0.014177514 -0.0083609829 0.16600001 1.3552266e-38
-0.046738535 0.041066505 0.16600001 2.0375613e-38
-0.047005709 0.042669561 0.16600001 2.2219525e-38
-0.044868305 0.042669561 0.16600001 2.1114257e-38
-0.047005709 0.043604672 0.16600001 2.2771973e-38
-0.046738535 0.043738261 0.16600001 2.3048556e-38
-0.044333953 0.044005439 0.16600001 2.2312071e-38
-0.049143113 0.046410017 0.16600001 2.3049632e-38
-0.048608765 0.046543606 0.16600001 2.3234378e-38
-0.042730898 0.046142843 0.16600001 2.1666704e-38
-0.049143113 0.047745895 0.16600001 2.3234379e-38
-0.048608765 0.047478721 0.16600001 2.3325854e-38
-0.045937005 0.047211546 0.16600001 2.3234378e-38
-0.042196546 0.047478721 0.16600001 2.0191224e-38
-0.049143113 0.048280247 0.16600001 2.3234379e-38
-0.048532426 0.048394751 0.16600001 2.3325854e-38
-0.044667922 0.048347041 0.16600001 2.3234378e-38
-0.044400744 0.049415745 0.16600001 2.3234378e-38
-0.041929372 0.049749713 0.16600001 1.9546578e-38
-0.044267159 0.050618034 0.16600001 2.3234378e-38
-0.044066776 0.05121918 0.16600001 2.3234378e-38
-0.04255278 0.051575411 0.16600001 2.2220233e-38
-0.042730898 0.05228788 0.16600001 2.3049986e-38
0.01318778 -0.008680135 0.16700001 1.3183499e-38
0.014531706 -0.0081425654 0.16700001 1.3367872e-38
0.033346664 0.032443985 0.16700001 1.4243861e-38
-0.049237568 0.040574733 0.16700001 1.9361815e-38
-0.047557663 0.040668808 0.16700001 1.9269621e-38
-0.046751305 0.040776324 0.16700001 1.9177425e-38
-0.049304765 0.041313894 0.16700001 1.9914992e-38
-0.048525285 0.041475166 0.16700001 2.0560368e-38
-0.047602456 0.041627478 0.16700001 2.0560731e-38
-0.046616912 0.041313894 0.16700001 2.000683e-38
-0.045272987 0.041851465 0.16700001 1.9822442e-38
-0.047468066 0.042747412 0.16700001 2.1851106e-38
-0.046751305 0.042657819 0.16700001 2.2403914e-38
-0.045272987 0.042120248 0.16700001 2.0283064e-38
-0.047826447 0.043464176 0.16700001 2.2126972e-38
-0.042988315 0.046958379 0.16700001 2.1574509e-38
-0.044063453 0.04749595 0.16700001 2.3142182e-38
-0.042988315 0.04749595 0.16700001 2.1666702e-38
-0.044197846 0.048839875 0.16700001 2.3234378e-38
-0.045407381 0.049646229 0.16700001 2.3234378e-38
-0.04433224 0.049243055 0.16700001 2.3234378e-38
-0.045138594 0.050452586 0.16700001 2.3234378e-38
-0.04433224 0.050452586 0.16700001 2.3234378e-38
-0.042450745 0.050452586 0.16700001 2.129649e-38
-0.044063453 0.051662117 0.16700001 2.3234378e-38
