# .PCD v0.7 - Point Cloud Data file format
VERSION 0.7
FIELDS x y z rgb
SIZE 4 4 4 4
TYPE F F F F
COUNT 1 1 1 1
WIDTH 975
HEIGHT 1
VIEWPOINT 0 0 0 1 0 0 0
POINTS 975
DATA ascii
-0.012647253 -0.0060715429 0.11000001 1.262931e-38
-0.012425948 -0.0054076272 0.11000001 1.2721859e-38
-0.011791539 -0.0051273075 0.11000001 1.2353411e-38
-0.012425948 -0.0045224065 0.11000001 1.2537108e-38
-0.012425949 -0.0039470135 0.11000001 1.2537106e-38
-0.012422786 -0.0058408929 0.11100002 1.2629655e-38
-0.011856199 -0.0057183877 0.11100001 1.2814392e-38
-0.012524024 -0.0037446909 0.11100001 1.3274318e-38
-0.011885757 -0.006452329 0.112 1.3366128e-38
0.032716479 0.023484217 0.112 1.2538157e-38
-0.011810007 -0.0056005763 0.11300001 1.2905854e-38
-0.011991879 -0.0031452968 0.11300001 1.3180332e-38
0.032385029 0.023499031 0.11300001 1.2538509e-38
-0.011833942 -0.0069027967 0.115 1.3182086e-38
-0.012685432 -0.0043487544 0.11433333 1.2168303e-38
-0.012336154 -0.0036489726 0.1145 1.2351993e-38
-0.011507267 -0.001436324 0.11450001 1.3088851e-38
-0.010446663 0.00034743056 0.11399999 1.3087779e-38
-0.0096126543 0.00037974835 0.11400001 1.3087773e-38
-0.0098962169 0.0010469558 0.11400001 1.3732083e-38
0.032588031 0.022804394 0.115 1.2077517e-38
0.032398578 0.023468895 0.11433334 1.216935e-38
0.038176086 0.023798728 0.11400001 1.2079707e-38
0.038428344 0.024436874 0.11428572 1.2170817e-38
0.0313778 0.025336457 0.116 1.3361423e-38
0.039485957 0.025816545 0.116 1.207861e-38
0.035796389 0.027452402 0.116 1.2722557e-38
0.035485219 0.029150495 0.116 1.2538495e-38
-0.012792991 -0.006269603 0.11700001 1.2906598e-38
0.030895054 0.024895787 0.11700001 1.3453261e-38
0.031477105 0.024613323 0.11699999 1.2349067e-38
0.030819729 0.025441889 0.11700001 1.2347994e-38
0.031271674 0.025492104 0.11700001 1.2716775e-38
0.039369028 0.02564903 0.11700001 1.2539236e-38
0.035979439 0.02687305 0.11700001 1.2998779e-38
0.034425877 0.028567845 0.11700001 1.2631041e-38
0.03428464 0.029132776 0.11700001 1.2170409e-38
0.030845314 0.024642119 0.11850002 1.2993368e-38
0.030543886 0.025262911 0.11836365 1.2808613e-38
0.034721475 0.028566755 0.11816668 1.2538841e-38
0.030914679 0.024471877 0.12 1.2256167e-38
0.030238692 0.025534142 0.12 1.22558e-38
0.035451695 0.027594317 0.1225 1.2261178e-38
0.024361243 0.022892682 0.12400001 1.2258332e-38
0.025658496 0.02344152 0.12399998 1.2349806e-38
0.027713295 0.024486138 0.12492308 1.235016e-38
0.028578026 0.024531083 0.1248889 1.2441996e-38
0.030248765 0.024788663 0.12400001 1.2165053e-38
0.028581435 0.025089165 0.125 1.2810058e-38
0.029540939 0.025367733 0.125 1.2717861e-38
0.030299438 0.025376411 0.12485714 1.2717502e-38
0.035537556 0.026884222 0.12400001 1.2447013e-38
0.029012883 0.025695471 0.126 1.2072855e-38
0.0046465104 -0.0036483735 0.13000001 1.2068183e-38
0.0052791941 -0.0036533552 0.13000001 1.2807181e-38
0.014869083 0.027557371 0.13000001 1.2352652e-38
0.01533986 0.027400445 0.13000001 1.2535597e-38
-0.0028679504 -0.012150335 0.13100001 1.3180717e-38
-0.0026547892 -0.011405895 0.13146155 1.3088517e-38
-0.0061474545 -0.0098352861 0.132 1.3549815e-38
-0.0054600835 -0.0087158289 0.13172726 1.2996969e-38
-0.0015266035 -0.0085605681 0.13199998 1.2350944e-38
-0.0040229252 -0.00792321 0.132 1.3087783e-38
-0.0031731136 -0.0068609454 0.132 1.327327e-38
0.0027047507 -0.0035797283 0.13199998 1.4191259e-38
0.0035110405 -0.0034060897 0.13136365 1.4466013e-38
0.0044764294 -0.0030840684 0.13100003 1.4832617e-38
0.0055256267 -0.0031945102 0.13100003 1.4649655e-38
0.0063430462 -0.0034373912 0.13108335 1.3452179e-38
0.0071308538 -0.003461699 0.13199998 1.2715329e-38
0.014456352 0.027558506 0.13100001 1.2629235e-38
0.0044220784 0.040409822 0.13199998 1.2080087e-38
-0.0064080884 -0.0092676086 0.133 1.2720351e-38
-0.0063010575 -0.0084648747 0.133 1.2904743e-38
-0.0055518388 -0.0081972964 0.133 1.253597e-38
-0.0049096514 -0.0081972964 0.133 1.207502e-38
-0.00626538 -0.0079118796 0.133 1.3273531e-38
-0.0055518383 -0.0078762025 0.133 1.2443771e-38
-0.0013776217 -0.0074480786 0.133 1.3365117e-38
0.014570029 0.027604636 0.133 1.2997294e-38
-0.0054857465 -0.0072884071 0.134 1.235157e-38
-0.0053779096 -0.0069648991 0.134 1.2259373e-38
-0.00038664599 -0.0062562628 0.134 1.2627906e-38
-0.0024912246 -0.0054883761 0.13400003 1.3088865e-38
-0.00041745626 -0.0054012779 0.13400002 1.3641708e-38
0.0017392628 -0.0038376567 0.134 1.2720107e-38
-0.024249097 -0.038631316 0.13500001 1.2169816e-38
-0.023452399 -0.037870832 0.13500001 1.2446765e-38
-0.0071562952 -0.010167455 0.13500001 1.28129e-38
-0.0062871696 -0.0070168758 0.13500001 1.3273891e-38
-0.0064320234 -0.0065823137 0.13500001 1.3182051e-38
-0.0056042853 -0.006427112 0.13500001 1.262851e-38
-0.0024847449 -0.0050613433 0.13500001 1.2443484e-38
0.00030369972 -0.0051337704 0.13500001 1.2811942e-38
1.3991204e-05 -0.004844062 0.13500001 1.3549153e-38
0.001534961 -0.0033230926 0.13500001 1.3732099e-38
0.0042292499 0.0054985308 0.13500001 2.2916338e-38
0.0005571947 0.0068891319 0.13500001 2.2446369e-38
0.0041423375 0.0062372875 0.13500001 2.3190052e-38
0.0066048601 0.0067442781 0.13500001 2.3465924e-38
0.0005571947 0.0071064131 0.13500001 2.2168347e-38
0.0036534546 0.0077039367 0.13500001 2.2446017e-38
0.0043596188 0.0074866558 0.13500001 2.2998471e-38
0.0066410736 0.0071064131 0.13500001 2.3277576e-38
0.0034904932 0.0084721828 0.13500001 2.1245317e-38
0.0043596188 0.0084825298 0.13500001 2.0781458e-38
0.0058805887 0.0088446643 0.13500001 2.2716486e-38
0.0065324334 0.0085653039 0.13500001 2.0691779e-38
0.0033818528 0.0092792269 0.13500001 2.1150246e-38
0.0045769005 0.0090619456 0.13500001 1.9580395e-38
0.0058805887 0.0094421878 0.13500001 2.1512909e-38
0.006532433 0.0094421888 0.13500001 2.0872215e-38
0.0058805887 0.010256993 0.13500001 1.9759399e-38
0.0064962194 0.010293207 0.13500001 2.0405847e-38
0.006532433 0.011017478 0.13500001 1.9021476e-38
0.013920002 0.027965423 0.13500001 1.2720717e-38
-0.025158357 -0.038808029 0.13600001 1.2723351e-38
-0.022641111 -0.037604127 0.13600001 1.2446765e-38
-0.00731875 -0.011337224 0.13600001 1.3364286e-38
-0.002174814 -0.004879944 0.13600001 1.354984e-38
0.00056132209 -0.0046245717 0.13600002 1.299598e-38
0.0011085493 -0.0043874392 0.13600001 1.244316e-38
0.0012179947 -0.0033477079 0.13600001 1.3364038e-38
0.0072374945 -0.0035665988 0.13600001 1.299084e-38
0.0013274401 -0.0026910356 0.13600001 1.4466781e-38
0.010630304 -0.0024174219 0.13600002 1.2163229e-38
0.010666785 -0.0016695448 0.13600001 1.4465601e-38
0.011571534 -0.0017279157 0.13600001 1.299083e-38
0.012600322 -0.001450654 0.13600002 1.3175584e-38
0.01358533 -0.0014506539 0.13600002 1.2162159e-38
0.014570341 -0.00050212699 0.13600002 1.4189037e-38
0.015664795 -0.00050212705 0.13600002 1.2346203e-38
-0.0025396321 0.0038756905 0.13600001 1.3728864e-38
-0.0016640687 0.0038756905 0.13600001 1.6568919e-38
-0.00035072331 0.0037297632 0.13600001 2.1166431e-38
-0.0032692687 0.0045323633 0.13600002 1.3549153e-38
-0.0025396321 0.0045323633 0.13600002 1.3822501e-38
-0.0015181415 0.0045323628 0.13600002 1.7121013e-38
-0.00056961417 0.0045323628 0.13600002 2.0425995e-38
0.0003971539 0.0045323633 0.13600002 2.2915264e-38
-0.0025396321 0.0054808902 0.13600002 1.4006892e-38
-0.0015181415 0.0054808897 0.13600002 1.6938065e-38
-0.00056961423 0.0054808897 0.13600002 2.0332723e-38
0.0003971539 0.0054808897 0.13600002 2.2910589e-38
0.0015463311 0.0054808897 0.13600002 2.3007819e-38
0.0045560808 0.0054079262 0.13600001 2.2823064e-38
-0.0025396324 0.0064476584 0.13600002 1.4007609e-38
-0.0015181415 0.0064476589 0.13600002 1.6752955e-38
-0.00056961417 0.0064476584 0.13600002 1.9503325e-38
0.00040497142 0.0063773012 0.13600002 2.2448171e-38
0.0015463312 0.0064476589 0.13600002 2.3371922e-38
0.0024948583 0.0064476584 0.13600002 2.3280451e-38
0.003422539 0.0064867465 0.13600002 2.3375166e-38
0.0044118115 0.0064625819 0.13600002 2.2911667e-38
0.0054316451 0.0064476589 0.13600002 2.2818034e-38
-0.002174814 0.007450908 0.13600001 1.4007249e-38
-0.0016056979 0.0074217231 0.13600002 1.6110825e-38
-0.00042368696 0.007377944 0.13600001 1.9132023e-38
0.00040809848 0.0075092786 0.13600002 2.0970171e-38
0.0015463311 0.0074509084 0.13600002 2.3181777e-38
0.0024948583 0.0074509075 0.13600002 2.2814078e-38
0.0032349178 0.0074092145 0.13600002 2.2906995e-38
0.0046108034 0.0078157261 0.13600001 2.2995952e-38
0.0054266695 0.0074575413 0.13600002 2.2906994e-38
0.006330661 0.0075342949 0.13600002 2.1615892e-38
0.0071280487 0.007450908 0.13600002 2.3277936e-38
-0.0017370323 0.0080346167 0.13600001 1.5195351e-38
-0.00020479604 0.0080346167 0.13600001 1.922062e-38
0.0003971539 0.0084176753 0.13600002 1.9218462e-38
0.0015171455 0.0083848415 0.13600002 2.161122e-38
0.0027137492 0.0085088797 0.13600002 2.2166196e-38
0.0030785673 0.008144062 0.13600001 2.2260908e-38
0.0053988108 0.0083848415 0.13600002 2.2716127e-38
0.006307208 0.0080893394 0.13600001 2.1338586e-38
0.0071280487 0.0084176753 0.13600002 2.1797765e-38
0.00052484026 0.0091290707 0.13600001 1.8296149e-38
0.0011085493 0.0091290707 0.13600001 1.8753168e-38
0.0026407856 0.0093479613 0.13600002 2.0136093e-38
0.0036914616 0.0093479622 0.13600001 2.0044617e-38
0.0043606423 0.0094105015 0.13600002 1.9029025e-38
0.0052674762 0.0093479613 0.13600002 2.0683507e-38
0.0071280487 0.0093479613 0.13600002 2.0689262e-38
0.0027137492 0.010296488 0.13600002 1.8384379e-38
0.0034616266 0.01033297 0.13600002 1.9121223e-38
0.0043919128 0.010332969 0.13600002 1.8751721e-38
0.0053179902 0.010358226 0.13600002 1.8472255e-38
0.00614304 0.010661307 0.13600001 1.9023992e-38
0.0070186034 0.010332971 0.13600001 2.0132856e-38
0.0028596765 0.011099089 0.13600001 1.764502e-38
0.0034871637 0.011449313 0.13600002 1.7460627e-38
0.0043919128 0.011482148 0.13600002 1.8012721e-38
0.0054279962 0.011449314 0.13600002 1.7827968e-38
0.0063400418 0.01155876 0.13600002 1.7733256e-38
0.0070186034 0.011609834 0.13600001 1.855942e-38
0.0036987581 0.01233947 0.13600002 1.699929e-38
0.0043189488 0.01233947 0.13600002 1.7091126e-38
0.0063892924 0.012385074 0.13600002 1.6903858e-38
0.0070186034 0.012412434 0.13600001 1.727228e-38
0.0065078582 0.013142071 0.13600001 1.6351763e-38
0.0070186034 0.013069106 0.13600001 1.662835e-38
0.015336458 0.028610358 0.13600001 1.2813266e-38
-0.025563847 -0.039534383 0.13700001 1.2262373e-38
-0.022182843 -0.038505379 0.13700001 1.2170178e-38
-0.022403339 -0.037917379 0.13700001 1.2446765e-38
-0.0072623142 -0.011751337 0.13700001 1.3732003e-38
-0.0024113057 -0.0044748257 0.13700001 1.2442038e-38
0.00034494905 -0.0041808258 0.13700001 1.3365121e-38
0.00078594981 -0.0034825741 0.13700001 1.3180728e-38
0.0070702108 -0.0033723239 0.13700001 1.4004271e-38
0.0081727123 -0.0031518233 0.13700001 1.2253275e-38
0.0086872131 -0.0026373223 0.13700001 1.2805008e-38
0.010157216 -0.0024351971 0.13700001 1.2808238e-38
0.011354218 -0.0012618203 0.13700001 1.4649994e-38
-0.0024428058 0.0017306845 0.13700001 1.3167363e-38
-0.001455804 0.0018461846 0.13700001 1.6844391e-38
-0.0042304341 0.0024158107 0.13700001 1.2995614e-38
-0.0034035577 0.0024341855 0.13699999 1.244027e-38
-0.0024113057 0.0024341857 0.13700001 1.35358e-38
-0.001474179 0.0024341857 0.13699999 1.7209939e-38
-0.00053705246 0.0024709357 0.13700001 2.006584e-38
-0.0041753086 0.0034631873 0.13700001 1.3641348e-38
-0.0034256077 0.0034337868 0.13699999 1.3088172e-38
-0.0024113057 0.0033161868 0.13700001 1.381637e-38
-0.0014444962 0.0033614177 0.13699999 1.7484376e-38
-0.00055280252 0.003211187 0.13700001 2.0246994e-38
-0.0042855591 0.0044186884 0.13700001 1.3733545e-38
-0.0037343078 0.004124688 0.13700001 1.3733545e-38
-0.0041753086 0.0050066896 0.13700001 1.3549153e-38
-0.0036240579 0.0053925654 0.13700001 1.3733545e-38
-0.0010883034 0.0076526944 0.13700001 1.8031443e-38
-0.00086780306 0.0078731943 0.13700001 1.7754138e-38
0.007731712 0.0075056939 0.13700001 2.3370846e-38
-0.0032933077 0.0084745595 0.13699999 1.3733545e-38
-0.0024113059 0.00847957 0.13699999 1.3916854e-38
-0.001441104 0.008505296 0.13699999 1.6475286e-38
-0.00067880272 0.008534696 0.13700001 1.7751975e-38
0.0019987021 0.0089756958 0.13700001 2.0596712e-38
0.0022192025 0.0082039451 0.13700001 2.2625729e-38
0.007731712 0.008479571 0.13700001 2.2995587e-38
-0.0031463068 0.0092696967 0.13700001 1.3365122e-38
-0.0024113057 0.0094166975 0.13700001 1.3457317e-38
-0.0014741792 0.0094166985 0.13699999 1.5650927e-38
-0.00050030241 0.0094166975 0.13700001 1.7566864e-38
0.00051032432 0.0095269475 0.13700001 1.8019202e-38
0.0016579286 0.0094367443 0.13699999 1.9213781e-38
0.007731712 0.0096371975 0.13700001 2.0136806e-38
-0.0022643053 0.010151698 0.13700001 1.318109e-38
-0.0013936117 0.010349583 0.13699999 1.4551421e-38
-0.00050030241 0.010408949 0.13699999 1.664707e-38
0.00051032437 0.010408949 0.13699999 1.7925928e-38
0.0016128264 0.010408948 0.13699999 1.8290749e-38
0.0022192025 0.010519199 0.13700001 1.8383302e-38
0.0074377111 0.010335448 0.13700001 1.9397087e-38
-0.00050030241 0.0111807 0.13700001 1.5546846e-38
0.00064419955 0.0113067 0.13700001 1.7556787e-38
0.0016128264 0.0114012 0.13699999 1.76461e-38
0.0023956026 0.011445301 0.13700001 1.7553543e-38
0.0068497104 0.0111807 0.13700001 1.9297344e-38
0.0072355857 0.011346075 0.13700001 1.9297703e-38
0.00089620001 0.012062701 0.13700001 1.7095808e-38
0.0015209512 0.012136201 0.13700001 1.7369155e-38
0.0026287031 0.012220202 0.13700001 1.7368433e-38
0.0032482042 0.012650702 0.13700001 1.7183682e-38
0.0047770068 0.012547801 0.13700001 1.7365915e-38
0.0054385075 0.012525752 0.13699999 1.7364477e-38
0.0074377111 0.012319952 0.13700001 1.8099163e-38
0.012141719 0.012503702 0.13700001 1.7462421e-38
0.0037827506 0.013465885 0.13699999 1.6907095e-38
0.0045712069 0.013495955 0.13699999 1.6446117e-38
0.0054440205 0.013303016 0.13700001 1.6720906e-38
0.0064969091 0.013518004 0.13700001 1.6351764e-38
0.0071804607 0.013275453 0.13700001 1.6536514e-38
0.0046447068 0.014267704 0.13700001 1.6261728e-38
0.014264036 0.027607977 0.13700001 1.2721079e-38
0.013685222 0.028159225 0.13700001 1.2444136e-38
0.014456973 0.028159225 0.13700001 1.2905104e-38
0.015228724 0.028379725 0.13700001 1.3181685e-38
-0.025417279 -0.040156119 0.13800001 1.2077979e-38
-0.026527826 -0.039822955 0.13800001 1.272299e-38
-0.021974577 -0.038712405 0.13800001 1.2170178e-38
-0.0026510165 -0.0042853788 0.13800001 1.2072528e-38
-0.0018736318 -0.0042853788 0.13800001 1.3917196e-38
0.00068063173 -0.0031748293 0.13800001 1.3364398e-38
0.00068063173 -0.0025825363 0.13800001 1.3914689e-38
0.0086765876 -0.002197546 0.13800001 1.5386487e-38
0.0095206033 -0.0024196557 0.13800001 1.2898643e-38
0.0096982922 -0.0015312165 0.13800001 1.5569446e-38
-0.0027250533 0.00063805631 0.13800001 1.2342994e-38
-0.001584889 0.00077872584 0.13800001 1.5375017e-38
-0.00057799084 0.00082314783 0.13800001 1.7768148e-38
0.00049025181 0.00063276797 0.13800001 1.8968127e-38
-0.0047610598 0.0014894775 0.13800001 1.2258035e-38
-0.0025954889 0.0011007852 0.13800001 1.270926e-38
-0.0016885402 0.0012180099 0.13800001 1.5466133e-38
-0.00054097257 0.0014894773 0.13800001 1.8963811e-38
-0.0046500051 0.0024889717 0.13800001 1.3365117e-38
-0.0039836755 0.0057095643 0.13800001 1.3733545e-38
0.0077881478 0.0068201139 0.13800001 2.3100014e-38
0.010647812 0.0072643338 0.13800001 2.2270972e-38
0.011415943 0.0074309153 0.13800001 2.2916342e-38
0.010897686 0.0085969931 0.13800001 2.0144352e-38
0.011341905 0.0084304111 0.13800001 2.1158145e-38
-0.0037615658 0.0094450479 0.13800001 1.3549872e-38
0.0076770931 0.0093743764 0.13800001 2.1150958e-38
0.010897686 0.0092633218 0.13800001 1.9035854e-38
0.011230852 0.0093743773 0.13800001 1.9312077e-38
-0.0035394558 0.010373872 0.13800001 1.2904859e-38
-0.0027250529 0.010447908 0.13800001 1.3088894e-38
-0.0019846868 0.010595981 0.13800001 1.3088175e-38
0.0076770931 0.010595981 0.13800001 1.8935752e-38
0.01143075 0.010507138 0.13800001 1.8573077e-38
-0.001683252 0.01142096 0.13800001 1.2165852e-38
-0.00058856758 0.01157961 0.13800001 1.4907596e-38
0.00031044861 0.011632494 0.13800001 1.69125e-38
0.0076770931 0.011373365 0.13800001 1.8838163e-38
0.010897686 0.011262311 0.13800001 1.8756032e-38
0.011442864 0.011343079 0.13800001 1.8572e-38
0.012082272 0.011632494 0.13800001 1.8110663e-38
-0.00056318357 0.012506127 0.13800001 1.2890448e-38
0.00043833005 0.012514203 0.13800001 1.6361841e-38
0.0014950346 0.012669005 0.13800001 1.7185484e-38
0.0024130889 0.012728235 0.13800001 1.7183682e-38
0.0076770931 0.012706025 0.13800001 1.7822934e-38
0.011564016 0.012483914 0.13800001 1.8198184e-38
0.012008236 0.01215075 0.13800001 1.8016309e-38
-0.00167715 0.013517582 0.13800001 1.3821688e-38
-0.00054097257 0.013483412 0.13800001 1.252738e-38
0.00048073288 0.013527831 0.13800001 1.5077935e-38
0.0012976037 0.013508086 0.13800001 1.6450078e-38
0.0028462033 0.013427882 0.13800001 1.6814901e-38
0.0033459505 0.013927629 0.13800001 1.6538315e-38
0.0055670487 0.01376898 0.13800001 1.6445396e-38
0.0065110158 0.013927629 0.13800001 1.6168093e-38
0.0074179643 0.013668501 0.13800001 1.644432e-38
0.01211929 0.013372354 0.13800001 1.7552459e-38
0.0036420971 0.014519922 0.13800001 1.6261008e-38
0.0045009213 0.014638379 0.13800001 1.6261728e-38
0.0054004672 0.014538432 0.13800001 1.598622e-38
0.0066458685 0.014498769 0.13800001 1.6076617e-38
0.0073439288 0.014593959 0.13800001 1.5799671e-38
0.0046786093 0.015260288 0.13800001 1.644504e-38
0.0068997084 0.015593452 0.13800001 1.5709275e-38
0.0073121982 0.015545857 0.13800001 1.5432688e-38
0.016672542 0.02658789 0.13800001 1.244412e-38
0.013563003 0.02792055 0.13800001 1.2075363e-38
0.014599517 0.027402295 0.13800001 1.2720717e-38
0.0165837 0.027476329 0.13800001 1.2812897e-38
0.014895664 0.028142659 0.13800001 1.3181685e-38
0.015339882 0.028253714 0.13800001 1.3273881e-38
0.016394904 0.028364768 0.13800001 1.2904733e-38
0.015339883 0.029031098 0.13800001 1.2813266e-38
0.016339377 0.029216191 0.13800001 1.2259373e-38
-0.027307298 -0.040644549 0.13960001 1.2538597e-38
-0.026591649 -0.040592998 0.13950001 1.226201e-38
-0.025937041 -0.040558964 0.13900001 1.2077619e-38
-0.017110484 -0.03386556 0.14 1.2446762e-38
-0.0024599442 -0.0041162679 0.1398 1.262571e-38
-0.0033654235 -0.0036714992 0.14 1.2072524e-38
-0.0013374636 -0.0035963897 0.14 1.3641702e-38
-0.00049873302 -0.0034993107 0.13957143 1.3549511e-38
8.9013425e-05 -0.0034292236 0.13933335 1.336512e-38
0.007173426 -0.0031978353 0.13900001 1.4833316e-38
-0.00043614829 -0.002444709 0.14 1.3179644e-38
0.00014869958 -0.0024036742 0.13960001 1.3455153e-38
-0.0032372698 -0.0015238534 0.13933334 1.2163648e-38
-0.0024232175 -0.0013792358 0.13983333 1.2621383e-38
-0.0013374637 -0.0012830135 0.14 1.3450442e-38
-0.0005970975 -0.0014504006 0.14 1.3544818e-38
0.00044150639 -0.0014487569 0.13900003 1.5292216e-38
-0.0031176654 -0.00045727351 0.13900001 1.2161488e-38
-0.0025508688 -0.00049652578 0.13907695 1.2252239e-38
-0.0014957926 -0.00042583625 0.13940002 1.4274792e-38
-0.00059121492 -0.00040309509 0.13930002 1.5470833e-38
0.00040591467 -0.00045727353 0.13900003 1.6944884e-38
-0.0023719345 0.00030710088 0.13900001 1.243519e-38
-0.0015835898 0.0003497141 0.13900001 1.4824363e-38
-0.00058217923 0.00038167401 0.13900001 1.6848357e-38
0.00051777432 0.00026981434 0.13900001 1.8323845e-38
-0.0052936641 0.0015773686 0.13933335 1.3088873e-38
0.0083516771 0.0064119655 0.14 2.2824866e-38
0.0093849581 0.0064059896 0.13987501 2.2455357e-38
0.0083516771 0.0073696142 0.14 2.281983e-38
0.0094751706 0.0073928977 0.13946155 2.0794042e-38
0.010473287 0.0078203427 0.13900001 2.0886955e-38
0.01254269 0.0076152659 0.13900001 2.2089468e-38
0.0083311917 0.0083528655 0.14 2.3182135e-38
0.0094032129 0.0083460389 0.14 2.0791162e-38
0.010520477 0.0083991624 0.13922223 2.0146511e-38
0.011647813 0.0084728571 0.13900001 2.1433655e-38
0.012254996 0.008439377 0.1398 2.2818034e-38
-0.0054294327 0.0095541673 0.13900001 1.3733543e-38
0.0082872966 0.0093975728 0.14 2.1795604e-38
0.0094783213 0.0094539048 0.14 2.1613728e-38
0.010454644 0.0094795944 0.13900001 1.9219164e-38
0.011647813 0.009442308 0.13900001 1.9680859e-38
0.012182267 0.009172244 0.14 2.087904e-38
-0.0063704029 0.010407525 0.13944444 1.2258031e-38
-0.0054294327 0.010449044 0.13900001 1.2350596e-38
-0.0045345551 0.010449045 0.13900001 1.2627909e-38
0.0082671782 0.010327054 0.14 1.9397805e-38
0.0094783222 0.010360342 0.14 2.0870057e-38
0.010558842 0.01043403 0.13910002 1.9124812e-38
0.011638459 0.010287133 0.13933334 1.8758185e-38
0.012182267 0.010186223 0.14 1.9311359e-38
-0.0062838597 0.011349199 0.13975 1.3085587e-38
-0.0054562171 0.011514097 0.13938463 1.2624976e-38
-0.00020931361 0.011791361 0.13900001 1.6734225e-38
0.0083258804 0.011550357 0.13957143 1.8102037e-38
0.0097036501 0.011312868 0.14 1.9208379e-38
0.010513967 0.011466698 0.13940001 1.9397446e-38
0.01173161 0.011200204 0.14 1.8664194e-38
-0.0043685781 0.012490388 0.139625 1.419083e-38
-0.0036396773 0.012648951 0.13900001 1.3730219e-38
-0.00020931361 0.012238799 0.13900001 1.6094972e-38
0.0083479518 0.012406589 0.13900001 1.8007684e-38
0.010879082 0.012522827 0.13966668 1.8380417e-38
0.0015804414 0.013804834 0.13900001 1.6541552e-38
0.0022236344 0.013609079 0.13900001 1.6815262e-38
0.0078445841 0.013581115 0.13900001 1.7087529e-38
0.0081263483 0.013509824 0.14 1.7455591e-38
0.010830294 0.013002834 0.14 1.7734332e-38
0.011553459 0.01349657 0.13966668 1.709076e-38
-0.0063698082 0.014429917 0.14 1.2441344e-38
-0.0057313764 0.014580137 0.14 1.3361852e-38
-0.00057461642 0.014500502 0.13950001 1.520282e-38
0.00040634294 0.014530396 0.13925001 1.3990987e-38
0.00137706 0.014557346 0.13900003 1.571467e-38
0.0024193891 0.014587851 0.13900003 1.6446838e-38
0.0032210499 0.014848858 0.13900001 1.6352125e-38
0.0057192491 0.014811572 0.13900001 1.5894385e-38
0.0063531213 0.014848858 0.13900001 1.6353564e-38
0.0077998401 0.014520736 0.13900001 1.6168093e-38
0.0081263483 0.014580137 0.14 1.6352485e-38
-0.0031400947 0.015594116 0.14 1.2533169e-38
-0.002449709 0.015613556 0.13916667 1.3177452e-38
-0.0015959264 0.015594856 0.13936365 1.4466726e-38
0.00084071519 0.015181012 0.14 1.4353294e-38
0.0015636452 0.015678614 0.14 1.5532072e-38
0.0024650905 0.01569614 0.1397 1.6078777e-38
0.0033981611 0.015566624 0.13900001 1.6535796e-38
0.004339647 0.015669163 0.13900001 1.6352123e-38
0.0054891747 0.015584596 0.13909093 1.6261367e-38
0.0063904077 0.01559459 0.13900001 1.5894382e-38
0.0078445841 0.01559459 0.13900001 1.5340132e-38
0.0081263483 0.015537784 0.14 1.5432328e-38
0.0018171403 0.016157437 0.14 1.5348757e-38
0.0029437845 0.016157437 0.14 1.6352845e-38
0.0035071066 0.016495431 0.14 1.6260288e-38
0.0045210863 0.016532984 0.14 1.6167732e-38
0.0055087432 0.016494159 0.13966668 1.5985138e-38
0.0064743026 0.016461501 0.13900001 1.5525241e-38
0.0075090826 0.016559469 0.13915387 1.5158257e-38
0.0081263483 0.016532985 0.14 1.4973866e-38
0.0046337512 0.017208971 0.14 1.5984062e-38
0.0054505682 0.017396744 0.14 1.5616719e-38
0.0065114913 0.017546969 0.14 1.5433048e-38
0.0075348602 0.017593909 0.14 1.5157899e-38
0.0067743752 0.018185398 0.14 1.5249376e-38
0.015476231 0.026382634 0.13953847 1.2074989e-38
0.016196772 0.026407689 0.13900001 1.2351572e-38
0.014779883 0.027339851 0.13900001 1.253633e-38
0.015451042 0.027339853 0.13900003 1.2997298e-38
0.0161222 0.027227992 0.13900001 1.3181687e-38
0.015600189 0.02812287 0.13900001 1.3366075e-38
-0.028125741 -0.042050302 0.141 1.226201e-38
-0.028125741 -0.041709892 0.141 1.226201e-38
-0.02237664 -0.039251395 0.141 1.2262373e-38
-0.022754868 -0.038797516 0.141 1.253896e-38
-0.015644133 -0.033540115 0.141 1.272335e-38
-0.0024817085 -0.0036977241 0.141 1.2717907e-38
-0.0016023228 -0.0032154799 0.14100002 1.373244e-38
-0.00074184808 -0.0031682013 0.141 1.3641705e-38
-0.0024249742 -0.0022509922 0.14100002 1.3268916e-38
-0.0015739555 -0.0023360942 0.14100002 1.3453683e-38
-0.00089314039 -0.0024495632 0.141 1.345587e-38
-0.002027832 -0.0016552792 0.141 1.2989808e-38
-0.0015739553 -0.0016552792 0.141 1.3266404e-38
0.0087895617 0.0087082377 0.141 2.2997382e-38
0.0090921465 0.0087838834 0.141 2.2536764e-38
0.012496222 0.0087838834 0.141 2.2541088e-38
-0.0072474144 0.0094646988 0.141 1.3641343e-38
0.0087517388 0.0094079636 0.141 2.2256221e-38
0.0090921465 0.0093512293 0.141 2.2717198e-38
0.012301703 0.0095295375 0.14100002 2.0325509e-38
-0.0071906801 0.010485921 0.141 1.2442049e-38
0.0087517397 0.010561567 0.14100002 1.9395648e-38
0.0090921465 0.01071286 0.141 1.9762274e-38
0.012344929 0.010523744 0.141 1.9311001e-38
-0.0066422452 0.011734082 0.141 1.4743645e-38
0.0087895626 0.011544966 0.14100002 1.8101676e-38
0.0093809757 0.011692821 0.14100002 1.8286066e-38
0.010226838 0.011961021 0.141 1.874884e-38
0.012269284 0.011280205 0.141 1.8665992e-38
0.0087517388 0.012641835 0.141 1.7731816e-38
0.0095460229 0.012528365 0.14100002 1.7456308e-38
0.010340307 0.012641835 0.14100002 1.7826525e-38
0.0084113311 0.01332265 0.141 1.7915129e-38
0.010680715 0.01343612 0.141 1.7089324e-38
0.01136153 0.013776527 0.141 1.6906372e-38
-0.0038433389 0.014911219 0.141 1.4742597e-38
0.0086382702 0.014911219 0.141 1.6260649e-38
-0.0036164005 0.015365095 0.141 1.3269289e-38
0.00039284362 0.015629856 0.14100002 1.5937151e-38
-0.0015415356 0.016434947 0.14100002 1.2256585e-38
-0.00052654766 0.016395049 0.14100002 1.3821368e-38
0.00046848971 0.016499788 0.14100002 1.4557477e-38
0.0014175049 0.016664831 0.14100002 1.5274897e-38
0.0025757744 0.016661886 0.14100002 1.5895105e-38
0.001538342 0.017375121 0.14100002 1.4175399e-38
0.0029648116 0.017180601 0.141 1.5710712e-38
0.0037023614 0.017464275 0.141 1.5708916e-38
0.0043831766 0.017804682 0.141 1.5984422e-38
0.0058015408 0.017861417 0.141 1.5525602e-38
0.0061419485 0.017861417 0.141 1.5433407e-38
0.0081843929 0.01740754 0.141 1.5066422e-38
0.0045121186 0.018500971 0.14100002 1.5433768e-38
0.0054913918 0.018572485 0.14100002 1.5433768e-38
0.0064661461 0.018801587 0.14100002 1.5066065e-38
0.0070497016 0.018769169 0.141 1.5065346e-38
0.0047803186 0.019223046 0.141 1.4975312e-38
0.0055292146 0.019449985 0.14100002 1.5067148e-38
0.0063688867 0.019336514 0.141 1.4974591e-38
0.0070497016 0.019223046 0.141 1.4790917e-38
0.0075035784 0.020811616 0.141 1.4425015e-38
0.0081843929 0.020811616 0.141 1.387364e-38
0.0058015408 0.021152023 0.141 1.4153466e-38
-0.028553762 -0.042577077 0.142 1.2354206e-38
-0.022382971 -0.03914886 0.142 1.2354569e-38
-0.021392599 -0.039339315 0.142 1.2170178e-38
-0.022382973 -0.038863175 0.142 1.253896e-38
-0.021468781 -0.038920313 0.142 1.253896e-38
-0.020364132 -0.038844127 0.142 1.2077982e-38
-0.018954754 -0.037777573 0.142 1.244641e-38
-0.0032992272 -0.0032668533 0.142 1.2348391e-38
-0.0025646088 -0.0032342039 0.142 1.3177438e-38
-0.003413501 -0.0024897908 0.142 1.2163283e-38
-0.0028421313 -0.0025812101 0.142 1.3176716e-38
-0.00775591 0.0095318239 0.142 1.3180721e-38
0.012813396 0.0095318248 0.142 2.161553e-38
-0.0076416358 0.010560289 0.142 1.2533879e-38
0.011899204 0.010903111 0.142 1.8757469e-38
0.012813396 0.010217467 0.142 1.9495034e-38
-0.0072988146 0.011360207 0.142 1.3822777e-38
0.008928082 0.012960042 0.142 1.7731816e-38
0.0096137263 0.012960042 0.142 1.7180082e-38
0.0087321848 0.013710984 0.142 1.7638902e-38
0.0096137263 0.013645685 0.142 1.7087526e-38
0.010429968 0.013743634 0.142 1.6812377e-38
-0.0051504644 0.014605585 0.142 1.4282708e-38
0.0086995345 0.014483694 0.142 1.6994973e-38
0.0094994521 0.014388464 0.142 1.7178643e-38
0.010585055 0.01410278 0.142 1.6444315e-38
0.011442108 0.01410278 0.142 1.6354277e-38
-0.0053790128 0.015108392 0.142 1.2625731e-38
-0.0042705555 0.01524552 0.142 1.3269648e-38
0.0086709661 0.015502635 0.142 1.5800751e-38
0.0093851779 0.015016972 0.142 1.6719104e-38
0.008470987 0.016540624 0.142 1.515718e-38
0.0014621863 0.017988093 0.142 1.224939e-38
0.0023880978 0.017618898 0.14199999 1.5531718e-38
0.0033286603 0.01787382 0.142 1.5434849e-38
0.0085471692 0.017645271 0.142 1.4974226e-38
0.0023763778 0.018292824 0.142 1.4434733e-38
0.0035572082 0.018445188 0.142 1.5435212e-38
0.0074996585 0.018445188 0.142 1.5249376e-38
0.0084138503 0.018273778 0.142 1.488311e-38
0.0043571256 0.01935938 0.142 1.4883477e-38
0.0068711517 0.019587928 0.142 1.4882757e-38
0.0075241467 0.019424679 0.142 1.4790198e-38
0.0082881488 0.019405089 0.142 1.488311e-38
0.004757084 0.020216435 0.142 1.4609409e-38
0.0054998645 0.020578302 0.142 1.4426097e-38
0.0065054749 0.020410698 0.14199999 1.479236e-38
0.0075567951 0.020273574 0.142 1.4423579e-38
0.0081281653 0.020216435 0.142 1.4423935e-38
0.005271317 0.021187762 0.142 1.4429334e-38
0.0062616915 0.021263944 0.142 1.4245303e-38
-0.028639767 -0.043452308 0.14300001 1.2169815e-38
-0.02238716 -0.039654713 0.14300001 1.2262373e-38
-0.022272082 -0.038542289 0.14300001 1.253932e-38
-0.021543249 -0.038580645 0.14300001 1.253932e-38
-0.0206418 -0.038446389 0.14300001 1.253896e-38
-0.019663632 -0.03827377 0.14300001 1.2354569e-38
-0.0084434627 0.0094071515 0.14300001 1.336475e-38
-0.0080982251 0.010692197 0.14300001 1.2717899e-38
0.0096814279 0.014777489 0.14300001 1.7086807e-38
0.010486979 0.014777489 0.14300001 1.6259565e-38
0.011369248 0.01473913 0.14300001 1.543376e-38
-0.0047034053 0.015583038 0.14300001 1.2164757e-38
0.0094512701 0.015398914 0.14300001 1.6168092e-38
0.010525338 0.015352882 0.14300001 1.6076251e-38
0.0087607987 0.016657107 0.14300001 1.515754e-38
0.0087607987 0.017309219 0.14300001 1.5157539e-38
0.0092211133 0.017884612 0.14300001 1.5066422e-38
0.0026616296 0.018575085 0.14300001 1.5164381e-38
0.0031219441 0.018575085 0.14300001 1.5436293e-38
0.0076100123 0.018575085 0.14300001 1.5341211e-38
0.0080703273 0.018575085 0.14300001 1.5158618e-38
0.0092211133 0.01811477 0.14300001 1.4975305e-38
0.0024698316 0.019265555 0.14300001 1.2878942e-38
0.0033521017 0.019227196 0.14300001 1.4978193e-38
0.0041576521 0.019956028 0.14300001 1.4610488e-38
0.0076100123 0.019150477 0.14300001 1.515754e-38
0.008147046 0.019112118 0.14300001 1.5066422e-38
0.004272731 0.020301264 0.14300001 1.4610849e-38
0.0095663499 0.023868702 0.14300001 1.2512288e-38
-0.028955927 -0.04410382 0.14400001 1.2077619e-38
-0.029187694 -0.043872055 0.14400001 1.2354206e-38
-0.022698225 -0.040627319 0.14400001 1.2170178e-38
-0.020535067 -0.038232397 0.14400001 1.2723351e-38
-0.0090239821 0.00085893687 0.14400001 1.3088509e-38
-0.0083286827 0.00074305356 0.14400001 1.2904485e-38
-0.0091398656 0.0014769816 0.14400001 1.3641683e-38
-0.0091784932 0.009820587 0.14400001 1.2626806e-38
-0.0091895303 0.010626252 0.14400001 1.3822786e-38
-0.0085604489 0.010593142 0.14400001 1.2810453e-38
0.0098263873 0.015846524 0.14400001 1.598442e-38
0.010907965 0.015923779 0.14400001 1.5801103e-38
0.011139732 0.015228478 0.14400001 1.5708908e-38
0.009459422 0.016464567 0.14400002 1.534193e-38
0.010477541 0.016354203 0.14400001 1.5617794e-38
0.0092193782 0.01728127 0.14400001 1.5249734e-38
0.0033755428 0.019632047 0.14400001 1.4703766e-38
0.010907965 0.023803851 0.14400001 1.2142061e-38
0.011139732 0.023572084 0.14400001 1.2140266e-38
0.055609997 0.04153401 0.14400001 1.244444e-38
0.055561706 0.042345192 0.14400001 1.2719616e-38
-0.017721573 -0.027373631 0.14500001 1.3182169e-38
-0.0079197669 0.00086490175 0.14500001 1.3088879e-38
0.010983715 0.015800985 0.14500001 1.5801103e-38
0.01063365 0.016967867 0.14500001 1.5158618e-38
0.011217091 0.016034361 0.14500001 1.5801103e-38
0.0097001446 0.017434619 0.14500001 1.534193e-38
0.010283586 0.017201243 0.14500001 1.5066782e-38
0.0037490488 0.020468511 0.14500001 1.4704486e-38
0.0042158016 0.020935263 0.14500001 1.4154192e-38
0.0044491775 0.021402014 0.14500001 1.4615526e-38
0.010750338 0.023735778 0.14500001 1.2322859e-38
-0.020428633 -0.038841728 0.14600001 1.2723351e-38
-0.020095365 -0.037215009 0.147 1.2723351e-38
-0.017453151 -0.027845463 0.14666666 1.2998135e-38
-0.0082093719 0.0011058524 0.14600001 1.30896e-38
0.010824478 0.016497422 0.14600001 1.5709272e-38
0.011294451 0.016379928 0.14600001 1.5709268e-38
0.0032579354 0.020656671 0.14600001 1.3521789e-38
0.0041273832 0.021667108 0.14600001 1.2511233e-38
-0.020589376 -0.038182784 0.148 1.2723351e-38
-0.016182587 -0.028654594 0.148 1.2814458e-38
-0.017433163 -0.027582671 0.148 1.2076534e-38
-0.014426706 -0.031672686 0.149 1.2168713e-38
0.02159873 -0.03052691 0.149 1.2257947e-38
0.021598727 -0.029567651 0.149 1.2811485e-38
0.021598728 -0.028488487 0.14900002 1.3365019e-38
-0.017662296 -0.027272286 0.149 1.2351682e-38
-0.017610908 -0.026530003 0.14900002 1.327436e-38
-0.015492547 -0.025410868 0.149 1.2532091e-38
0.02247805 -0.025430853 0.14900002 1.2167589e-38
0.02247805 -0.024371674 0.149 1.2351979e-38
0.022528011 -0.023542313 0.149 1.2351984e-38
-0.014469881 -0.031214632 0.15000001 1.2446026e-38
-0.014759588 -0.030611068 0.14999999 1.2906648e-38
0.017880905 -0.030611072 0.15000001 1.2720381e-38
0.018444229 -0.030550718 0.14999999 1.2074657e-38
-0.015539042 -0.029559152 0.14999999 1.2814813e-38
-0.014711304 -0.029444192 0.14999999 1.2169434e-38
0.02109989 -0.027392089 0.14999999 1.2813682e-38
0.021140127 -0.026386155 0.14999999 1.2998075e-38
-0.015194152 -0.025420463 0.15000001 1.3084168e-38
0.022555748 -0.02057004 0.14999999 1.3641268e-38
0.020536568 -0.019747004 0.15000001 1.207689e-38
0.02258867 -0.019626291 0.14999999 1.3640912e-38
0.022588668 -0.018539887 0.15000001 1.3733465e-38
0.022778358 -0.014452927 0.14999999 1.3733475e-38
0.022950806 -0.013510223 0.15000001 1.2812258e-38
0.018243145 -0.032394867 0.15100001 1.2167215e-38
-0.014323313 -0.031179696 0.15100001 1.2076505e-38
0.018000113 -0.031665765 0.15100001 1.2351608e-38
-0.014371919 -0.03069363 0.15100001 1.2169069e-38
0.017444609 -0.030554755 0.15100001 1.2444168e-38
0.017514046 -0.029640488 0.15100001 1.2721101e-38
0.018000113 -0.029235432 0.15100001 1.2905487e-38
0.017514044 -0.028567091 0.15100001 1.2905488e-38
0.018097326 -0.028457725 0.15100001 1.2628907e-38
0.016420396 -0.0275342 0.15100001 1.2352356e-38
0.017514046 -0.027534196 0.15100001 1.3180996e-38
0.018243145 -0.027534196 0.15100001 1.2259421e-38
0.016541913 -0.026622823 0.15100001 1.2721123e-38
0.017514044 -0.026562065 0.15100001 1.3088806e-38
0.016784946 -0.025711447 0.15100001 1.3365387e-38
0.017514046 -0.025468415 0.15100001 1.2812946e-38
0.017544426 -0.024405144 0.15100001 1.244382e-38
0.021483589 -0.013600292 0.15100001 1.3641656e-38
0.021483589 -0.012709172 0.15100001 1.3365429e-38
0.023103811 -0.012709171 0.15100001 1.2996284e-38
0.021483587 -0.011554763 0.15100001 1.3272512e-38
0.023225326 -0.011554763 0.15100001 1.2443106e-38
0.021483589 -0.010521871 0.15100001 1.3087761e-38
0.021483587 -0.0094282227 0.15100001 1.2627504e-38
0.021483589 -0.0083345724 0.15100001 1.2166527e-38
0.022455722 -0.0047295792 0.15100001 1.3916379e-38
0.022617744 -0.001408125 0.15100001 1.2625991e-38
0.022617744 -0.00067902531 0.15100001 1.2901499e-38
0.010709113 0.017426951 0.15100001 1.5434125e-38
-0.014418171 -0.030407613 0.15200001 1.2170143e-38
-0.014907456 -0.026004044 0.15200001 1.2068202e-38
0.016223334 -0.026309848 0.15200001 1.2352722e-38
-0.0151521 -0.025514759 0.15200001 1.3729538e-38
-0.014846296 -0.025453597 0.15200001 1.3728808e-38
0.016437396 -0.025484178 0.15200001 1.2904794e-38
-0.012868766 -0.024209997 0.15200001 1.5753473e-38
0.015672889 -0.024462797 0.152 1.2261254e-38
0.016488364 -0.024413863 0.152 1.3089533e-38
0.017140746 -0.024169223 0.15200001 1.327319e-38
0.01579521 -0.023312973 0.15200001 1.2905886e-38
0.016488366 -0.023312973 0.15200001 1.3365757e-38
0.017201906 -0.023251813 0.15200001 1.2996259e-38
0.015642308 -0.022364983 0.15200001 1.2998084e-38
0.016488366 -0.022334404 0.15200001 1.3457593e-38
0.017263066 -0.022334402 0.15200001 1.244382e-38
0.016488366 -0.02143738 0.15200001 1.33654e-38
0.017263066 -0.021437379 0.15200001 1.2167245e-38
0.016488364 -0.020540355 0.15200001 1.318101e-38
0.016488364 -0.019561786 0.15200001 1.2904792e-38
0.016488364 -0.018664761 0.15200001 1.2628212e-38
0.015835984 -0.017482324 0.15200001 1.3180285e-38
0.016488364 -0.01756387 0.152 1.2443111e-38
0.01579521 -0.01646298 0.15200001 1.2627838e-38
0.015642308 -0.015453825 0.15200001 1.2351253e-38
0.022604434 -0.0015397718 0.15200001 1.2534161e-38
0.02260443 -0.00035733185 0.15200001 1.2901863e-38
0.023012172 -7.1915318e-05 0.15200001 1.2809306e-38
0.021788958 0.0007843342 0.15200001 1.225256e-38
0.022441337 0.0006620129 0.15200001 1.3084463e-38
0.021788958 0.001395941 0.15200001 1.2989049e-38
0.022441337 0.0015590362 0.15200001 1.3728398e-38
0.022706367 0.0024356728 0.15200001 1.4373037e-38
0.023501456 0.0043316539 0.152 1.3078717e-38
0.023501458 0.0053102239 0.152 1.3722645e-38
0.023501456 0.006411117 0.15199998 1.3906316e-38
0.023786874 0.0074304617 0.15200001 1.3166242e-38
0.022278242 0.028184321 0.15200001 1.2351902e-38
-0.014513027 -0.026421376 0.15300001 1.2160014e-38
-0.014451464 -0.025621055 0.15300001 1.3819548e-38
-0.013281765 -0.025497928 0.15300001 1.4741472e-38
-0.013281765 -0.024820736 0.15300001 1.5385769e-38
0.015283496 -0.023343222 0.15300001 1.2445307e-38
0.015529748 -0.018048801 0.15300001 1.3457581e-38
0.015406622 -0.017679421 0.15300001 1.318065e-38
0.021369444 0.0016161983 0.15300001 1.2711759e-38
0.020454792 0.0026363861 0.15300001 1.5384707e-38
0.021470584 0.0025132601 0.15300001 1.4185448e-38
0.022277061 0.0026363858 0.15300001 1.418651e-38
0.019962288 0.0038676469 0.15300001 1.5935727e-38
0.020290626 0.0037034787 0.15300001 1.5659499e-38
0.021510163 0.003515858 0.15300001 1.5475827e-38
0.022514356 0.0034870752 0.15300001 1.4831871e-38
0.020454794 0.0043601515 0.15300001 1.6027204e-38
0.022424811 0.004360151 0.15300001 1.5476167e-38
0.020454792 0.0053451606 0.15300001 1.6670774e-38
0.021439802 0.0053451601 0.15300001 1.6763329e-38
0.02242481 0.0053451601 0.15300001 1.6120818e-38
0.019962288 0.0062070433 0.15300001 1.7957557e-38
0.020477179 0.0064197155 0.15300001 1.7218912e-38
0.021439804 0.0064532957 0.15300001 1.6943039e-38
0.022424811 0.0064532948 0.15300001 1.6486361e-38
0.020701045 0.0073151779 0.15300001 1.7120239e-38
0.021439802 0.0075614303 0.15300001 1.6936923e-38
0.022547936 0.0075614317 0.15300001 1.6114334e-38
0.023491904 0.0077255983 0.15300001 1.3998857e-38
0.021624491 0.0083617494 0.15300001 1.6840771e-38
0.022547938 0.008464355 0.15300001 1.6019975e-38
0.023656072 0.008464355 0.15300001 1.3352058e-38
0.022643702 0.0093672797 0.15300001 1.5560071e-38
0.023656072 0.0094493646 0.15300001 1.2799606e-38
0.022917315 0.010147078 0.15300001 1.43662e-38
0.023656072 0.010352288 0.15300001 1.2247874e-38
0.021439802 0.027507858 0.15300001 1.2258628e-38
0.020701045 0.028369742 0.15300001 1.2260067e-38
0.0214398 0.028369742 0.15300001 1.2444099e-38
0.022260644 0.028492868 0.15300001 1.2167873e-38
0.022301685 0.029354751 0.15300001 1.2168597e-38
-0.014285257 -0.0261837 0.15480001 1.4003204e-38
-0.01411216 -0.025602616 0.15400001 1.4832963e-38
0.013306961 -0.018389001 0.15483333 1.2077625e-38
0.015135526 -0.018166766 0.15400001 1.308954e-38
0.013542948 -0.017370004 0.15499999 1.2169457e-38
0.015135526 -0.017918903 0.15400001 1.3088824e-38
0.011491741 -0.016455276 0.15499999 1.2077267e-38
0.013516243 -0.015472169 0.154625 1.2077256e-38
0.013575224 -0.014459442 0.15411113 1.216908e-38
0.014144079 -0.01444884 0.15400001 1.2445278e-38
0.013532966 -0.013490598 0.15410003 1.2076516e-38
0.014144079 -0.013540014 0.15400001 1.2260519e-38
0.01860559 0.00079465448 0.15400003 1.4648576e-38
0.019514417 0.00079465448 0.15400003 1.3266003e-38
0.019514419 0.0016621703 0.15400003 1.4464542e-38
0.020505862 0.0016621705 0.15400003 1.3357484e-38
0.019514415 0.0025709968 0.15400003 1.5568738e-38
0.020495536 0.0025606691 0.15400003 1.492337e-38
0.021084208 0.0029014789 0.15400001 1.5383633e-38
0.020629793 0.0033558921 0.15400003 1.5844251e-38
0.021084208 0.0032732715 0.15400001 1.5844611e-38
0.019448321 0.0065450459 0.15400003 1.8230907e-38
0.020092761 0.0068672663 0.15400001 1.7860685e-38
0.01860559 0.007610851 0.15400003 1.9056356e-38
0.019514419 0.0076108519 0.15400003 1.7486511e-38
0.020464553 0.0076418342 0.15400003 1.702517e-38
0.016980108 0.0084086861 0.155 2.1354784e-38
0.017551444 0.0086398963 0.15466666 2.0894883e-38
0.01860559 0.0086022988 0.15400003 1.932719e-38
0.019514419 0.0086022979 0.15400003 1.7573311e-38
0.020505866 0.0086022988 0.15400003 1.6466602e-38
0.021183353 0.0086518712 0.15400001 1.646876e-38
0.017853256 0.0094689382 0.155 1.9969689e-38
0.018547872 0.0095388116 0.15444446 1.9507987e-38
0.019514419 0.0095111253 0.15400003 1.7940656e-38
0.020505864 0.0095111243 0.15400003 1.655736e-38
0.02141469 0.0095111253 0.15400003 1.6097098e-38
0.022158274 0.0097589865 0.15400001 1.5829125e-38
0.017977992 0.01027972 0.155 1.8583872e-38
0.018476935 0.010487612 0.15499999 1.8583512e-38
0.019515023 0.010465058 0.15466666 1.8123249e-38
0.020505864 0.010419952 0.15400003 1.6832149e-38
0.02141469 0.010419952 0.15400003 1.5635401e-38
0.022323517 0.010419951 0.15400003 1.5553613e-38
0.023067102 0.010833054 0.15400001 1.4274006e-38
0.017853256 0.011589443 0.155 1.7472845e-38
0.018476935 0.011485497 0.15499999 1.738101e-38
0.019488219 0.011477502 0.15488888 1.7476084e-38
0.020505862 0.011328776 0.15400003 1.6738149e-38
0.02141469 0.011328775 0.15400003 1.5634321e-38
0.022323517 0.011328776 0.15400003 1.5276667e-38
0.023244148 0.011364185 0.15400003 1.3628998e-38
0.017728521 0.012400225 0.15499999 1.7930585e-38
0.018476935 0.012400226 0.15499999 1.7286293e-38
0.019474819 0.012400225 0.15499999 1.6734917e-38
0.020523628 0.012364848 0.15455556 1.6182817e-38
0.021414688 0.012320224 0.15400003 1.5724357e-38
0.022323517 0.012320224 0.15400003 1.463058e-38
0.023314964 0.012320224 0.15400003 1.2800675e-38
0.017796068 0.01372789 0.15450001 1.7373095e-38
0.018539304 0.013211007 0.155 1.7192298e-38
0.019474819 0.013522846 0.15499999 1.5626772e-38
0.020519866 0.013545106 0.15492307 1.4893164e-38
0.021444734 0.013401804 0.15400003 1.4894242e-38
0.022323519 0.013435601 0.15400003 1.4352557e-38
0.023314962 0.013435602 0.15400003 1.2523731e-38
0.019599555 0.014645468 0.15499999 1.5256553e-38
0.020597439 0.014645466 0.15499999 1.4064485e-38
0.021626106 0.014582743 0.15433334 1.351455e-38
0.022323519 0.014550979 0.15400003 1.3616793e-38
0.023314962 0.014550979 0.15400003 1.2155673e-38
0.019624501 0.015593457 0.155 1.4612624e-38
0.020597439 0.015643353 0.15499999 1.3694985e-38
0.021648785 0.015678991 0.15499999 1.2043022e-38
0.0223545 0.015418496 0.15400003 1.2696644e-38
0.019724291 0.016391765 0.155 1.3600636e-38
0.020597439 0.016558075 0.15499999 1.2591161e-38
0.020737201 0.02748936 0.15400001 1.2443019e-38
0.021084208 0.027563719 0.15400001 1.2443019e-38
0.020588486 0.028502053 0.15400003 1.2075318e-38
0.016838577 0.0087140165 0.156 2.0247717e-38
0.017290521 0.009718339 0.156 1.9229968e-38
0.016838577 0.010220501 0.156 1.8951584e-38
0.017412474 0.010615056 0.156 1.849024e-38
0.016838577 0.011475904 0.156 1.9223129e-38
0.017290521 0.011475904 0.156 1.8486643e-38
0.017089657 0.012354687 0.156 1.8574882e-38
0.017717358 0.01335901 0.156 1.7742957e-38
0.018596141 0.013735631 0.156 1.719014e-38
0.017717358 0.014739954 0.156 1.6267829e-38
0.018512446 0.014739954 0.156 1.6267827e-38
0.019098302 0.014739954 0.156 1.6083075e-38
0.015583172 0.015493196 0.156 1.6817045e-38
0.017780127 0.015681505 0.156 1.5531348e-38
0.018512448 0.015744276 0.156 1.5255837e-38
0.019161073 0.015807047 0.156 1.4796296e-38
0.01863201 0.016605124 0.156 1.4060535e-38
0.019313514 0.016712729 0.156 1.3509519e-38
0.018847222 0.017376302 0.156 1.3049984e-38
0.019433076 0.017376302 0.156 1.268264e-38
0.018847222 0.018255083 0.156 1.2773758e-38
0.019313514 0.018219214 0.156 1.2038712e-38
-0.011860169 0.01458175 0.15700001 1.2627547e-38
0.017451895 0.015845202 0.15700001 1.5438792e-38
0.01757824 0.016224237 0.15700001 1.5346595e-38
0.018209966 0.016855963 0.15700001 1.4977814e-38
0.014714417 0.017445574 0.15700001 1.4976377e-38
0.015514606 0.017361343 0.15700001 1.5160767e-38
0.016272673 0.017529802 0.15700001 1.5068929e-38
0.018311042 0.017411882 0.15700001 1.4150931e-38
0.013914232 0.018372104 0.15700001 1.4883823e-38
0.014588073 0.018372105 0.15700001 1.4516481e-38
0.015514604 0.018372104 0.15700001 1.4149858e-38
0.01631479 0.018372104 0.15700001 1.3966185e-38
0.017704586 0.018498449 0.15700001 1.4151291e-38
0.018336311 0.018372104 0.15700001 1.3691752e-38
0.014672304 0.019231251 0.15700001 1.4516838e-38
0.015556718 0.019433403 0.15700002 1.3782512e-38
0.016296741 0.019455062 0.15699999 1.3231139e-38
0.017704586 0.019509209 0.15700001 1.2588647e-38
0.018412119 0.019559748 0.15700002 1.2222383e-38
0.013409493 0.018658655 0.15800001 1.5158612e-38
0.013566917 0.019469993 0.15800001 1.4608316e-38
0.014447883 0.019697048 0.15800001 1.4517198e-38
0.013684984 0.020332795 0.15800001 1.3598125e-38
0.014511458 0.020438753 0.15800001 1.3873988e-38
0.01549687 0.020491732 0.15800001 1.3690675e-38
0.016037257 0.02065067 0.15800001 1.3138943e-38
0.013748559 0.021032119 0.15800001 1.2955633e-38
0.01451146 0.021455953 0.15800001 1.2680126e-38
0.015528657 0.021455953 0.15800001 1.2771961e-38
0.016037257 0.021455953 0.15800001 1.2680842e-38
0.0066281673 0.023575116 0.15800001 1.4152747e-38
0.0071367668 0.023066517 0.15800001 1.433462e-38
0.0087134242 0.024490595 0.15800001 1.4059113e-38
0.0089168642 0.025609514 0.15800001 1.3145076e-38
0.012598681 0.019715082 0.15900002 1.4149859e-38
0.013067848 0.019757735 0.15900001 1.4240975e-38
0.012470727 0.020568114 0.15900002 1.3782516e-38
0.013272576 0.020653417 0.15900001 1.3414812e-38
0.012709575 0.021523507 0.15900001 1.3782514e-38
0.013451712 0.021645064 0.15900002 1.2771961e-38
0.0079496633 0.022956599 0.15900001 1.4792e-38
0.012811938 0.022316825 0.15900001 1.3690679e-38
0.013494364 0.022530084 0.15900002 1.277268e-38
0.0077961176 0.023468416 0.15900001 1.4609768e-38
0.0083335275 0.023532394 0.15900001 1.4516854e-38
0.013494364 0.023340464 0.15900002 1.2865236e-38
0.014091484 0.023340462 0.15900001 1.2130908e-38
0.0068236636 0.024440872 0.15900001 1.4524049e-38
0.0076084509 0.024492055 0.15900002 1.4338578e-38
0.0084614828 0.024300123 0.15900001 1.4243144e-38
0.012811938 0.024620008 0.15900001 1.2223109e-38
0.0076084509 0.025259783 0.15900001 1.388192e-38
0.0086534135 0.02532376 0.15900001 1.3603532e-38
-0.030522022 0.056736615 0.15900002 1.2078711e-38
0.011656428 0.021452859 0.16000001 1.4609038e-38
0.012119961 0.021555867 0.16000001 1.4242054e-38
0.011862442 0.022070905 0.16000001 1.4242054e-38
0.01224872 0.022328423 0.16000001 1.4058381e-38
0.0085146995 0.023358498 0.16000001 1.433282e-38
0.01246332 0.023272658 0.16000001 1.3416252e-38
0.0077421432 0.025676167 0.16000001 1.3698969e-38
-0.014584521 0.014003186 0.162 1.3272917e-38
-0.013198852 0.01469413 0.16100001 1.2811942e-38
0.0085679162 0.024281872 0.16100001 1.4517214e-38
0.0081792232 0.025836641 0.16100001 1.3514215e-38
0.0081792232 0.026095768 0.16100001 1.3240149e-38
-0.01450062 0.014703978 0.164 1.299598e-38
-0.014236663 0.015363868 0.164 1.2443528e-38
-0.013796736 0.015407861 0.164 1.2720113e-38
-0.013972706 0.016023761 0.164 1.2074391e-38
-0.016536523 0.013775632 0.16500001 1.2720466e-38
-0.016394887 0.014368731 0.16500001 1.2536801e-38
-0.015739825 0.014439548 0.16500001 1.2259494e-38
-0.016182434 0.015059202 0.16500001 1.3182172e-38
-0.014854603 0.015324769 0.16500001 1.2074745e-38
-0.017349213 0.013814592 0.16600001 1.3457677e-38
-0.017349213 0.014081768 0.16600001 1.3274367e-38
-0.017991295 0.014166597 0.16700001 1.299778e-38
-0.070062146 -0.012903345 0.177 1.3089875e-38
-0.070853814 -0.013337244 0.17900001 1.30906e-38
-0.071748383 -0.013560773 0.18200001 1.2814383e-38
-0.070381381 -0.011705565 0.182 1.2906557e-38
-0.06984435 -0.011656744 0.18200001 1.2906556e-38
-0.072633497 -0.013144388 0.18300001 1.3182428e-38
-0.071749888 -0.013144388 0.18300001 1.2630339e-38
-0.07322257 -0.012358956 0.18300001 1.3457929e-38
-0.072584406 -0.012457134 0.18300001 1.3182424e-38
-0.071612433 -0.012398226 0.18300001 1.2814364e-38
-0.070473552 -0.012162599 0.18300001 1.2722167e-38
-0.069786303 -0.012162598 0.18300001 1.2998401e-38
-0.07302621 -0.011868061 0.18300001 1.3457935e-38
-0.072535314 -0.011769882 0.18300001 1.3182428e-38
