# .PCD v0.7 - Point Cloud Data file format
VERSION 0.7
FIELDS x y z rgb
SIZE 4 4 4 4
TYPE F F F F
COUNT 1 1 1 1
WIDTH 983
HEIGHT 1
VIEWPOINT 0 0 0 1 0 0 0
POINTS 983
DATA ascii
0.055440877 0.031590521 0.13900003 2.0097193e-38
0.056466255 0.031590518 0.13900003 2.0742921e-38
0.057286557 0.031590525 0.13900003 2.1019869e-38
0.054452781 0.032597259 0.13900001 1.5210812e-38
0.055440877 0.032597262 0.13900003 1.825328e-38
0.056466255 0.032597259 0.13900001 1.9729132e-38
0.057286561 0.032597259 0.13900001 2.0097914e-38
0.055440877 0.033603992 0.13900003 1.327399e-38
0.056466252 0.033603992 0.13900003 1.6040218e-38
0.057062842 0.033380274 0.13900001 1.8253999e-38
-0.014282503 -0.0030169091 0.141 1.3642424e-38
-0.013715157 -0.0031303782 0.141 1.3550228e-38
-0.014622911 -0.0025630326 0.141 1.3826812e-38
-0.012693935 -0.0012014025 0.141 1.4194156e-38
-0.012466997 -0.00039090851 0.14100002 1.3733538e-38
-0.023246568 0.0028834871 0.141 1.7422445e-38
-0.022792691 0.0027700178 0.141 1.7883063e-38
-0.016324949 0.015818972 0.141 1.3598495e-38
-0.019350791 0.016625861 0.14100002 1.5712159e-38
-0.018651066 0.016896928 0.141 1.4423585e-38
-0.017440731 0.016632168 0.14100002 1.5161867e-38
-0.016531257 0.016541049 0.14100002 1.4058041e-38
-0.015530665 0.016499786 0.14100002 1.3045691e-38
-0.0201829 0.017558834 0.141 1.7930976e-38
-0.019558819 0.017558834 0.14100002 1.8028211e-38
-0.018594332 0.017558832 0.14100002 1.5994869e-38
-0.017516376 0.01755883 0.14100002 1.5254783e-38
-0.016551889 0.01755883 0.14100002 1.3873655e-38
-0.015530664 0.017558834 0.14100002 1.3414479e-38
-0.020409839 0.018542232 0.14100002 1.5618882e-38
-0.019558821 0.018542232 0.14100002 1.6270733e-38
-0.018594332 0.018542232 0.14100002 1.6458012e-38
-0.017554199 0.018409848 0.14100002 1.4701259e-38
-0.016551888 0.018542232 0.14100002 1.3506672e-38
-0.015530664 0.018542234 0.14100002 1.2956017e-38
-0.020409837 0.01952563 0.14100002 1.5623207e-38
-0.019558819 0.019525629 0.14100002 1.5075069e-38
-0.018594332 0.019525629 0.14100002 1.4978569e-38
-0.017913517 0.01952563 0.141 1.4421439e-38
-0.016495153 0.01927978 0.141 1.3414479e-38
-0.015644133 0.01952563 0.14100002 1.3511352e-38
-0.022452284 0.020811616 0.141 1.5901611e-38
-0.021453757 0.020720841 0.141 1.6083476e-38
-0.020561131 0.020433385 0.14100002 1.6456214e-38
-0.019558819 0.020433385 0.14100002 1.5074e-38
-0.018594332 0.020433385 0.14100002 1.451651e-38
-0.017913517 0.0201308 0.141 1.3869343e-38
-0.015492842 0.020433385 0.14100002 1.3973408e-38
-0.023246568 0.021492429 0.141 1.6088881e-38
-0.022603579 0.021366352 0.14100002 1.5992725e-38
-0.021509618 0.021387687 0.14100002 1.5716851e-38
-0.020561131 0.021435695 0.14100002 1.5813003e-38
-0.019558821 0.021435695 0.14100002 1.5163319e-38
-0.018614963 0.0214718 0.14100002 1.4241361e-38
-0.017610932 0.021795014 0.141 1.3418432e-38
-0.016597275 0.021764755 0.141 1.3140767e-38
-0.02290616 0.022627121 0.141 1.5259836e-38
-0.021279769 0.022438006 0.14100002 1.4892847e-38
-0.020551674 0.022371816 0.14100002 1.4519387e-38
-0.019558821 0.022400184 0.14100002 1.4609419e-38
-0.018626751 0.022335341 0.14100002 1.3877242e-38
-0.01745964 0.022173245 0.141 1.3324796e-38
-0.022679223 0.023534875 0.141 1.4157089e-38
-0.021090655 0.023080997 0.141 1.5164764e-38
-0.020636776 0.023364671 0.141 1.4977847e-38
-0.019460825 0.023307936 0.14100002 1.489068e-38
-0.018644763 0.023509659 0.14100002 1.3326588e-38
-0.018480863 0.024215689 0.141 1.3413034e-38
-0.017913517 0.024215689 0.141 1.3412314e-38
-0.021090655 0.026598539 0.141 1.4247839e-38
-0.021090655 0.027846701 0.141 1.3137163e-38
-0.020863716 0.027846701 0.141 1.3044968e-38
-0.01415525 -0.0032668535 0.142 1.3642424e-38
-0.023297163 0.0026753896 0.142 1.7975618e-38
-0.022497246 0.002218294 0.142 1.7975618e-38
-0.021240233 0.0029039374 0.142 1.3366185e-38
-0.017420219 0.013710984 0.142 1.516329e-38
-0.018523052 0.014559876 0.142 1.6263522e-38
-0.017431103 0.014483695 0.142 1.5066422e-38
-0.020195441 0.015539365 0.142 1.6721985e-38
-0.019411851 0.015474069 0.14199999 1.5985859e-38
-0.018440522 0.015474068 0.14199999 1.5524882e-38
-0.017431103 0.015474066 0.14199999 1.4974229e-38
-0.016669275 0.015506716 0.142 1.3965118e-38
-0.020358693 0.016584156 0.142 1.5983701e-38
-0.019411851 0.01638826 0.142 1.5523807e-38
-0.018497659 0.016416827 0.142 1.4699086e-38
-0.017812015 0.016159711 0.142 1.5712517e-38
-0.021411644 0.017930957 0.142 1.5072527e-38
-0.020668864 0.01737863 0.142 1.6079858e-38
-0.022230608 0.018749921 0.142 1.5068224e-38
-0.021468781 0.018521374 0.142 1.5437721e-38
-0.023297163 0.019587928 0.142 1.4421428e-38
-0.022497246 0.01935938 0.14199999 1.4790205e-38
-0.021468781 0.01935938 0.142 1.5710719e-38
-0.023342872 0.02054783 0.142 1.5902685e-38
-0.022497246 0.02027357 0.14199999 1.5899085e-38
-0.021544963 0.02019739 0.142 1.5989481e-38
-0.023639986 0.021302037 0.142 1.6830039e-38
-0.022382973 0.022406684 0.142 1.5814445e-38
-0.021697329 0.022216227 0.142 1.5999193e-38
-0.020783138 0.022787597 0.142 1.4887091e-38
-0.022154424 0.023244692 0.142 1.5726569e-38
-0.021468781 0.023530379 0.142 1.535203e-38
-0.020554589 0.023538541 0.142 1.5160438e-38
-0.022840068 0.024387432 0.142 1.6000272e-38
-0.021285942 0.024478853 0.142 1.4606545e-38
-0.020417461 0.024524562 0.14199999 1.3778222e-38
-0.019434704 0.02457027 0.14199999 1.3872935e-38
-0.018440522 0.024730254 0.142 1.3596346e-38
-0.017431103 0.024615981 0.142 1.3321919e-38
-0.022154424 0.025530171 0.142 1.4329239e-38
-0.021544963 0.025606355 0.142 1.3869699e-38
-0.020440316 0.025644446 0.14199999 1.3413759e-38
-0.019444501 0.025464872 0.142 1.3874735e-38
-0.018497659 0.025399571 0.142 1.3688182e-38
-0.017354919 0.025598735 0.14199999 1.3324073e-38
-0.021240233 0.026444362 0.142 1.4061646e-38
-0.020440316 0.026627202 0.14199999 1.4059488e-38
-0.021240233 0.027130006 0.142 1.4062366e-38
-0.020783138 0.027130006 0.142 1.4149526e-38
-0.025428029 -0.0032689362 0.14300001 1.3183244e-38
-0.024612015 -0.0034049382 0.14300001 1.3552026e-38
-0.025475105 -0.0023692304 0.14300001 1.345983e-38
-0.024496935 -0.0023404604 0.14300001 1.4012644e-38
-0.025371533 -0.0014716168 0.14300001 1.4196677e-38
-0.024458576 -0.001448601 0.14300001 1.4842046e-38
-0.025187407 -0.00098828645 0.14300001 1.4934242e-38
-0.024458578 -0.00098828645 0.14300001 1.5302305e-38
-0.025486613 0.00066884619 0.14300001 1.6868911e-38
-0.024266779 0.0026942305 0.14300001 1.7975618e-38
-0.023576306 0.0024640732 0.14300001 1.816001e-38
-0.022195362 0.0022339157 0.14300001 1.7699032e-38
0.040982828 0.0031545451 0.14300001 1.3090579e-38
-0.017477136 0.011670366 0.14300001 1.4184745e-38
-0.016786665 0.011670366 0.14300001 1.3170235e-38
-0.019088238 0.012821152 0.14300001 1.6852664e-38
-0.017523168 0.01261401 0.14300001 1.5094469e-38
-0.016694602 0.012637027 0.14300001 1.444658e-38
-0.022080284 0.013971939 0.14300001 1.8140885e-38
-0.021543249 0.013971939 0.14300001 1.7955775e-38
-0.02042315 0.013925907 0.14300001 1.7763467e-38
-0.019443937 0.013616242 0.14300001 1.7116655e-38
-0.018650938 0.013672736 0.14300001 1.6464451e-38
-0.017592216 0.013204749 0.14300001 1.5265552e-38
-0.016556509 0.013569165 0.14300001 1.4246012e-38
-0.023000913 0.014777489 0.14300001 1.8217612e-38
-0.02238716 0.014585691 0.14300001 1.8038977e-38
-0.021543249 0.014585691 0.14300001 1.7852429e-38
-0.020526722 0.014585692 0.14300001 1.7563973e-38
-0.019663632 0.014585692 0.14300001 1.6820653e-38
-0.018397767 0.014202096 0.14300001 1.6174199e-38
-0.016556509 0.014585692 0.14300001 1.4057671e-38
-0.023000913 0.015429601 0.14300001 1.793312e-38
-0.02238716 0.015429601 0.14300001 1.7564339e-38
-0.021543249 0.015429601 0.14300001 1.7558578e-38
-0.02087196 0.015352882 0.14300001 1.7370231e-38
-0.016498968 0.015180264 0.14300001 1.3597774e-38
-0.023362588 0.016569428 0.14300001 1.7281648e-38
-0.02238716 0.016503671 0.14300001 1.6634112e-38
-0.021578122 0.016461821 0.14300001 1.6723064e-38
-0.020929495 0.016350232 0.14300001 1.6720904e-38
-0.02323107 0.017501017 0.14300001 1.5802202e-38
-0.02238716 0.017501017 0.14300001 1.5899054e-38
-0.021758063 0.017424297 0.14300001 1.5809725e-38
-0.023231069 0.018344929 0.14300001 1.497244e-38
-0.022586631 0.018298896 0.14300001 1.4977463e-38
-0.023422867 0.019303916 0.14300001 1.451362e-38
-0.023921542 0.020416342 0.14300001 1.5443141e-38
-0.022157004 0.023715265 0.14300001 1.572549e-38
-0.023077631 0.024635894 0.14300001 1.6463411e-38
-0.022387158 0.024559174 0.14300001 1.6648524e-38
-0.021850126 0.024559174 0.14300001 1.5993798e-38
-0.023000913 0.025249645 0.14300001 1.6465207e-38
-0.022387162 0.025249647 0.14300001 1.5716853e-38
-0.021773407 0.025326364 0.14300001 1.4329239e-38
-0.019318396 0.025940118 0.14300001 1.3872935e-38
-0.018627923 0.025940118 0.14300001 1.3782891e-38
-0.017937452 0.025940118 0.14300001 1.3602092e-38
-0.020008868 0.026553869 0.14300001 1.3873296e-38
-0.019471833 0.026553869 0.14300001 1.3780739e-38
-0.018627923 0.026553869 0.14300001 1.4062354e-38
-0.017937452 0.026170276 0.14300001 1.3604966e-38
-0.020492198 0.027551215 0.14300001 1.3412318e-38
-0.019471833 0.0274745 0.14300001 1.3135731e-38
-0.018627921 0.027474497 0.14300001 1.3322276e-38
-0.025757546 -0.0043326393 0.14400001 1.3275439e-38
-0.025711194 -0.0037763987 0.14400001 1.3091048e-38
-0.027101792 -0.0025016817 0.14400001 1.2998852e-38
-0.026754143 -0.0025016817 0.14400001 1.3091048e-38
-0.015976988 -0.002617565 0.14400001 1.4103399e-38
-0.027101792 -0.0015746144 0.14400001 1.3182525e-38
-0.026609289 -0.0014297601 0.14400001 1.3551307e-38
-0.026483748 -0.00058316754 0.14400001 1.4841327e-38
-0.025568567 -0.00035338171 0.14400002 1.5763283e-38
-0.02455236 -0.00029989707 0.14400001 1.6500488e-38
-0.026174728 0.0003954033 0.14400001 1.6316097e-38
-0.025386721 0.00048810997 0.14400001 1.6868911e-38
-0.024581332 0.00051128666 0.14400001 1.7329888e-38
-0.025711194 0.0010907036 0.14400001 1.7052943e-38
-0.02455236 0.0022495377 0.14400001 1.7975618e-38
-0.023625292 0.0021336544 0.14400001 1.8159651e-38
-0.02281411 0.0020177709 0.14400001 1.79749e-38
0.043818854 0.0059578065 0.14400001 1.2998383e-38
0.061491076 0.010535201 0.14400001 1.4194774e-38
-0.024320593 0.011983743 0.14400001 1.8056958e-38
-0.019495629 0.011541281 0.14400002 1.5385443e-38
-0.018603677 0.011578151 0.14400002 1.4739716e-38
-0.016672287 0.011983743 0.14400001 1.3445022e-38
-0.024378534 0.012621101 0.14400001 1.8418544e-38
-0.023625292 0.012679044 0.14400001 1.7959725e-38
-0.022613946 0.012700113 0.14400002 1.6944132e-38
-0.0216939 0.012833554 0.14400001 1.7868248e-38
-0.02014879 0.01291081 0.14400001 1.7317958e-38
-0.019585926 0.012612824 0.14400001 1.667295e-38
-0.018642304 0.012650074 0.14400001 1.5931787e-38
-0.01644052 0.012679044 0.14400001 1.4078518e-38
-0.02451925 0.01363922 0.14400001 1.8306213e-38
-0.023625292 0.013528855 0.14400001 1.8135486e-38
-0.022582343 0.013528854 0.14400002 1.7773177e-38
-0.021469861 0.013606112 0.14400002 1.8050844e-38
-0.020438498 0.013548169 0.14400001 1.7680263e-38
-0.018526422 0.013142577 0.14400001 1.5831312e-38
-0.016208753 0.013374344 0.14400001 1.360352e-38
-0.02455236 0.014533176 0.14400002 1.7556423e-38
-0.023671646 0.014463648 0.14400002 1.8125416e-38
-0.02281411 0.014069645 0.14400001 1.8046891e-38
-0.024436476 0.015614758 0.14400001 1.6815625e-38
-0.023741176 0.015614756 0.14400001 1.7466031e-38
-0.024320593 0.016155547 0.14400001 1.6631597e-38
-0.023857059 0.016155547 0.14400001 1.6820307e-38
-0.024436478 0.017430265 0.14400001 1.6077707e-38
-0.02439785 0.018280074 0.14400001 1.5433055e-38
-0.024320593 0.01940028 0.14400001 1.4880243e-38
-0.024489487 0.00086490175 0.14500001 1.7513919e-38
-0.025356309 0.0014983517 0.145 1.7698313e-38
-0.024769537 0.00147168 0.14500001 1.7790508e-38
-0.025306303 0.0020317831 0.14500001 1.79749e-38
-0.024431141 0.0020317831 0.14500001 1.8067095e-38
0.04470659 0.0057658036 0.14500001 1.3090228e-38
-0.024139423 0.011833587 0.14500001 1.7873286e-38
-0.023400396 0.011833587 0.14500001 1.7227914e-38
-0.022447443 0.011775242 0.14500001 1.6028642e-38
-0.021922346 0.011833587 0.14500001 1.6580367e-38
-0.024139423 0.012066963 0.14500001 1.7964763e-38
-0.023400396 0.012066963 0.14500001 1.7227555e-38
-0.022389099 0.012253664 0.14500001 1.6486744e-38
-0.02178232 0.012393691 0.14500001 1.7317225e-38
-0.020366503 0.012455924 0.14500001 1.7135365e-38
-0.016399108 0.01249482 0.145 1.3530382e-38
-0.02542299 0.013622805 0.14500001 1.8392659e-38
-0.021222217 0.013233845 0.14500001 1.805444e-38
-0.020833256 0.01307826 0.14500001 1.7778576e-38
-0.016087938 0.013000468 0.14500001 1.3612146e-38
-0.02542299 0.01447852 0.14500001 1.7460273e-38
-0.025306303 0.015392575 0.14500001 1.6723066e-38
-0.025189614 0.01673449 0.14500001 1.6722723e-38
-0.024956236 0.016578905 0.14500001 1.6539047e-38
-0.02612312 0.017667994 0.14500001 1.672128e-38
-0.025389651 0.017501296 0.145 1.6447208e-38
-0.024956238 0.017201243 0.14500001 1.6722359e-38
-0.025356311 0.018334782 0.145 1.5348037e-38
-0.024956238 0.018601499 0.14500001 1.5343012e-38
-0.025376314 0.019464992 0.145 1.5618521e-38
-0.024956238 0.019418318 0.14500001 1.5249025e-38
-0.02612312 0.020468511 0.14500001 1.6263558e-38
-0.025393818 0.020439338 0.145 1.6358627e-38
-0.024956236 0.020468511 0.14500001 1.6177468e-38
-0.018655078 0.031437192 0.145 1.2958896e-38
-0.015664486 -0.003488678 0.14650001 1.3551307e-38
-0.016551368 -0.002771413 0.14600001 1.4103401e-38
0.037388384 -0.00042259652 0.14650001 1.299766e-38
-0.024478348 0.0016185859 0.14633335 1.7790508e-38
-0.02375905 0.0017547617 0.14625001 1.7974897e-38
0.040946219 0.0020598078 0.147 1.3181695e-38
0.045367394 0.0063930321 0.14600001 1.3274977e-38
-0.022384115 0.010894543 0.14650001 1.5386138e-38
-0.023248464 0.011680212 0.14600001 1.676837e-38
-0.022398079 0.011431656 0.14633335 1.566129e-38
-0.021547323 0.011653862 0.14641668 1.6399218e-38
-0.020663619 0.011797705 0.14600001 1.6583625e-38
-0.021368578 0.012541826 0.14600001 1.7687813e-38
-0.020663619 0.012150183 0.14600001 1.6860213e-38
-0.01619889 0.012385169 0.14600001 1.2980806e-38
-0.021603564 0.013090126 0.14600001 1.8146636e-38
-0.015585621 0.013213553 0.14650001 1.3058976e-38
-0.026068293 0.015674971 0.14600001 1.6170972e-38
-0.025833307 0.015909957 0.14600001 1.6263167e-38
-0.025739312 0.016332932 0.14600001 1.6631598e-38
-0.026068293 0.017202377 0.14600001 1.6719845e-38
-0.025833307 0.017202377 0.14600001 1.681204e-38
-0.019418195 0.032452956 0.14600001 1.2958174e-38
0.02935707 0.038454268 0.14627275 1.3460925e-38
0.028519517 0.039570879 0.14616668 1.4106657e-38
0.029388355 0.039526027 0.14600001 1.3184339e-38
-0.016897202 -0.0050723227 0.148 1.3090692e-38
-0.017333908 -0.0046356139 0.148 1.336656e-38
-0.016698698 -0.0043974095 0.148 1.3182526e-38
-0.017135406 -0.0034048893 0.148 1.3735699e-38
-0.016629223 -0.0036728696 0.148 1.3459112e-38
-0.015944382 -0.0038812989 0.148 1.3459112e-38
-0.017492713 -0.0028093774 0.148 1.4103399e-38
-0.024757959 0.00088279624 0.148 1.7513919e-38
-0.024638858 0.001121001 0.148 1.732953e-38
-0.022375911 0.010649191 0.148 1.4742192e-38
-0.021899503 0.010887396 0.148 1.4189383e-38
-0.021661296 0.011125601 0.148 1.4557452e-38
-0.017730815 -0.0041473382 0.149 1.3459112e-38
-0.017491 -0.0037876167 0.149 1.3551307e-38
-0.017730815 -0.0029482669 0.149 1.4103399e-38
0.032510277 0.00072888494 0.149 1.3456174e-38
0.033169769 0.0016082039 0.149 1.391606e-38
0.033379607 0.0024475534 0.149 1.3179951e-38
0.034308884 0.002567461 0.149 1.3362163e-38
0.034308884 0.0033668419 0.149 1.3363606e-38
-0.022167377 0.010721145 0.149 1.3912796e-38
0.012725599 0.012639659 0.149 1.2998499e-38
0.012725599 0.013119288 0.149 1.318289e-38
-0.01833266 -0.0046580201 0.15000001 1.3182888e-38
0.0313101 -0.0025153845 0.14999999 1.345506e-38
0.031521346 -0.0015195116 0.14999999 1.2994821e-38
0.032366332 -0.0012780878 0.15000001 1.326995e-38
0.032469798 -0.00038137104 0.14999999 1.4007885e-38
0.032366332 0.00041187843 0.15000001 1.3179963e-38
0.033694163 0.0017397089 0.15000001 1.4467063e-38
0.033814874 0.0021018446 0.15000001 1.4191922e-38
0.011442938 0.03260171 0.15000001 1.3269248e-38
0.014742397 0.032762662 0.15000001 1.3358533e-38
0.014983821 0.033245508 0.15000001 1.3081947e-38
0.0099139204 0.038315408 0.15000001 1.4013741e-38
-0.018697912 -0.0042030071 0.15100001 1.3367635e-38
-0.018454878 -0.0039599738 0.15100001 1.3551307e-38
-0.018697912 -0.0029878409 0.15100001 1.4011204e-38
0.032339074 -0.0015296416 0.15100001 1.3362149e-38
0.03428334 0.0018728237 0.15100001 1.3913893e-38
0.034526374 0.0021158569 0.15100001 1.3638738e-38
-0.022586444 0.01062202 0.15100001 1.3268508e-38
0.010952147 0.033467144 0.15100001 1.2998131e-38
0.015205229 0.033831693 0.15100001 1.3266705e-38
0.01192428 0.03857084 0.15100001 1.3737154e-38
0.013625513 0.03857084 0.15100001 1.3184341e-38
0.012609192 0.039410412 0.15100001 1.4474719e-38
0.01346349 0.039421454 0.15100001 1.3276179e-38
0.012572368 0.040515106 0.15100001 1.3276898e-38
0.013463492 0.040515106 0.15100001 1.3092508e-38
0.01257237 0.041547999 0.15100001 1.3553483e-38
0.011924279 0.042702407 0.15100001 1.3460568e-38
0.012572368 0.042702407 0.15100001 1.3645319e-38
0.011924279 0.04359353 0.15100001 1.3737154e-38
0.012572368 0.043593522 0.15100001 1.3460568e-38
0.011802763 0.044160604 0.15100001 1.3276176e-38
0.009785587 0.047708891 0.15100001 1.3000668e-38
0.010709113 0.048535202 0.15100001 1.3092864e-38
0.009493947 0.049403183 0.15100001 1.3553482e-38
-0.018577097 -0.003619235 0.15200001 1.3643503e-38
0.032553241 -0.001295129 0.15200001 1.3730928e-38
0.033205617 -0.00072429591 0.15200001 1.3361797e-38
0.0036038468 0.020804266 0.15200001 1.5485629e-38
0.0031961089 0.021212002 0.15200001 1.567002e-38
0.0068657505 0.031976283 0.15200001 1.4935698e-38
0.011513963 0.031976283 0.15200001 1.4190469e-38
0.012492534 0.031976283 0.15200001 1.4926584e-38
0.010465494 0.032780107 0.15200002 1.3643496e-38
0.011562892 0.032563426 0.15200001 1.3637659e-38
0.012614856 0.032710209 0.152 1.4834391e-38
0.013568962 0.032759137 0.15200001 1.5201738e-38
0.0094344988 0.033607233 0.15200001 1.40141e-38
0.010321328 0.033749942 0.15200001 1.3552399e-38
0.012614854 0.033607233 0.152 1.2993023e-38
0.013715747 0.03360723 0.15200001 1.299156e-38
0.0094344988 0.034178067 0.15200001 1.3921544e-38
0.010290749 0.034178067 0.15200001 1.3644956e-38
0.011697445 0.034483869 0.15200001 1.318289e-38
0.014571996 0.03454503 0.15200001 1.3083757e-38
0.011758606 0.035482828 0.15200001 1.3460568e-38
0.012614855 0.035482828 0.152 1.3091418e-38
0.01158386 0.036414798 0.15200002 1.3737154e-38
0.012614856 0.036379848 0.152 1.3644956e-38
0.013715748 0.036379848 0.15200001 1.3091062e-38
0.010780035 0.037603065 0.15200001 1.4013381e-38
0.011513963 0.037358422 0.15200001 1.3553842e-38
0.012614855 0.037358426 0.152 1.3184698e-38
0.013715747 0.037358422 0.15200001 1.3183978e-38
0.010780035 0.038092349 0.15200001 1.3644599e-38
0.012614855 0.038459316 0.15199998 1.3460568e-38
0.013685166 0.038306411 0.15200001 1.3276535e-38
0.014205032 0.038092349 0.15200001 1.3091785e-38
0.010046106 0.039315563 0.15200001 1.3737154e-38
0.012247891 0.03980485 0.15200001 1.5120089e-38
0.010780035 0.040661097 0.15200001 1.3830073e-38
0.011513962 0.04045723 0.15200001 1.3369095e-38
0.010780034 0.041435804 0.15200001 1.3460931e-38
0.0095568206 0.042862885 0.15200001 1.5488507e-38
0.010437535 0.042528544 0.15199998 1.2999231e-38
0.0093937265 0.043678358 0.15200001 1.5579625e-38
0.010413071 0.043556038 0.152 1.3091065e-38
0.011391643 0.043556038 0.15200001 1.3921546e-38
0.009312178 0.044534609 0.15200001 1.5210844e-38
0.010290749 0.044383164 0.15200002 1.3275818e-38
0.011350867 0.044289965 0.15200001 1.4198133e-38
0.009312178 0.045186989 0.15200001 1.6041682e-38
0.0035630732 0.047755737 0.15200001 1.4567637e-38
0.0044193226 0.04787806 0.15200001 1.3553486e-38
0.0058871792 0.047755741 0.15200001 1.4474719e-38
0.0036154964 0.048472196 0.15200002 1.4474359e-38
0.0047455127 0.048530445 0.15200001 1.3552767e-38
0.0056425366 0.048611987 0.15200001 1.4014101e-38
0.0063764653 0.048611987 0.15200001 1.3921546e-38
0.0049086083 0.049509015 0.15200001 1.3646759e-38
0.0056425366 0.049509007 0.15200001 1.3462727e-38
0.0063764653 0.049509015 0.15200001 1.3646038e-38
0.0085782502 0.049712881 0.15200001 1.2999589e-38
0.0057648579 0.050079845 0.15200001 1.3554921e-38
0.0065905275 0.050355069 0.15200001 1.3461288e-38
0.0071103931 0.050569132 0.15200001 1.3369451e-38
0.0068657505 0.051058415 0.15200001 1.3277255e-38
0.0071103931 0.051058415 0.15200001 1.3277255e-38
-0.01919182 -0.004012424 0.15300001 1.3643503e-38
-0.01919182 -0.0036430457 0.15300001 1.3735337e-38
0.013805982 0.014456493 0.15300001 1.2998864e-38
0.0044483976 0.015934007 0.15300001 1.5117925e-38
0.0037096406 0.021351555 0.15300001 1.567002e-38
0.011097209 0.030955389 0.15300001 1.299407e-38
0.0069109197 0.031940401 0.15300001 1.5027533e-38
0.010440536 0.031694148 0.15300001 1.2995552e-38
0.011374243 0.031724926 0.15300001 1.4007157e-38
0.012164301 0.031858314 0.15300001 1.4374134e-38
0.0064184153 0.03218665 0.15300001 1.4750946e-38
0.0096548731 0.032643978 0.15300001 1.364351e-38
0.010358452 0.032383654 0.15300001 1.3456928e-38
0.0087167695 0.033705205 0.15300001 1.3276176e-38
0.0093734423 0.033171661 0.15300001 1.3644597e-38
0.0086346846 0.034485005 0.15300001 1.3644959e-38
0.0095376102 0.034895424 0.15300001 1.3552763e-38
0.010543141 0.034772296 0.15300001 1.3183978e-38
0.011179292 0.034731254 0.15300001 1.3367649e-38
0.008757811 0.03538793 0.15300001 1.382899e-38
0.0095376112 0.03538793 0.15300001 1.3552763e-38
0.010440536 0.035387933 0.15300001 1.3460568e-38
0.011220335 0.03538793 0.15300001 1.4013381e-38
0.0062952889 0.03661919 0.15300001 1.4659111e-38
0.0086654667 0.036403719 0.15300001 1.4566915e-38
0.0095376112 0.036372941 0.15300001 1.401374e-38
0.010440535 0.036372941 0.15300001 1.3737154e-38
0.011158772 0.036311373 0.15300001 1.3368372e-38
0.0056796586 0.037111696 0.15300001 1.4750946e-38
0.0061721629 0.037111696 0.15300001 1.5027533e-38
0.0095376121 0.037481077 0.15300001 1.4658749e-38
0.010403224 0.037447497 0.15300001 1.4474358e-38
0.0039558928 0.03982047 0.15300001 1.4567994e-38
0.0045961486 0.03972197 0.15300001 1.5027893e-38
0.0054334067 0.039697345 0.15300001 1.4659111e-38
0.0064594578 0.039738383 0.15300001 1.4474719e-38
0.0076496764 0.039738383 0.15300001 1.401446e-38
0.0096196942 0.039574217 0.15300001 1.4198133e-38
0.0039558928 0.040312976 0.15300001 1.4752025e-38
0.0045304811 0.040477142 0.15300001 1.5120448e-38
0.0054334067 0.040477142 0.15300001 1.4382524e-38
0.0065415413 0.040477145 0.15300001 1.382935e-38
0.0074034245 0.040477142 0.15300001 1.3368372e-38
0.0098659471 0.042282991 0.15300001 1.4105937e-38
0.010235325 0.042036738 0.15300001 1.382935e-38
0.0054557929 0.043357544 0.15300001 1.3645319e-38
0.0026015055 0.048726592 0.15300001 1.5766537e-38
0.0042021452 0.048931804 0.15300001 1.392119e-38
0.0028477577 0.049178053 0.15300001 1.5674342e-38
0.0036275566 0.049178053 0.15300001 1.4013741e-38
0.0043498967 0.049424306 0.15300001 1.4106657e-38
0.023149723 -0.012300706 0.15400001 1.3089155e-38
0.023191033 -0.011970224 0.15400001 1.327319e-38
-0.019812981 -0.0040386491 0.15400001 1.3643503e-38
-0.019812981 -0.0036668566 0.15400001 1.3827531e-38
0.0046562292 0.012450119 0.155 1.4749862e-38
0.0052549597 0.012524961 0.155 1.456547e-38
0.0046728603 0.013231796 0.155 1.5303035e-38
0.01036912 0.013897053 0.155 1.3550196e-38
0.0047560176 0.014894938 0.155 1.5486708e-38
0.0089970287 0.014770202 0.155 1.484206e-38
0.0096622845 0.014645468 0.15499999 1.4012658e-38
0.01052504 0.014676652 0.15499999 1.3182867e-38
0.003741432 0.015741309 0.15433334 1.5301958e-38
0.0044287979 0.015583204 0.15489998 1.4656949e-38
0.0052549597 0.015768087 0.155 1.5117206e-38
0.0088972403 0.015693245 0.155 1.4842059e-38
0.0096622854 0.015643351 0.15499999 1.4289965e-38
0.010577013 0.015643351 0.15499999 1.3644218e-38
0.01124227 0.015643351 0.155 1.3087035e-38
0.0046562292 0.016641237 0.155 1.502573e-38
0.0052549597 0.016391765 0.155 1.4841697e-38
0.0087163737 0.016610052 0.15499999 1.4934256e-38
0.0096622854 0.016558079 0.15499999 1.4473636e-38
0.010577013 0.016558081 0.15499999 1.3920817e-38
0.011408583 0.016682817 0.15499999 1.2995583e-38
0.0046312818 0.017140178 0.155 1.4933534e-38
0.0086644003 0.017472805 0.15499999 1.4934254e-38
0.0096622854 0.017472807 0.15499999 1.4473638e-38
0.010577013 0.017472807 0.15499999 1.4105574e-38
0.011491741 0.017472807 0.15499999 1.3180349e-38
0.0088722929 0.018470692 0.15499999 1.4565832e-38
0.0095672477 0.018423174 0.15499999 1.4289246e-38
0.010583884 0.018291438 0.15400003 1.419777e-38
0.0089970287 0.01938542 0.155 1.4381082e-38
0.0094335023 0.019310514 0.15480001 1.4381082e-38
0.010178292 0.01901249 0.15400001 1.4565473e-38
0.0035086612 0.020882247 0.155 1.548491e-38
0.0040076035 0.020882247 0.155 1.5853692e-38
0.0027424395 0.021738969 0.15400001 1.5854411e-38
0.0033734119 0.021684814 0.15450001 1.5762216e-38
0.0040076035 0.02138119 0.155 1.567002e-38
0.0052549597 0.025372729 0.155 1.4841338e-38
0.0044788276 0.028671291 0.15499999 1.4473276e-38
0.0055044307 0.028615853 0.15499999 1.3551316e-38
0.0025107763 0.029738471 0.155 1.4842061e-38
0.0032591897 0.029613737 0.15499999 1.4565473e-38
0.0043818108 0.029613733 0.15499999 1.4381079e-38
0.0065023159 0.029613737 0.15499999 1.3552752e-38
0.0094347065 0.02985644 0.15400001 1.3271786e-38
0.010178292 0.029918406 0.15400001 1.4468865e-38
0.0026355118 0.030611621 0.155 1.4105217e-38
0.0032591897 0.030528465 0.15499999 1.4473639e-38
0.0043818108 0.030528465 0.15499999 1.4749866e-38
0.0055044312 0.030528465 0.15499999 1.3736073e-38
0.0084595466 0.030596662 0.1543 1.3183598e-38
0.0094347065 0.030661991 0.15400003 1.3734947e-38
0.010240257 0.030600026 0.15400001 1.3732377e-38
0.0017623625 0.031609505 0.155 1.4750589e-38
0.0023444621 0.031443194 0.15499999 1.4382164e-38
0.0032591897 0.031443194 0.15499999 1.4750946e-38
0.0043818108 0.031443194 0.15499999 1.4934617e-38
0.0055044307 0.031443194 0.15499999 1.4012302e-38
0.0066091446 0.031427663 0.15460001 1.3828983e-38
0.0075344336 0.031570815 0.15400003 1.438288e-38
0.0084432606 0.031570815 0.15400003 1.4290324e-38
0.0093638897 0.031511802 0.15400003 1.3827891e-38
0.0017623625 0.032108448 0.155 1.4842786e-38
0.0023860408 0.032451473 0.15499999 1.4197775e-38
0.0032591897 0.032441076 0.15499999 1.428997e-38
0.0043818108 0.03244108 0.15499999 1.4750586e-38
0.0056038899 0.032462422 0.15463637 1.4197052e-38
0.0066256071 0.032892745 0.15400001 1.4843139e-38
0.0075344327 0.032479644 0.15400003 1.4843139e-38
0.0084432606 0.032479648 0.15400003 1.4474357e-38
0.0092488108 0.032397024 0.15400001 1.4012657e-38
0.0023444621 0.033355806 0.15499999 1.4105221e-38
0.0032591897 0.033355806 0.15499999 1.4013385e-38
0.0044607143 0.033363216 0.15476921 1.4843502e-38
0.0055962405 0.033434611 0.15410003 1.4658389e-38
0.0066256067 0.033471089 0.15400003 1.4843139e-38
0.0075344336 0.033471089 0.15400003 1.4382161e-38
0.0083606392 0.033347156 0.15400003 1.4013741e-38
0.0024109879 0.034428533 0.15499999 1.465839e-38
0.0032591897 0.034478426 0.15499999 1.4750586e-38
0.0044002989 0.034458719 0.1548 1.4566555e-38
0.0056341607 0.034379914 0.15400003 1.4566555e-38
0.0066256067 0.034379914 0.15400003 1.4474359e-38
0.0075344336 0.034379918 0.15400003 1.4197772e-38
0.0025107763 0.035601046 0.15499999 1.5211924e-38
0.0032591897 0.03560105 0.15499999 1.5119369e-38
0.0043999092 0.03558204 0.15491666 1.4012662e-38
0.0056717154 0.035461497 0.15400003 1.4197772e-38
0.0066256062 0.035495296 0.15400003 1.4198133e-38
0.0075344332 0.035495292 0.15400003 1.4474359e-38
0.0081953984 0.035619225 0.15400001 1.4013381e-38
0.0025107763 0.036598932 0.15499999 1.5395954e-38
0.0032591897 0.036598928 0.15499999 1.4750227e-38
0.0043818108 0.036598936 0.15499999 1.4842783e-38
0.0055628405 0.036606755 0.15433334 1.4843502e-38
0.0066772448 0.036579687 0.15400003 1.4290328e-38
0.0075344336 0.03661067 0.15400003 1.3644239e-38
0.0081953984 0.036362812 0.15400001 1.3921186e-38
0.0025939334 0.037264187 0.155 1.4473278e-38
0.0032591897 0.037513658 0.15499999 1.465767e-38
0.0043477919 0.03748342 0.15499999 1.5027173e-38
0.0056341602 0.037643429 0.15400003 1.4750946e-38
0.0066772443 0.037633102 0.15400003 1.4750946e-38
0.0075344327 0.037602119 0.15400003 1.3921546e-38
0.0023444621 0.038844172 0.155 1.4658749e-38
0.0038578175 0.038841426 0.15400001 1.4658751e-38
0.0059646424 0.038097844 0.15400001 1.4935698e-38
0.0067082271 0.03829613 0.15400001 1.4751306e-38
0.0075344332 0.038097844 0.15400001 1.4013381e-38
0.0023444621 0.039426271 0.15499999 1.4566915e-38
0.0034931898 0.039445512 0.15435717 1.4566915e-38
0.0047253333 0.039213222 0.15400003 1.4382524e-38
0.0055680638 0.039238006 0.15400001 1.4382524e-38
0.006646262 0.039585013 0.15400001 1.4474719e-38
0.0085671907 0.039832875 0.15400001 1.3922265e-38
0.0091868453 0.039832875 0.15400001 1.4198133e-38
0.0023860408 0.040309813 0.15499999 1.5120089e-38
0.00338688 0.0403286 0.15400001 1.5212643e-38
0.0081953984 0.0403286 0.15400001 1.3921546e-38
0.0027602476 0.041089412 0.155 1.5765458e-38
0.003521862 0.041293569 0.15425003 1.4197771e-38
0.0082486151 0.041089412 0.155 1.3828994e-38
0.0039817486 0.043302938 0.15400001 1.3737154e-38
0.0046261894 0.043501228 0.15400001 1.4290328e-38
0.0068734684 0.043716043 0.15400001 1.3186143e-38
0.0072865714 0.043385562 0.15400001 1.3370174e-38
0.0036099558 0.049747344 0.15400001 1.3553125e-38
0.0027602476 0.050319847 0.155 1.5672903e-38
0.0034961361 0.050343823 0.15450001 1.447508e-38
0.0084692184 0.0089650974 0.156 1.3827519e-38
0.0064605731 0.0098857256 0.156 1.4473275e-38
0.0072975084 0.0096346447 0.156 1.4842057e-38
0.0084273713 0.0096346447 0.156 1.4380346e-38
0.0093061542 0.0096346447 0.156 1.355088e-38
0.0047030076 0.010806356 0.156 1.5026451e-38
0.005414403 0.010597122 0.156 1.4934256e-38
0.0062931855 0.010555274 0.156 1.4381081e-38
0.0072975084 0.010555275 0.156 1.484206e-38
0.0084273713 0.010555274 0.156 1.4565466e-38
0.0095258495 0.010597121 0.156 1.3550894e-38
0.010059397 0.010973742 0.156 1.3550155e-38
0.0037823785 0.011475904 0.156 1.4565473e-38
0.0045774677 0.011434057 0.156 1.4657669e-38
0.0053725559 0.011559597 0.156 1.4657669e-38
0.0062931855 0.011559599 0.156 1.4657669e-38
0.0072975084 0.011559597 0.156 1.4566552e-38
0.0084273713 0.011559598 0.156 1.4750582e-38
0.0095572351 0.011559598 0.156 1.3734943e-38
0.010059397 0.011224823 0.156 1.3549799e-38
0.0055399435 0.012379794 0.156 1.4288883e-38
0.0062931855 0.012480226 0.156 1.4012299e-38
0.0072975084 0.012480227 0.156 1.4104495e-38
0.0084273713 0.012480226 0.156 1.4842059e-38
0.0095572351 0.012480226 0.156 1.3643493e-38
0.010226783 0.012647614 0.156 1.3551269e-38
0.004661161 0.013610091 0.156 1.5395232e-38
0.0053725559 0.013610091 0.156 1.5487428e-38
0.0062931865 0.013610091 0.156 1.5210843e-38
0.0072975084 0.013610091 0.156 1.4565835e-38
0.0084273722 0.013610092 0.15599999 1.4750225e-38
0.0095572351 0.01361009 0.156 1.4197045e-38
0.010310478 0.01348455 0.156 1.3459447e-38
0.0053725559 0.014739956 0.156 1.5487069e-38
0.0062931855 0.014739956 0.156 1.5118647e-38
0.0072975084 0.014739954 0.156 1.484206e-38
0.0083520468 0.014714846 0.156 1.484206e-38
0.0055399435 0.015643844 0.156 1.5117565e-38
0.0062931855 0.015744276 0.156 1.502573e-38
0.0072975084 0.015744276 0.156 1.4842057e-38
0.0082300948 0.015708407 0.156 1.4934254e-38
0.0055399435 0.016798815 0.156 1.4933893e-38
0.0062931855 0.016664905 0.156 1.521048e-38
0.0072975084 0.016664905 0.156 1.502645e-38
0.0081135212 0.01656029 0.156 1.5118647e-38
-0.0022435589 0.017250761 0.156 1.3733912e-38
0.0047867014 0.017501842 0.156 1.502573e-38
0.0053725564 0.017376304 0.156 1.5303396e-38
0.0062931855 0.017376304 0.156 1.5304114e-38
0.0072975084 0.017376302 0.156 1.5027528e-38
0.0080507509 0.017376302 0.156 1.5118644e-38
0.0047867014 0.018255083 0.156 1.5763295e-38
0.0053725559 0.018255083 0.156 1.5764014e-38
0.0062931855 0.018255083 0.156 1.5304114e-38
0.0072975084 0.018255083 0.156 1.4935332e-38
0.0081511829 0.018305298 0.156 1.4842776e-38
0.0047867014 0.019384947 0.156 1.585549e-38
0.0053725559 0.019384945 0.156 1.5763295e-38
0.0062931855 0.019384949 0.156 1.5394512e-38
0.0072975084 0.019384947 0.156 1.4841699e-38
0.0082790051 0.019419186 0.156 1.4564754e-38
0.0045774677 0.020598503 0.156 1.5947326e-38
0.0053725559 0.020514809 0.156 1.5763295e-38
0.0062931855 0.020514809 0.156 1.5578903e-38
0.0072975084 0.020514809 0.156 1.5210122e-38
0.0082300948 0.020478943 0.156 1.4933896e-38
0.0045714895 0.021483263 0.156 1.585513e-38
0.0053725559 0.021435438 0.156 1.5763295e-38
0.0062931855 0.021435436 0.156 1.5763296e-38
0.0072661233 0.021393592 0.156 1.5486709e-38
0.0080507509 0.02101697 0.156 1.5117928e-38
0.0026943621 0.022607148 0.156 1.5577824e-38
0.0034476041 0.022439763 0.156 1.5209042e-38
0.0044519273 0.022439761 0.156 1.5485989e-38
0.0053725559 0.022439761 0.156 1.4656947e-38
0.0062931855 0.022439761 0.156 1.5302317e-38
0.007171968 0.022439761 0.156 1.5302318e-38
0.0027780558 0.023360392 0.156 1.5116848e-38
0.0034476041 0.023360392 0.156 1.5393793e-38
0.0044519268 0.023360394 0.156 1.5025012e-38
0.0052529946 0.023312567 0.156 1.4195253e-38
0.0070464276 0.023025617 0.156 1.5578906e-38
0.0026525154 0.024281019 0.156 1.4287086e-38
0.0034476044 0.024155481 0.156 1.4840262e-38
0.0044519273 0.024155481 0.156 1.5670023e-38
0.0051633227 0.024155479 0.156 1.5670383e-38
0.0026776234 0.025235126 0.156 1.4288165e-38
0.0034476041 0.025536424 0.156 1.4933534e-38
0.0044519273 0.025536424 0.156 1.5117928e-38
0.003698685 0.026708134 0.156 1.4104135e-38
0.0044519268 0.026415206 0.156 1.4749144e-38
0.0053307093 0.026205972 0.156 1.4564745e-38
0.0027780556 0.027670609 0.156 1.4380362e-38
0.0034476044 0.027545068 0.156 1.345804e-38
0.0027780558 0.028465698 0.156 1.4195969e-38
0.0034476044 0.028465698 0.156 1.3735347e-38
0.0040334594 0.028298311 0.156 1.401229e-38
0.0024767588 0.029252416 0.156 1.4933537e-38
0.0032802173 0.029051553 0.156 1.4381082e-38
0.00023137966 0.032387339 0.156 1.3644243e-38
0.001146031 0.032315601 0.156 1.4474364e-38
0.00026724834 0.033445466 0.156 1.392083e-38
0.0012715711 0.033445463 0.156 1.4289612e-38
-0.00073707453 0.034575328 0.156 1.3092505e-38
0.00026724834 0.034575328 0.156 1.4197772e-38
0.0013217874 0.034600437 0.156 1.4197772e-38
-0.00073707459 0.035495955 0.156 1.3737515e-38
0.00026724834 0.035495955 0.156 1.4934619e-38
0.0013971116 0.035495959 0.156 1.4105577e-38
-0.001615857 0.036458436 0.156 1.3828991e-38
-0.00073707459 0.036500283 0.156 1.4658751e-38
0.00026724834 0.036500279 0.156 1.4473999e-38
0.0013971115 0.036500279 0.156 1.5119367e-38
-0.001239236 0.037086137 0.156 1.4750946e-38
-0.00065338099 0.037295368 0.156 1.465839e-38
0.00026724837 0.03742091 0.156 1.4842422e-38
0.0013468955 0.037337217 0.156 1.5395593e-38
0.00035094193 0.038257841 0.156 1.484206e-38
0.0011878777 0.038425233 0.156 1.5211201e-38
0.0013433087 0.03930999 0.156 1.4935336e-38
0.001522652 0.040099103 0.156 1.4198133e-38
0.0080507509 0.040601265 0.156 1.3830429e-38
0.0013971117 0.041856669 0.156 1.5027533e-38
0.0016481923 0.042358831 0.156 1.4750946e-38
0.0030291365 0.04210775 0.156 1.5212282e-38
0.0027780556 0.050895572 0.156 1.4935338e-38
0.0027958637 0.0035476114 0.15700001 1.3183618e-38
0.0033012442 0.0035476116 0.15700001 1.3091422e-38
0.00443835 0.0035476114 0.15700002 1.3183618e-38
0.0055754562 0.0035476116 0.15700001 1.2999587e-38
0.0065862169 0.0035476116 0.15700001 1.3092135e-38
0.0027958637 0.004347797 0.15700001 1.3368009e-38
0.0033012442 0.0045583718 0.15700001 1.3368009e-38
0.00443835 0.0045583718 0.15700002 1.3460205e-38
0.0055754562 0.0045583718 0.15700001 1.3460205e-38
0.0065862169 0.0045583718 0.15700001 1.3368368e-38
0.0033734415 0.0054488042 0.15699999 1.355276e-38
0.00443835 0.0054849028 0.15700002 1.3737152e-38
0.0055754562 0.0054849037 0.15700001 1.3829347e-38
0.0065862169 0.0054849032 0.15700001 1.3644594e-38
0.0075127473 0.0054849032 0.15700001 1.3183953e-38
0.0027958637 0.0067483541 0.15700001 1.3921543e-38
0.0033328305 0.0065272506 0.15700001 1.4013739e-38
0.00443835 0.0064956644 0.15700002 1.3921543e-38
0.0055754562 0.0064956639 0.15700001 1.4105574e-38
0.0065862169 0.0064956639 0.15700001 1.3828987e-38
0.0075127473 0.0064956644 0.15700001 1.3367995e-38
0.0033012442 0.0074221939 0.15700001 1.4105574e-38
0.00443835 0.0074221934 0.15700002 1.4105574e-38
0.0055754562 0.0074221939 0.15700001 1.4105574e-38
0.0065862169 0.0074221939 0.15700001 1.419777e-38
0.0075127473 0.0074221948 0.15700001 1.3736786e-38
0.0082287034 0.0074221939 0.15700001 1.3183224e-38
0.0034275893 0.0084329545 0.15700001 1.4105215e-38
0.00443835 0.0084329545 0.15700002 1.4289965e-38
0.0055754562 0.0084329545 0.15700001 1.4289965e-38
0.0065862169 0.0084329545 0.15700001 1.419777e-38
0.0075127473 0.0084329545 0.15700001 1.4105573e-38
0.0083866343 0.0084855994 0.15700001 1.3643846e-38
0.0033734415 0.0094196498 0.15699999 1.4657669e-38
0.00443835 0.0093594864 0.15700002 1.4750223e-38
0.0055754562 0.0093594855 0.15700001 1.4565472e-38
0.0065019871 0.0092331404 0.15700001 1.4381081e-38
0.0073442874 0.0090225656 0.15700001 1.4473278e-38
0.009113119 0.0090225656 0.15700001 1.3457622e-38
0.0026274035 0.010454476 0.15700001 1.5026093e-38
0.0033012442 0.010286015 0.15700001 1.4934256e-38
0.0043878118 0.010235479 0.15700002 1.4565473e-38
0.0055754562 0.010033326 0.15700001 1.4657666e-38
0.0025431735 0.011296776 0.15700001 1.5118646e-38
0.003269658 0.011265191 0.15700001 1.4749864e-38
0.0040593147 0.011044087 0.15700001 1.4381082e-38
0.0027958637 0.012181193 0.15700001 1.5394512e-38
0.0031929484 0.012379735 0.15699999 1.5394871e-38
0.0027958637 0.01458175 0.15700001 1.5671099e-38
0.0030485541 0.01483444 0.15700001 1.5302317e-38
0.0033012442 0.015339821 0.15700001 1.5117565e-38
0.0015324126 0.022794181 0.15700001 1.5025371e-38
0.0021220231 0.022836298 0.15700001 1.5578185e-38
0.0033012442 0.022920527 0.15700001 1.4748064e-38
0.0017851029 0.023299562 0.15700001 1.5301239e-38
0.0021641382 0.023510136 0.15700001 1.5301239e-38
0.0017851029 0.024436668 0.15700001 1.4010859e-38
0.0020377932 0.024436668 0.15700001 1.4287446e-38
0.0035539344 0.024689358 0.15700001 1.4748067e-38
0.0040593147 0.024689358 0.15700001 1.5670023e-38
0.0017851029 0.025447428 0.15700001 1.4195969e-38
0.0021009657 0.025510602 0.15700001 1.4288525e-38
0.0017851029 0.026331842 0.15700001 1.3735713e-38
0.0023747135 0.026584534 0.15700002 1.3735713e-38
0.0032450908 0.026486265 0.15700001 1.3919744e-38
0.0024168284 0.027658466 0.15700001 1.3920104e-38
0.0005216517 0.028580785 0.15700001 1.3182542e-38
0.0022904833 0.028732399 0.15700001 1.4380363e-38
-0.0024790445 0.037292279 0.15700001 1.3183621e-38
-0.0017525601 0.037450209 0.15700001 1.4565476e-38
-0.00061545428 0.039850768 0.15700001 1.4105574e-38
-0.0012471798 0.040608838 0.15700001 1.4566552e-38
-0.00052069547 0.040640421 0.15700001 1.4566912e-38
-0.00061545428 0.041114219 0.15700001 1.4659108e-38
0.0027958637 0.042124979 0.15700001 1.5488869e-38
0.0017851029 0.04313574 0.15700001 1.5488871e-38
0.0028136717 -0.010501041 0.15800001 1.3459837e-38
0.0034918042 -0.010501041 0.15800001 1.3091055e-38
0.0044242362 -0.010501041 0.15800001 1.2998861e-38
0.0035765707 -0.0099288663 0.15800001 1.3552395e-38
0.0044242362 -0.0096533755 0.15800001 1.3276168e-38
0.0044666193 -0.0086891558 0.15800001 1.2999584e-38
0.002559372 -0.00045620362 0.15800001 1.2999587e-38
0.003491804 -0.00045620362 0.15800001 1.3091782e-38
0.003491804 0.00068814494 0.15800001 1.2999588e-38
0.0040851701 0.00056099507 0.15800001 1.3091785e-38
0.0034239911 0.0015527637 0.15800001 1.2999589e-38
0.0023050723 0.0036549745 0.15800001 1.3275813e-38
0.0015930332 0.0044009201 0.15800001 1.3183978e-38
0.0023050723 0.0043754904 0.15800001 1.3368009e-38
0.0016693231 0.0050112396 0.15800001 1.3368009e-38
0.0025085118 0.0054435483 0.15800001 1.3368369e-38
0.0015058446 0.0066096946 0.15800001 1.3644596e-38
0.0024746053 0.0064522712 0.15800001 1.3644956e-38
0.00039782445 0.0075542354 0.15800001 1.3460205e-38
0.0015421733 0.0075542363 0.15800001 1.355204e-38
0.0024322222 0.0075542363 0.15800001 1.4012299e-38
-0.00049222453 0.0080628358 0.15800001 1.2999224e-38
0.00052497431 0.0083171353 0.15800001 1.3551679e-38
0.0015421733 0.0084866686 0.15800001 1.373607e-38
0.002559372 0.0084866686 0.15800001 1.4104852e-38
0.00077927409 0.0094190994 0.15800001 1.3920101e-38
0.0015421732 0.0094191004 0.15800001 1.4196688e-38
0.0025275843 0.0093661202 0.15800001 1.456547e-38
0.0015421732 0.010436299 0.15800001 1.4380362e-38
0.0023898389 0.010182 0.15800001 1.4841338e-38
0.0016148303 0.011332403 0.15800001 1.5210122e-38
0.0017117063 0.012428313 0.15800001 1.5486708e-38
0.0024503863 0.012640229 0.15800001 1.5486708e-38
0.0017328979 0.013721004 0.15800001 1.5486708e-38
0.0025275843 0.013625642 0.15800001 1.5487068e-38
0.0030679714 0.01340313 0.15800001 1.5487427e-38
0.00052497431 0.014928927 0.15800001 1.438036e-38
0.0015421731 0.014674629 0.15800001 1.5210121e-38
0.002406792 0.014674628 0.15800001 1.5671099e-38
-0.0010008239 0.015946126 0.15800001 1.3918303e-38
-0.00059394439 0.015691826 0.15800001 1.4748784e-38
0.00039782445 0.01560706 0.15800001 1.4288523e-38
0.0014150233 0.015691826 0.15800001 1.4749143e-38
0.0027500968 0.015501101 0.15800001 1.5301598e-38
-0.0012127403 0.016666641 0.15800001 1.3088541e-38
-0.00061937439 0.016539494 0.15800001 1.4010862e-38
0.00039782442 0.016539492 0.15800001 1.4196329e-38
0.0015421731 0.016539492 0.15800001 1.5117925e-38
0.0023686471 0.016454725 0.15800001 1.5486708e-38
0.00039782445 0.01755669 0.15800001 1.3734992e-38
0.0015421733 0.01755669 0.15800001 1.5117562e-38
0.0023050723 0.017980523 0.15800001 1.5947686e-38
0.0015421732 0.018489122 0.15800001 1.5025728e-38
0.0024067922 0.018438261 0.15800001 1.5947686e-38
0.0015103857 0.019474534 0.15800001 1.456367e-38
0.0012878735 0.023447966 0.15800001 1.4472199e-38
0.0013514484 0.02427444 0.15800001 1.3733915e-38
0.0012878735 0.025482364 0.15800001 1.308998e-38
0.0013514485 0.026690286 0.15800001 1.3459126e-38
0.0015103859 0.027612124 0.15800001 1.3920104e-38
0.0012878735 0.02853396 0.15800001 1.4012299e-38
0.0015421732 0.029169708 0.15800001 1.4381085e-38
0.00035544115 0.030271674 0.15800001 1.31829e-38
-0.0021451726 0.038324498 0.15800001 1.4566555e-38
-0.0017637231 0.040867496 0.15800001 1.4658751e-38
0.0076453662 0.040867496 0.15800001 1.4290328e-38
0.0086262366 0.041339766 0.15800001 1.3921546e-38
0.0095102303 0.041206565 0.15800001 1.3830429e-38
0.00077927404 0.043537639 0.15800001 1.3554561e-38
0.00137264 0.043580025 0.15800001 1.5305919e-38
0.0015421732 0.044300541 0.15800001 1.5213003e-38
0.0035139043 -0.0091173509 0.15900001 1.3275811e-38
0.0041110255 -0.0090320483 0.15900001 1.3275811e-38
0.001328013 -0.0083922753 0.15900002 1.3275811e-38
0.0034164153 -0.0084836716 0.15900002 1.3091779e-38
0.0013813275 -0.0074965931 0.15900002 1.3183615e-38
0.0022831026 -0.0074234754 0.15900002 1.3275811e-38
-0.0010071583 -0.0014827277 0.15900001 1.2999587e-38
0.0015519337 0.0037634103 0.15900001 1.3091782e-38
0.00044299391 0.0044031832 0.15900002 1.2999226e-38
0.0013813275 0.0041046226 0.15900001 1.3091782e-38
0.0013472063 0.0055035921 0.15900002 1.3183618e-38
0.0018078429 0.0063225022 0.15900001 1.35524e-38
-0.00036738528 0.0087536387 0.15900001 1.3643871e-38
0.00018708466 0.0087962905 0.15900001 1.3643513e-38
-0.0022867045 0.0091375029 0.15900001 1.2998499e-38
-0.0010924614 0.0092228055 0.15900001 1.3643869e-38
-0.00034179437 0.0093934126 0.15900001 1.4104847e-38
0.00027238773 0.0094787152 0.15900002 1.3920458e-38
0.00044299389 0.010502352 0.15900002 1.4749141e-38
-0.0022867045 0.011696595 0.15900001 1.4104128e-38
-0.0016469313 0.011568639 0.15900001 1.4380715e-38
-0.0024857449 0.012691797 0.15900002 1.3182537e-38
-0.0016042797 0.012634928 0.15900002 1.4196328e-38
0.0011254185 0.01267758 0.15900002 1.5394512e-38
-0.001391022 0.013743869 0.15900002 1.4012299e-38
0.00069890311 0.013914474 0.15900001 1.4933534e-38
0.0011424791 0.013692687 0.15900001 1.521048e-38
-0.0014458598 0.014657832 0.15900002 1.4287806e-38
0.00052829698 0.014665142 0.15900001 1.4564391e-38
-0.0014259189 0.015325854 0.15900002 1.4378921e-38
-0.00036738528 0.015023414 0.15900001 1.4748424e-38
0.0015519337 0.01544993 0.15900001 1.4933534e-38
0.002149055 0.015620537 0.15900001 1.5394512e-38
-0.0016725224 0.016251778 0.15900001 1.3734266e-38
0.0018078429 0.016047051 0.15900001 1.5117925e-38
0.0021917066 0.016047051 0.15900001 1.5302317e-38
0.0014879564 0.028714554 0.15900001 1.3919386e-38
0.0018078429 0.029098418 0.15900001 1.4104495e-38
0.00052829692 0.030122053 0.15900001 1.3459128e-38
-0.0022867045 0.038822964 0.15900001 1.4750943e-38
-0.0083527751 0.00095437432 0.16000001 1.5392702e-38
-0.0076231384 0.00082561496 0.16000001 1.5484896e-38
-0.0066467142 0.00072904548 0.16000001 1.5393059e-38
-0.005648829 0.00069685566 0.16000001 1.3089616e-38
-0.0084386142 0.0016410908 0.16000001 1.5483816e-38
-0.0076721902 0.0016533535 0.16000001 1.5299424e-38
-0.0066789044 0.0017269304 0.16000001 1.3733179e-38
-0.0044899946 0.010997602 0.16000001 1.4564024e-38
-0.0053913104 0.011255121 0.16000001 1.4563308e-38
-0.0044899951 0.011512638 0.16 1.4471471e-38
-0.0033311609 0.011641398 0.16000001 1.4195965e-38
-0.0026873644 0.011512639 0.16000001 1.4195963e-38
-0.0053913104 0.012671473 0.16000001 1.4378917e-38
-0.0044899951 0.012542714 0.16 1.3641711e-38
-0.0028161234 0.012285195 0.16000001 1.3642795e-38
-0.0053913104 0.013057752 0.16000001 1.3457325e-38
-0.0045251106 0.013455735 0.16 1.3458038e-38
-0.0073707779 -0.0007284907 0.162 1.3273646e-38
-0.0084049795 0.00057164696 0.16100001 1.5300506e-38
-0.0074980315 0.00044208288 0.16100001 1.5484896e-38
-0.0076275957 0.0019968518 0.16100001 1.5115033e-38
-0.050305583 0.0021396233 0.162 1.5119353e-38
-0.0082754157 0.0022559799 0.16100001 1.5023916e-38
-0.0074980319 0.0022559799 0.16100001 1.4470743e-38
-0.0067206468 0.0022559799 0.16100001 1.2995615e-38
-0.043396033 0.0056595816 0.162 1.843732e-38
-0.0054426584 0.010580839 0.16150001 1.3642428e-38
-0.0046006804 0.010360883 0.161625 1.3274003e-38
-0.0038054548 0.010353735 0.16100001 1.38279e-38
-0.0064874315 0.011532767 0.16100001 1.4102326e-38
-0.0057211528 0.011473539 0.16100001 1.447111e-38
-0.0035247328 0.011195901 0.16100001 1.4748417e-38
-0.0058136987 0.012556324 0.16100001 1.4102329e-38
-0.051140804 0.0020216575 0.163 1.4933886e-38
-0.051454552 0.0025619734 0.164 1.3920087e-38
-0.0063179634 0.010322299 0.164 1.3181806e-38
-0.05141421 0.0027546391 0.16500001 1.3182525e-38
-0.050883081 0.0027546391 0.16500001 1.3735699e-38
-0.045669831 0.0057993243 0.16600001 1.8068537e-38
-0.045402654 0.0063336757 0.16600001 1.779195e-38
-0.044734716 0.0063336757 0.16600001 1.8252928e-38
-0.048632801 0.0069094007 0.16700001 1.6501211e-38
-0.048274416 0.0073573757 0.16700001 1.6500491e-38
-0.048743755 0.0067705116 0.16800003 1.6777798e-38
-0.046490464 0.006409985 0.16800001 1.779195e-38
-0.048653621 0.0080323527 0.16800001 1.6315741e-38
-0.047864761 0.0059390669 0.17 1.8068537e-38
-0.048580557 0.0069014798 0.16900001 1.696219e-38
-0.047317535 0.0067599081 0.17 1.779195e-38
-0.046495192 0.0067201438 0.16900001 1.7699755e-38
-0.04595118 0.0067201438 0.16900001 1.7884146e-38
-0.048405606 0.007353242 0.16950001 1.6869634e-38
-0.048671223 0.008080164 0.16900001 1.6500132e-38
-0.049522437 0.0065244487 0.171 1.7238777e-38
-0.048605025 0.0067079309 0.171 1.7515363e-38
-0.048605025 0.0083133988 0.171 1.6777079e-38
-0.050642539 0.0065626036 0.17200001 1.67778e-38
-0.048815444 0.0076699345 0.17200001 1.6961471e-38
-0.047874212 0.0090540964 0.17200001 1.7698676e-38
-0.049683981 0.0063223164 0.17300001 1.7607559e-38
-0.048987877 0.0068792007 0.17300001 1.7607559e-38
-0.048510551 0.0075554173 0.17299999 1.7330612e-38
-0.048291773 0.0084106326 0.17300001 1.7237698e-38
-0.047595665 0.0085498532 0.17300001 1.7698676e-38
-0.047595665 0.0091067366 0.17300001 1.7883067e-38
-0.050671302 0.00607881 0.17400001 1.7515363e-38
-0.048244189 0.0075724185 0.17400001 1.7238777e-38
-0.048244189 0.008132522 0.17400001 1.7237698e-38
-0.047590733 0.0081791971 0.17400001 1.7698676e-38
