# .PCD v0.7 - Point Cloud Data file format
VERSION 0.7
FIELDS x y z rgb
SIZE 4 4 4 4
TYPE F F F F
COUNT 1 1 1 1
WIDTH 985
HEIGHT 1
VIEWPOINT 0 0 0 1 0 0 0
POINTS 985
DATA ascii
-0.019449942 0.0014945591 0.142 1.7329169e-38
-0.018954754 0.002599207 0.142 1.5762202e-38
0.019441282 0.010217467 0.142 1.2991543e-38
-0.013126785 0.014788424 0.142 1.552849e-38
-0.012783962 0.014788424 0.142 1.5436296e-38
-0.011488859 0.014712241 0.142 1.3229e-38
-0.014440935 0.015874026 0.142 1.7014779e-38
-0.013439134 0.015504541 0.14199999 1.5252628e-38
-0.012555414 0.015524856 0.142 1.5162949e-38
-0.011620447 0.015432512 0.14199999 1.3596705e-38
-0.010612758 0.015474067 0.14199999 1.3598865e-38
-0.017507285 0.016540624 0.142 1.5436285e-38
-0.015440832 0.016616806 0.142 1.5991266e-38
-0.014840893 0.016159711 0.142 1.8122204e-38
-0.013069647 0.016616806 0.142 1.4885292e-38
-0.012588063 0.016584156 0.142 1.4240998e-38
-0.011549804 0.016525388 0.142 1.332156e-38
-0.010612759 0.016540624 0.14199999 1.3323359e-38
-0.019183302 0.017988093 0.142 1.4515066e-38
-0.018429095 0.017759547 0.14199999 1.460654e-38
-0.017485518 0.017400399 0.142 1.5251543e-38
-0.016506027 0.017596297 0.142 1.5618888e-38
-0.01555701 0.017500523 0.14199999 1.5346619e-38
-0.013088693 0.017150084 0.142 1.4608705e-38
-0.012384004 0.017359585 0.142 1.3781819e-38
-0.011641224 0.017530998 0.14199999 1.3138968e-38
-0.010612758 0.017530998 0.14199999 1.3326957e-38
-0.021354508 0.018902285 0.142 1.617532e-38
-0.020783138 0.018902285 0.142 1.5897294e-38
-0.019335667 0.01852137 0.142 1.6642405e-38
-0.018440522 0.018521372 0.14199999 1.5992719e-38
-0.017545376 0.018635646 0.142 1.5529943e-38
-0.015755085 0.018216642 0.142 1.571613e-38
-0.011549805 0.018399479 0.142 1.4246756e-38
-0.010612759 0.018521374 0.14199999 1.3606063e-38
-0.021354506 0.01935938 0.142 1.6360787e-38
-0.0205038 0.019333987 0.142 1.6639532e-38
-0.019640397 0.019245107 0.142 1.7475766e-38
-0.01819293 0.019283196 0.142 1.5993088e-38
-0.017431103 0.019359378 0.142 1.5529946e-38
-0.016555002 0.019387949 0.142 1.59938e-38
-0.015526538 0.019405089 0.14199999 1.5995961e-38
-0.01415525 0.019130832 0.142 1.4608709e-38
-0.011412675 0.019130832 0.142 1.3788654e-38
-0.021316417 0.020121207 0.142 1.7197023e-38
-0.020706953 0.020121206 0.142 1.6366904e-38
-0.01730413 0.020400543 0.142 1.5906639e-38
-0.016516911 0.020444984 0.14199999 1.4614102e-38
-0.015526536 0.020371521 0.14199999 1.4884933e-38
-0.014840893 0.020730667 0.142 1.4520815e-38
-0.017202554 0.021263944 0.142 1.59088e-38
-0.016669277 0.021302037 0.142 1.4891049e-38
-0.014475216 0.021370601 0.142 1.3883358e-38
-0.013418819 0.021492492 0.142 1.3048924e-38
-0.01415525 0.022101954 0.142 1.3782533e-38
-0.013404308 0.022199901 0.142 1.3230079e-38
0.016622527 0.026672909 0.142 1.4375215e-38
0.017384352 0.026787184 0.142 1.3821686e-38
0.017430061 0.027312845 0.142 1.3820602e-38
0.018755639 0.028044198 0.142 1.3175231e-38
-0.020929497 -0.0053612753 0.14300001 1.2998852e-38
-0.021515353 -0.0045243395 0.14300001 1.2998492e-38
-0.020929497 -0.0045557246 0.14300001 1.3091048e-38
-0.01126289 -0.0043255673 0.14300001 1.3366916e-38
-0.010112102 -0.0043255673 0.14300001 1.2998133e-38
-0.022080284 -0.0034049382 0.14300001 1.2997776e-38
-0.021773407 -0.0034049384 0.14300001 1.3274364e-38
-0.010112102 -0.0037501741 0.14300001 1.3458033e-38
-0.0095367096 -0.0036350954 0.14300001 1.3365837e-38
-0.022080284 -0.0025993874 0.14300001 1.3643503e-38
-0.021504888 -0.0023980001 0.14300001 1.4472187e-38
-0.020756878 -0.0023116907 0.14300001 1.5117198e-38
-0.021389812 -0.0016787583 0.14300001 1.58544e-38
-0.018673955 -0.00043590885 0.14300001 1.732953e-38
-0.021159654 0.00016250013 0.14300001 1.7698313e-38
-0.020814419 0.0007378934 0.14300001 1.7237333e-38
-0.020411644 0.0015434439 0.14300001 1.6499402e-38
-0.020008868 0.0020037584 0.14300001 1.6406851e-38
-0.019663632 0.0021188371 0.14300001 1.6683438e-38
0.016355991 0.0094674313 0.14300001 1.2999578e-38
0.016816305 0.0104045 0.14300001 1.2999578e-38
0.017104002 0.010577118 0.14300001 1.3183251e-38
-0.013288274 0.013879876 0.14300001 1.5340494e-38
-0.012643833 0.013971939 0.14300001 1.4882395e-38
-0.018397767 0.014892568 0.14300001 1.6173858e-38
-0.017860733 0.014815848 0.14300001 1.6264613e-38
-0.01411684 0.01466241 0.14300001 1.4513615e-38
-0.013334305 0.014432252 0.14300001 1.5434851e-38
-0.012442444 0.014547331 0.14300001 1.4424301e-38
-0.011799923 0.014355534 0.14300001 1.3321553e-38
-0.018535862 0.01558304 0.14300001 1.5893316e-38
-0.017707296 0.015429601 0.14300001 1.5989815e-38
-0.016326351 0.015813196 0.14300001 1.5804713e-38
-0.015175564 0.015583039 0.14300001 1.8027848e-38
-0.014561811 0.015314523 0.14300001 1.4979277e-38
-0.012413676 0.015122725 0.14300001 1.5253347e-38
-0.021543249 0.016848905 0.14300001 1.7002174e-38
-0.020469181 0.016784973 0.14300001 1.571287e-38
-0.019443937 0.016545517 0.14300001 1.5340501e-38
-0.018627923 0.016503667 0.14300001 1.5063915e-38
-0.017560832 0.016399052 0.14300001 1.5346962e-38
-0.016577432 0.016461821 0.14300001 1.5437364e-38
-0.015693417 0.016100893 0.14300001 1.8115007e-38
-0.012298596 0.01635023 0.14300001 1.3964767e-38
-0.011953361 0.016733827 0.14300001 1.3689984e-38
-0.021543249 0.017501017 0.14300001 1.6813473e-38
-0.020526722 0.017501017 0.14300001 1.5801839e-38
-0.019519784 0.017453067 0.14300001 1.4880606e-38
-0.018627923 0.017194141 0.14300001 1.4697648e-38
-0.017937452 0.017194141 0.14300001 1.4698368e-38
-0.016671587 0.017194141 0.14300001 1.5802911e-38
-0.021543249 0.018344929 0.14300001 1.7190554e-38
-0.020526722 0.018344929 0.14300001 1.6543737e-38
-0.01977871 0.01811477 0.14300001 1.5160079e-38
-0.020469181 0.019587778 0.14300001 1.6641692e-38
-0.019384155 0.019627232 0.14300001 1.7013351e-38
-0.018781362 0.019802591 0.14300001 1.5718658e-38
-0.021159654 0.020646499 0.14300001 1.664421e-38
-0.020418037 0.020467488 0.14300001 1.5813369e-38
-0.019471833 0.020416344 0.14300001 1.6273988e-38
-0.018627923 0.020416342 0.14300001 1.5162964e-38
-0.017937452 0.020531422 0.14300001 1.6362226e-38
-0.021159654 0.021336973 0.14300001 1.6828241e-38
-0.020526722 0.021452053 0.14300001 1.6363661e-38
-0.019471833 0.021452053 0.14300001 1.5533902e-38
-0.018627923 0.021452053 0.14300001 1.5261274e-38
-0.017736064 0.021595899 0.14300001 1.5631856e-38
-0.016464446 0.021659192 0.14300001 1.5068964e-38
-0.015582765 0.021514017 0.14300001 1.5254074e-38
-0.014715249 0.021797286 0.14300001 1.4340025e-38
-0.020296564 0.022315141 0.14300001 1.590052e-38
-0.019471833 0.02237268 0.14300001 1.5439544e-38
-0.018599153 0.022458987 0.14300001 1.5537496e-38
-0.017592216 0.022602839 0.14300001 1.6553088e-38
-0.016556507 0.022602836 0.14300001 1.4421075e-38
-0.0155208 0.022602836 0.14300001 1.4054452e-38
-0.014427553 0.022698738 0.14300001 1.3872932e-38
-0.013334305 0.022832995 0.14300001 1.350487e-38
-0.012586294 0.022890532 0.14300001 1.3140049e-38
-0.017448368 0.023609774 0.14300001 1.4421791e-38
-0.016556509 0.023638543 0.14300001 1.3870417e-38
-0.0155208 0.023638545 0.14300001 1.359779e-38
-0.014370013 0.023638545 0.14300001 1.3872573e-38
-0.013334305 0.023638546 0.14300001 1.3505949e-38
-0.012490395 0.023638546 0.14300001 1.3231523e-38
-0.017400419 0.024405738 0.14300001 1.3874735e-38
-0.016441429 0.024329018 0.14300001 1.3965853e-38
-0.015434491 0.024472866 0.14300001 1.3780024e-38
-0.014338627 0.024538251 0.14300001 1.4150956e-38
-0.013334305 0.024559176 0.14300001 1.3606408e-38
-0.014168626 0.025422264 0.14300001 1.3597065e-38
0.014975047 0.025479803 0.14300001 1.3081628e-38
0.015665518 0.026630588 0.14300001 1.3361776e-38
0.017046463 0.027781375 0.14300001 1.4189739e-38
0.017506778 0.028011533 0.14300001 1.3728758e-38
0.018504126 0.028395129 0.14300001 1.3544011e-38
0.019117879 0.028932162 0.14300001 1.3267427e-38
-0.012268717 -0.0042399326 0.14400001 1.3274718e-38
-0.010646351 -0.0047034663 0.14400001 1.2998133e-38
-0.021391904 -0.0035235623 0.14400002 1.3458756e-38
-0.020473262 -0.0035446319 0.14400001 1.3827538e-38
-0.0096033998 -0.003776399 0.14400001 1.3273641e-38
-0.021249682 -0.0027913903 0.14400001 1.4103765e-38
-0.020612324 -0.0027334485 0.14400001 1.465622e-38
-0.020347446 0.0024481951 0.14400001 1.3365103e-38
-0.019917022 0.0028289547 0.14400001 1.3364744e-38
0.049613025 0.0047989725 0.14400001 1.3827067e-38
0.019019803 0.0094343089 0.14400001 1.2995492e-38
-0.018140143 0.011906487 0.14400001 1.8047605e-38
-0.017444843 0.011751977 0.14400001 1.7866452e-38
-0.016811347 0.011798331 0.14400001 1.7959007e-38
-0.013427552 0.011983743 0.14400001 1.562606e-38
-0.012848135 0.011983743 0.14400001 1.5071093e-38
-0.011341651 0.011751977 0.14400001 1.2956355e-38
-0.019314429 0.012725398 0.14400001 1.7746925e-38
-0.018468479 0.012679044 0.14400002 1.8404162e-38
-0.017444842 0.012679044 0.14400001 1.7948219e-38
-0.01659503 0.012679044 0.14400001 1.7574404e-38
-0.014393247 0.012756298 0.14400001 1.6540105e-38
-0.01365932 0.012679044 0.14400001 1.5894737e-38
-0.012761223 0.012708015 0.14400001 1.5067141e-38
-0.011399592 0.012736985 0.14400001 1.3505579e-38
-0.021075858 0.013721994 0.14400001 1.6078777e-38
-0.02042691 0.013745171 0.14400001 1.6446124e-38
-0.019482462 0.01357714 0.14400001 1.709365e-38
-0.018468479 0.013528855 0.14400002 1.7839488e-38
-0.017444843 0.013528856 0.14400001 1.7562541e-38
-0.01659503 0.013528856 0.14400001 1.7372752e-38
-0.015564957 0.013657614 0.14400001 1.6630151e-38
-0.014509131 0.013528856 0.14400001 1.598478e-38
-0.013692429 0.013440562 0.14400001 1.5799668e-38
-0.012647972 0.013563972 0.14400002 1.4422137e-38
-0.011712478 0.013467049 0.14400001 1.3505939e-38
-0.022234691 0.014996712 0.14400001 1.7638914e-38
-0.021307627 0.014638527 0.14400002 1.6813114e-38
-0.020380557 0.014533177 0.14400002 1.653833e-38
-0.019530745 0.01453318 0.14400002 1.7000745e-38
-0.018568562 0.014364622 0.14400002 1.7652587e-38
-0.017409725 0.014491039 0.14400002 1.6816347e-38
-0.01659503 0.014533177 0.14400002 1.6629793e-38
-0.015513454 0.014533177 0.14400002 1.5799672e-38
-0.014652605 0.014367631 0.14400001 1.5248298e-38
-0.012268717 0.014069645 0.14400001 1.378217e-38
-0.022234691 0.015614758 0.14400001 1.7549967e-38
-0.021423509 0.015614756 0.14400002 1.6907105e-38
-0.020380557 0.015614758 0.14400001 1.6171336e-38
-0.019569373 0.015576129 0.14400001 1.6169542e-38
-0.018989956 0.015460245 0.14400001 1.6446129e-38
-0.017251704 0.015614756 0.14400001 1.5809725e-38
-0.016585374 0.01557613 0.14400001 1.6173125e-38
-0.015778331 0.015559575 0.14400001 1.7373838e-38
-0.022234691 0.016271429 0.14400001 1.7185869e-38
-0.021423507 0.016271429 0.14400001 1.6915361e-38
-0.020438498 0.016213488 0.14400001 1.5806502e-38
-0.020438498 0.022818841 0.14400001 1.5345544e-38
-0.019530745 0.022876782 0.14400001 1.5532816e-38
-0.021075858 0.023456201 0.14400001 1.4981072e-38
-0.020380557 0.023543112 0.14400001 1.4795966e-38
-0.019530745 0.023456201 0.14400001 1.5445658e-38
-0.018592641 0.023572085 0.14400001 1.5997754e-38
-0.018333282 0.024518462 0.14400002 1.3691064e-38
-0.017328961 0.024808174 0.14400001 1.3693584e-38
-0.01659503 0.024846802 0.14400001 1.4152763e-38
-0.01559071 0.024962684 0.14400001 1.4148447e-38
-0.018294655 0.025194451 0.14400001 1.3876536e-38
-0.01739656 0.025542101 0.14400001 1.3696821e-38
-0.016672287 0.025379863 0.14400001 1.3969451e-38
-0.015447235 0.025393108 0.14400001 1.3778584e-38
-0.014818153 0.025657983 0.14400001 1.3502356e-38
0.016702136 0.027743885 0.14400001 1.4190818e-38
0.017745085 0.028439187 0.14400001 1.3636562e-38
0.018556271 0.028902719 0.14400001 1.4186865e-38
0.01925157 0.029366253 0.14400001 1.3267427e-38
-0.011653788 -0.004619441 0.14500001 1.3366916e-38
-0.020988841 -0.0035692477 0.14500001 1.3735343e-38
-0.018421702 0.0099665765 0.14500001 1.6950611e-38
-0.017721573 0.0097998781 0.145 1.6028283e-38
-0.018480046 0.010725049 0.14500001 1.7130323e-38
-0.017604884 0.010666706 0.145 1.6945204e-38
-0.016528759 0.010718566 0.145 1.7778931e-38
-0.013170734 0.010900081 0.14500001 1.5371056e-38
-0.011187036 0.010900081 0.14500001 1.3342752e-38
-0.019588582 0.011833587 0.14500001 1.8310885e-38
-0.018684249 0.011483522 0.145 1.7771376e-38
-0.017604886 0.011133458 0.14500001 1.7406187e-38
-0.016406178 0.01149413 0.145 1.7960445e-38
-0.015465601 0.011639106 0.145 1.7309682e-38
-0.014454304 0.011833587 0.14500001 1.7021575e-38
-0.013414719 0.011557776 0.145 1.5543215e-38
-0.012548397 0.011639107 0.145 1.4708064e-38
-0.011420412 0.011366834 0.14500001 1.3331606e-38
-0.020522088 0.012650404 0.14500001 1.7459194e-38
-0.019646926 0.012183651 0.14500001 1.7935271e-38
-0.018888455 0.012066963 0.14500001 1.8135124e-38
-0.016227964 0.01230034 0.14500001 1.7854943e-38
-0.015387808 0.012455923 0.145 1.7105149e-38
-0.014512648 0.012183651 0.14500001 1.6829997e-38
-0.013987551 0.012066963 0.14500001 1.6369017e-38
-0.012237228 0.012455923 0.145 1.461012e-38
-0.011770478 0.012358684 0.14500001 1.3782521e-38
-0.02159562 0.013420546 0.14500001 1.6172049e-38
-0.020580431 0.013117156 0.145 1.6813823e-38
-0.016087938 0.013000468 0.14500001 1.7742967e-38
-0.015504497 0.013117156 0.14500001 1.6910328e-38
-0.012276125 0.01307826 0.14500001 1.4055154e-38
0.018218381 0.013933974 0.14500001 1.2999224e-38
0.017658276 0.014400726 0.14500001 1.3183608e-38
0.017751629 0.015217544 0.14500001 1.2998852e-38
-0.021222217 0.023969155 0.14500001 1.4979993e-38
-0.020055335 0.023969155 0.14500001 1.5260542e-38
-0.019588582 0.023969153 0.14500001 1.4343266e-38
-0.020568764 0.024295883 0.14500001 1.4795964e-38
-0.019621922 0.024635945 0.145 1.3879409e-38
-0.018888455 0.024669284 0.14500001 1.3876889e-38
-0.019355206 0.025136035 0.14500001 1.5353827e-38
-0.018421702 0.025836164 0.14500001 1.3416277e-38
-0.016438004 0.025836164 0.14500001 1.3963337e-38
-0.017488198 0.026442941 0.14500001 1.33248e-38
-0.016438002 0.026380708 0.145 1.3135733e-38
0.017284876 0.028636679 0.14500001 1.4466323e-38
0.018607341 0.029336805 0.14500001 1.4003191e-38
-0.011539359 -0.0050209137 0.14650001 1.3090329e-38
-0.012524316 -0.0046831574 0.147 1.3274359e-38
0.037870482 -0.00042444258 0.147 1.3362152e-38
0.047097698 0.0018232125 0.147 1.3182777e-38
-0.018157104 0.0087820543 0.14600001 1.5385062e-38
-0.017438034 0.0085501028 0.14618184 1.4464175e-38
-0.016630162 0.0087137474 0.14669999 1.2990126e-38
-0.019097047 0.0097219972 0.14600001 1.7320472e-38
-0.018392092 0.0094870115 0.14600001 1.6491066e-38
-0.01734025 0.0095317708 0.14600001 1.5753128e-38
-0.016476301 0.0095722144 0.14638461 1.6030438e-38
-0.014259349 0.0097885868 0.147 1.4647881e-38
-0.0136065 0.0095869107 0.14633335 1.3634085e-38
-0.020271977 0.010896926 0.14600001 1.8691535e-38
-0.019421551 0.010572421 0.14600001 1.7961523e-38
-0.017256327 0.010035312 0.14600001 1.648854e-38
-0.016433876 0.010270298 0.14600001 1.7227914e-38
-0.015604559 0.010652606 0.14653847 1.6950613e-38
-0.014409075 0.010680447 0.14657143 1.5934664e-38
-0.013637546 0.010481784 0.14600001 1.519566e-38
-0.012533246 0.010611291 0.14624999 1.4086074e-38
-0.021041747 0.011760213 0.147 1.8209703e-38
-0.020389469 0.011680212 0.14600001 1.8398048e-38
-0.019723676 0.011562719 0.14600001 1.8133326e-38
-0.015293516 0.011352791 0.14633335 1.703777e-38
-0.014553989 0.011539221 0.14600001 1.6569592e-38
-0.012380371 0.011503972 0.14600001 1.443543e-38
-0.021211922 0.012620155 0.14600001 1.7459913e-38
-0.020506963 0.01230684 0.14600001 1.7924126e-38
0.017404081 0.014970014 0.14600001 1.3179278e-38
-0.021133592 0.024839416 0.14600001 1.4609059e-38
-0.020428633 0.024839416 0.14600001 1.4336788e-38
-0.020514706 0.025446573 0.14633335 1.4518664e-38
-0.019802004 0.025622701 0.14600001 1.4797055e-38
-0.020253094 0.02627139 0.147 1.4425391e-38
-0.019499712 0.026369549 0.14666668 1.3688186e-38
-0.018313762 0.026531314 0.14600001 1.3508832e-38
0.015630525 0.027612096 0.147 1.3269931e-38
0.016576907 0.028676774 0.147 1.4283013e-38
-0.017355023 0.029454822 0.14616668 1.2956736e-38
-0.013849031 0.029774118 0.14600001 1.3236922e-38
0.016813502 0.029268263 0.147 1.4743989e-38
0.017546443 0.029606674 0.14680001 1.5111338e-38
0.018316286 0.029707607 0.14625001 1.4371255e-38
-0.014437096 0.030692039 0.14685714 1.3140765e-38
-0.015126864 0.033053786 0.147 1.3231885e-38
0.03349347 0.037430797 0.147 1.3922262e-38
0.033493768 0.038597208 0.14693749 1.3921906e-38
-0.01237131 -0.0050723227 0.148 1.3182525e-38
0.037731096 -0.00014942439 0.148 1.3823856e-38
0.037889898 0.00040638671 0.148 1.4008963e-38
0.038525112 0.00040638671 0.148 1.3269969e-38
0.046703476 0.001716513 0.148 1.2997302e-38
0.048370913 0.0025502297 0.148 1.2998389e-38
-0.015706178 0.0096963728 0.148 1.5385439e-38
-0.01483276 0.009616971 0.148 1.4279454e-38
-0.015587075 0.010410986 0.148 1.6674387e-38
-0.014991563 0.010410986 0.148 1.6121213e-38
-0.012609515 0.010410986 0.148 1.3537937e-38
0.014307627 0.026489809 0.148 1.2992664e-38
-0.019457903 0.027502179 0.148 1.2953859e-38
0.017404288 0.029943777 0.148 1.5388282e-38
0.017642494 0.030181982 0.148 1.5755988e-38
-0.013414157 -0.0062097409 0.149 1.2997415e-38
-0.013174344 -0.0058260378 0.149 1.2998133e-38
-0.012574808 -0.005346409 0.149 1.3089969e-38
-0.013294251 -0.0047468739 0.149 1.327364e-38
0.037666284 -0.00067003153 0.149 1.4007883e-38
0.038685493 0.00070890039 0.149 1.3823491e-38
0.038865354 0.0015282658 0.149 1.3272496e-38
0.039344985 0.001848018 0.149 1.3547988e-38
0.039584797 0.0024075843 0.149 1.2995903e-38
0.04869774 0.0030470893 0.149 1.2998386e-38
0.049177371 0.0032869035 0.149 1.2998389e-38
0.050136626 0.0043660682 0.149 1.3181695e-38
0.014564176 0.027428204 0.149 1.4007162e-38
0.015123743 0.027987771 0.149 1.3177379e-38
0.01644272 0.029786378 0.149 1.4375571e-38
0.019560307 0.030865541 0.149 1.3359255e-38
-0.013987033 -0.0061065624 0.15000001 1.308925e-38
-0.014530237 -0.005623715 0.15000001 1.345803e-38
-0.013718784 -0.0055164155 0.14999999 1.3181446e-38
-0.013906558 -0.0048189689 0.15000001 1.3365837e-38
0.039609045 0.0014741428 0.15000001 1.3454357e-38
0.049748842 0.0037918109 0.15000001 1.3181695e-38
0.018363753 0.0095859803 0.15000001 1.30896e-38
0.019088024 0.011275946 0.15000001 1.3179979e-38
-0.020384762 0.027934186 0.15000001 1.3411958e-38
0.014380261 0.027813474 0.15000001 1.4468506e-38
-0.020143338 0.028175609 0.15000001 1.3413397e-38
0.015949516 0.029141305 0.15000001 1.3914597e-38
0.019088024 0.031072695 0.15000001 1.3359255e-38
-0.014566346 -0.0049321069 0.15100001 1.3642424e-38
0.036227606 -0.0037169408 0.15100001 1.3271398e-38
0.037394166 -0.001481035 0.15100001 1.3087385e-38
0.040116139 0.0016297904 0.15100001 1.3177051e-38
0.014111579 0.0044246726 0.15100001 1.2997025e-38
0.050323535 0.0040601231 0.15100001 1.3182051e-38
0.014111579 0.0050322558 0.15100001 1.299737e-38
0.018486179 0.00989292 0.15100001 1.3274718e-38
0.018364662 0.010561261 0.15100001 1.3828256e-38
0.0186482 0.011189097 0.15100001 1.3643141e-38
-0.020561168 0.02868749 0.15100001 1.3320483e-38
-0.020156112 0.029092545 0.15100001 1.3229009e-38
-0.019913077 0.029335579 0.15100001 1.2953501e-38
0.016541913 0.030429229 0.15100001 1.4283015e-38
0.017271012 0.031036811 0.15100001 1.4741836e-38
0.018729212 0.031279843 0.15100001 1.3635842e-38
0.019944377 0.031522878 0.15100001 1.3082668e-38
0.01449349 0.047389474 0.15100001 1.3553842e-38
0.014597646 0.048535209 0.15100001 1.3646038e-38
0.014516636 0.049709868 0.15100001 1.327582e-38
0.016420396 0.049628854 0.15100001 1.318506e-38
0.016420394 0.050600987 0.15100001 1.3646402e-38
0.013868546 0.05193767 0.15100001 1.3277253e-38
0.013868546 0.052180704 0.15100001 1.3092864e-38
0.015183603 0.0099584367 0.15200001 1.3365761e-38
0.018119317 0.0099584367 0.15200001 1.3552752e-38
0.015477175 0.010545579 0.15200001 1.3273217e-38
0.018119317 0.010203079 0.15200001 1.3829339e-38
0.014694318 0.028551284 0.15200001 1.4192278e-38
0.015672889 0.029285213 0.15200001 1.3639089e-38
0.018404733 0.031731635 0.15200001 1.3359617e-38
0.018433856 0.032745164 0.15200002 1.2992643e-38
0.019464852 0.032710209 0.152 1.3175951e-38
0.017630031 0.034585804 0.15200001 1.3091781e-38
0.017455285 0.035541076 0.15200002 1.3092147e-38
0.016488366 0.037358422 0.15200001 1.3921547e-38
0.017385388 0.037358422 0.15200001 1.4105577e-38
0.015917532 0.038826279 0.15200001 1.3000315e-38
0.016488364 0.038459312 0.152 1.3921907e-38
0.017385388 0.038459316 0.152 1.3736794e-38
0.015591342 0.039560203 0.15200001 1.3091785e-38
0.016488364 0.039560203 0.15200001 1.2999591e-38
0.017263066 0.03956021 0.15200001 1.3184701e-38
0.014841104 0.040538777 0.15200001 1.3091429e-38
0.016488366 0.040457234 0.15200001 1.3645679e-38
0.017263066 0.04045723 0.15200001 1.300067e-38
0.014612771 0.041435797 0.15200001 1.3091066e-38
0.016488364 0.0414358 0.15200001 1.3276539e-38
0.017263066 0.041435804 0.15200001 1.318506e-38
0.014748682 0.042441558 0.15200001 1.3091068e-38
0.015591341 0.042495921 0.152 1.3922267e-38
0.016488364 0.042495921 0.152 1.3092148e-38
0.017189674 0.042398065 0.15200001 1.3000311e-38
0.014612771 0.043556042 0.15200001 1.3276539e-38
0.015591343 0.043556042 0.15200001 1.2999952e-38
0.011636284 0.045553956 0.15200001 1.3553842e-38
0.014612771 0.04543164 0.15200001 1.3093224e-38
0.010209202 0.046736393 0.15200001 1.3738957e-38
0.012767757 0.046379622 0.15200001 1.3461289e-38
0.010127653 0.04747032 0.15200001 1.3461291e-38
0.010780035 0.048856631 0.15200001 1.3737154e-38
0.013715747 0.048611984 0.15200001 1.4108094e-38
0.014205032 0.048611987 0.15200001 1.4844938e-38
0.011432416 0.049631331 0.15200001 1.300067e-38
0.012859497 0.049509007 0.15200001 1.3185784e-38
0.013715748 0.049509011 0.15200001 1.466091e-38
0.014205032 0.049509007 0.15200001 1.4753103e-38
0.010698487 0.050161391 0.15200001 1.3092864e-38
0.013685166 0.050355069 0.15200001 1.346201e-38
0.01298182 0.052281629 0.15200001 1.4475796e-38
0.013532265 0.052220467 0.15200001 1.4383241e-38
0.0094752731 0.053667936 0.15200001 1.3645322e-38
0.010441299 0.053467199 0.15199998 1.4290325e-38
0.013471104 0.053137876 0.15200001 1.4936056e-38
0.01044643 0.05446117 0.152 1.4107019e-38
0.011513963 0.054483414 0.15200001 1.4752022e-38
0.040154975 0.00091262045 0.15300001 1.3638029e-38
0.016761009 0.010023952 0.15300001 1.3459477e-38
0.01735905 0.010340562 0.15300001 1.3091414e-38
0.017253514 0.012240223 0.15300001 1.2999931e-38
0.015776001 0.030216634 0.15300001 1.4468499e-38
0.016514758 0.030955389 0.15300001 1.3822401e-38
0.016549936 0.031729329 0.15300001 1.3361078e-38
0.01742941 0.031834863 0.15300001 1.3636216e-38
0.015600107 0.033628989 0.15300001 1.3552762e-38
0.016432673 0.033582084 0.15300001 1.3091421e-38
0.015529748 0.034485005 0.15300001 1.3368372e-38
0.016432673 0.034485005 0.15300001 1.3183982e-38
0.017130388 0.034485001 0.15300001 1.2999945e-38
0.014790991 0.035634182 0.15300001 1.4013741e-38
0.015529748 0.03538793 0.15300001 1.3184342e-38
0.016432673 0.035387933 0.15300001 1.3368735e-38
0.017068826 0.035326369 0.15300001 1.3092505e-38
0.01469249 0.036422186 0.15300001 1.4289252e-38
0.015529748 0.036372941 0.15300001 1.3001031e-38
0.014626822 0.037316907 0.15300001 1.3553122e-38
0.012574722 0.038589209 0.15300001 1.3553486e-38
0.013436604 0.038589209 0.15300001 1.3553486e-38
0.014298487 0.038712338 0.15300001 1.3000312e-38
0.012398827 0.039539039 0.15300001 1.3276898e-38
0.013436604 0.03949213 0.15300001 1.3922269e-38
0.014298487 0.039492134 0.15300001 1.3276899e-38
0.015529748 0.039081715 0.15300001 1.3922269e-38
0.012328469 0.040477142 0.15300001 1.3369095e-38
0.013436604 0.0404361 0.15300001 1.4474724e-38
0.014298487 0.040805478 0.15300001 1.3552407e-38
0.0088193743 0.041482672 0.15300001 1.3830073e-38
0.0095376112 0.041380066 0.15300001 1.3093226e-38
0.01232847 0.041380066 0.15300001 1.4383246e-38
0.013436603 0.041380066 0.15300001 1.5488869e-38
0.014298487 0.041051731 0.15300001 1.4013381e-38
0.0087988535 0.042118821 0.15300001 1.4199212e-38
0.0095376112 0.042282995 0.15300001 1.3738236e-38
0.010440536 0.042282991 0.15300001 1.3369814e-38
0.011425544 0.042282995 0.15300001 1.4659832e-38
0.012328469 0.042282991 0.15300001 1.6042044e-38
0.013436603 0.042282995 0.15300001 1.6226074e-38
0.014298487 0.042529244 0.15300001 1.336693e-38
0.0098659471 0.043144874 0.15300001 1.3738596e-38
0.010358451 0.043120254 0.15300001 1.4383247e-38
0.011558931 0.043298785 0.15300001 1.6042764e-38
0.012328471 0.043391127 0.15300001 1.6779607e-38
0.013436603 0.043391131 0.15300003 1.5856929e-38
0.010686788 0.044663429 0.15300001 1.5765457e-38
0.011425545 0.044499259 0.15300001 1.4473638e-38
0.01232847 0.044499259 0.15300001 1.3552402e-38
0.013403025 0.044476878 0.15300001 1.5397393e-38
0.0065415418 0.045976777 0.15300001 1.382971e-38
0.0075265504 0.045976777 0.15300001 1.4291407e-38
0.010653954 0.045435019 0.15300001 1.3645679e-38
0.011343461 0.045484275 0.15300001 1.3276535e-38
0.012328469 0.045361146 0.15300001 1.3185062e-38
0.0056796581 0.046715531 0.15300001 1.4014103e-38
0.0065415413 0.046715528 0.15300001 1.4844582e-38
0.0076496769 0.046715528 0.15300001 1.4752385e-38
0.0085526025 0.046797618 0.15300001 1.3369095e-38
0.0093734423 0.046961784 0.15300001 1.327726e-38
0.0065751211 0.047588602 0.15300001 1.5858013e-38
0.0076496759 0.047618452 0.15300001 1.4105215e-38
0.0086346846 0.04761846 0.15300001 1.3738235e-38
0.0093734423 0.04761846 0.15300001 1.3369455e-38
0.0067350254 0.048544832 0.15300001 1.4475798e-38
0.0076496769 0.048603468 0.15300001 1.3921546e-38
0.0086346846 0.048603464 0.15300001 1.3922625e-38
0.0095376112 0.048603468 0.15300001 1.3645679e-38
0.010389234 0.048654769 0.15300001 1.3461648e-38
0.0095376112 0.049506385 0.15300001 1.3277257e-38
0.0102107 0.049424306 0.15300001 1.3461647e-38
0.010850956 0.051148072 0.15300001 1.318506e-38
0.0076496764 0.052379332 0.15300001 1.346237e-38
-0.04027354 0.0029203198 0.155 1.760648e-38
0.015982222 0.0075355368 0.155 1.3089609e-38
0.016622696 0.01033733 0.15400001 1.3458756e-38
0.014984338 0.011152869 0.155 1.3459437e-38
0.015507318 0.011452708 0.15400001 1.3181018e-38
0.017977992 0.013148638 0.155 1.2999578e-38
0.014984338 0.016765973 0.155 1.4013381e-38
0.015649594 0.016558081 0.15499999 1.35524e-38
0.015649594 0.017264912 0.15499999 1.3737152e-38
0.016231693 0.017140178 0.155 1.3276522e-38
0.010992799 0.027867438 0.155 1.3460568e-38
0.010793222 0.028665747 0.155 1.3183618e-38
0.014144079 0.028926959 0.15400001 1.4008995e-38
0.0099949138 0.029738473 0.155 1.3552403e-38
0.010577013 0.029613737 0.15499999 1.3460207e-38
0.011491741 0.029613737 0.15499999 1.3552399e-38
0.012489627 0.029613737 0.15499999 1.3552758e-38
0.01356023 0.02960583 0.1547 1.3460202e-38
0.0088722929 0.030861093 0.155 1.4382164e-38
0.0098951254 0.030611623 0.155 1.364424e-38
0.010577013 0.030528465 0.15499999 1.3920825e-38
0.011491741 0.030528465 0.15499999 1.465839e-38
0.012489627 0.030528465 0.15499999 1.4198133e-38
0.013544362 0.030598171 0.15436365 1.3644959e-38
0.015352405 0.030692972 0.15400003 1.3363613e-38
0.0079991436 0.031858977 0.155 1.3552407e-38
0.0086644003 0.031443194 0.15499999 1.4474721e-38
0.0096622854 0.031443194 0.15499999 1.4381445e-38
0.010577013 0.031443194 0.15499999 1.410522e-38
0.011491741 0.031443194 0.15499999 1.4566558e-38
0.012588754 0.031415246 0.15427274 1.4013743e-38
0.013565736 0.031570818 0.15400003 1.3644597e-38
0.014474562 0.031570818 0.15400003 1.3552397e-38
0.0078328298 0.032565814 0.15499999 1.4013384e-38
0.0086644003 0.032441076 0.15499999 1.4382524e-38
0.0096622854 0.03244108 0.15499999 1.4382164e-38
0.010577013 0.03244108 0.15499999 1.4106657e-38
0.011549513 0.032515679 0.15466666 1.4105937e-38
0.012540877 0.032442529 0.15410003 1.3460568e-38
0.013565734 0.032479648 0.15400003 1.3644597e-38
0.014474562 0.032479644 0.15400003 1.3736792e-38
0.0067517878 0.033605278 0.155 1.4935698e-38
0.0076135974 0.033378486 0.15499999 1.4474719e-38
0.0086644003 0.033355802 0.15499999 1.3737154e-38
0.0096622854 0.033355802 0.15499999 1.3737513e-38
0.0106115 0.033408642 0.15489998 1.382971e-38
0.011665462 0.033471093 0.15400003 1.4105937e-38
0.01257429 0.033471093 0.15400003 1.364496e-38
0.013565735 0.033471093 0.15400003 1.3368372e-38
0.014474561 0.033471089 0.15400003 1.3183981e-38
0.015135526 0.033471093 0.15400001 1.3091785e-38
0.0057539023 0.03460316 0.155 1.475095e-38
0.0065577538 0.034575444 0.15499999 1.4751308e-38
0.0075625689 0.034478426 0.15499999 1.4566556e-38
0.0086644003 0.034478426 0.15499999 1.3828633e-38
0.0096622845 0.034478426 0.15499999 1.4289972e-38
0.010585531 0.034370236 0.15436365 1.3921188e-38
0.011665462 0.034379914 0.15400003 1.3736796e-38
0.01257429 0.034379918 0.15400003 1.3552763e-38
0.013565736 0.034379914 0.15400003 1.364496e-38
0.014474561 0.034379914 0.15400003 1.3183981e-38
0.0065023159 0.03560105 0.15499999 1.4290328e-38
0.0075625689 0.035601046 0.15499999 1.3921187e-38
0.0086644003 0.035601046 0.15499999 1.4382887e-38
0.0096622854 0.035601046 0.15499999 1.4382168e-38
0.010646975 0.035524137 0.15427274 1.4474364e-38
0.011665461 0.035495296 0.15400003 1.3276539e-38
0.01257429 0.035495292 0.15400003 1.3368012e-38
0.013565734 0.035495296 0.15400003 1.3368012e-38
0.014437006 0.035461497 0.15400003 1.3829349e-38
0.0065023159 0.036598928 0.15499999 1.4382165e-38
0.0075625684 0.036598925 0.15499999 1.4105938e-38
0.0086644003 0.036598932 0.15499999 1.4105938e-38
0.0096622845 0.036598936 0.15499999 1.4105581e-38
0.010583332 0.036605004 0.15449999 1.4658755e-38
0.011665462 0.03661067 0.15400003 1.3829713e-38
0.012574289 0.03661067 0.15400003 1.3091425e-38
0.013565735 0.036610674 0.15400003 1.4750946e-38
0.014206044 0.036548708 0.15400001 1.5580707e-38
0.0057539023 0.037513658 0.155 1.4658751e-38
0.0065023159 0.037513658 0.15499999 1.4382524e-38
0.0075625689 0.037513662 0.15499999 1.429033e-38
0.0086644003 0.037513658 0.15499999 1.4105938e-38
0.0096622854 0.037513658 0.15499999 1.382935e-38
0.010572528 0.037598085 0.1547 1.4382167e-38
0.011665462 0.037602119 0.15400003 1.392119e-38
0.012515275 0.037531305 0.15400003 1.3276539e-38
0.013565735 0.03747819 0.15400003 1.4474721e-38
0.014144079 0.037354257 0.15400001 1.4659108e-38
0.0057539023 0.038428385 0.155 1.4106296e-38
0.0065023159 0.038428385 0.15499999 1.4382884e-38
0.0075625698 0.038428385 0.15499999 1.4751308e-38
0.0086643994 0.038428385 0.15499999 1.4567275e-38
0.0095792608 0.038427521 0.15455556 1.4566915e-38
0.01052657 0.038479008 0.15407695 1.4382883e-38
0.011665462 0.038510941 0.15400003 1.4105937e-38
0.012161185 0.038510945 0.15400001 1.3646039e-38
0.0046312818 0.039592586 0.155 1.5027533e-38
0.0055400697 0.03952131 0.15499999 1.4935698e-38
0.0065023159 0.039426275 0.15499999 1.4659112e-38
0.0075625689 0.039426271 0.15499999 1.512009e-38
0.0085453521 0.039414011 0.15450001 1.4013381e-38
0.0094347065 0.039419778 0.15400003 1.3368012e-38
0.012161186 0.039089289 0.15400001 1.3553842e-38
0.015383388 0.039089289 0.15400001 1.3646761e-38
0.0045377305 0.040372182 0.15499999 1.4105577e-38
0.0055044317 0.040341001 0.15499999 1.3644599e-38
0.0064248154 0.040410042 0.15485714 1.4843142e-38
0.0077324701 0.040087935 0.15466668 1.3368372e-38
0.0045897034 0.041255727 0.15499999 1.3828634e-38
0.0055572502 0.041396275 0.15474999 1.5488513e-38
0.0064307195 0.041287098 0.15414287 1.4105938e-38
0.0031879121 0.042621877 0.15499999 1.5396676e-38
0.0058407113 0.042063631 0.15400001 1.5028972e-38
0.0064603658 0.042063631 0.15400001 1.3737156e-38
0.0032591899 0.043334652 0.155 1.4935698e-38
0.005629167 0.043708857 0.155 1.3828991e-38
0.0064524217 0.043733809 0.155 1.4475438e-38
0.0056707454 0.044249382 0.155 1.5582149e-38
0.0063526332 0.044432323 0.155 1.5489232e-38
0.0052210572 0.047020864 0.15400001 1.4107016e-38
0.0048905746 0.051895481 0.15400001 1.318578e-38
0.0066256071 0.051978096 0.15400001 1.3278334e-38
0.007203951 0.051978096 0.15400001 1.3277255e-38
0.0047287666 0.052764274 0.15412502 1.3645679e-38
0.0039817486 0.053713132 0.15400001 1.3921546e-38
0.0046785078 0.053573865 0.15410003 1.3184702e-38
0.0056341607 0.053630508 0.15400003 1.3647478e-38
0.0048905746 0.054374095 0.15400001 1.3092867e-38
0.0056341602 0.054208856 0.15400001 1.4198491e-38
0.0066256071 0.054208856 0.15400001 1.3000671e-38
0.015834253 0.0084629357 0.156 1.2998484e-38
0.014578849 0.0099694198 0.156 1.3458365e-38
0.015206551 0.011726985 0.156 1.3458352e-38
0.014399506 0.012516095 0.156 1.3460563e-38
0.015300706 0.012511612 0.156 1.2998827e-38
0.013474095 0.013785847 0.156 1.4289965e-38
0.014327769 0.013610091 0.156 1.3737152e-38
0.015432523 0.0136352 0.15599999 1.3275069e-38
0.012653898 0.014907341 0.156 1.4566193e-38
0.013323446 0.014739954 0.156 1.4289965e-38
0.014327769 0.014739956 0.156 1.4013378e-38
0.015457633 0.014739956 0.156 1.3644225e-38
0.012570203 0.015744278 0.156 1.4565476e-38
0.013323446 0.015744276 0.156 1.4289609e-38
0.014327768 0.015744276 0.156 1.3921184e-38
0.015457631 0.015744274 0.156 1.373679e-38
0.012402817 0.016664905 0.156 1.465767e-38
0.013323446 0.016664905 0.156 1.4381083e-38
0.014327769 0.016664905 0.156 1.4013021e-38
0.015081011 0.016246438 0.156 1.4013378e-38
0.012402817 0.017376302 0.156 1.4473278e-38
0.013323446 0.017376304 0.156 1.4288886e-38
0.014327768 0.017376302 0.156 1.3920104e-38
0.015081011 0.017376302 0.156 1.4104855e-38
0.012402817 0.018255083 0.156 1.4196691e-38
0.013292061 0.018223699 0.156 1.401266e-38
0.014327769 0.018004002 0.156 1.3921183e-38
0.012570203 0.019133866 0.156 1.4381801e-38
0.013072365 0.019008325 0.156 1.4013378e-38
0.010310477 0.023527779 0.156 1.4657672e-38
0.010489821 0.024281021 0.156 1.2998855e-38
0.0087202983 0.025452731 0.156 1.3552037e-38
0.0084811756 0.026451079 0.156 1.2998503e-38
0.0095572351 0.026415206 0.156 1.3275811e-38
0.0074481568 0.027595285 0.156 1.4197415e-38
0.0084273713 0.027545067 0.156 1.3736437e-38
0.0095572351 0.027545068 0.156 1.3921183e-38
0.0073288935 0.028518006 0.156 1.392083e-38
0.0084273713 0.028465701 0.156 1.392083e-38
0.0095572351 0.028465698 0.156 1.3090342e-38
0.010260262 0.028398743 0.156 1.3091059e-38
0.0064438344 0.029553715 0.156 1.3828994e-38
0.0072975084 0.029470019 0.156 1.3644603e-38
0.0084273713 0.029470021 0.156 1.4566556e-38
0.0095258504 0.029428173 0.156 1.3644599e-38
0.010059397 0.029051553 0.156 1.3275816e-38
0.0064187259 0.03039065 0.156 1.4013385e-38
0.0072975084 0.03039065 0.156 1.392119e-38
0.0084273722 0.030390648 0.156 1.429033e-38
0.0094065871 0.030306956 0.156 1.4105577e-38
0.0064187259 0.031311285 0.156 1.327582e-38
0.0072975084 0.031311281 0.156 1.3828634e-38
0.0081135212 0.03124851 0.156 1.346021e-38
0.0093061542 0.031060198 0.156 1.4566555e-38
0.0056236372 0.032482985 0.156 1.3828994e-38
0.0062931855 0.032315597 0.156 1.3737159e-38
0.0072661233 0.032284215 0.156 1.3828994e-38
0.0047867014 0.033571005 0.156 1.4382524e-38
0.0054029897 0.033479705 0.156 1.3829353e-38
0.0062703607 0.033411227 0.156 1.346021e-38
0.0070464276 0.033194385 0.156 1.4659111e-38
0.0047867014 0.034449786 0.156 1.3829354e-38
0.0053202477 0.034543943 0.156 1.4105941e-38
0.0061257989 0.03440794 0.156 1.392155e-38
0.0053830179 0.035454109 0.156 1.4659112e-38
0.0024432812 0.036751363 0.156 1.4105936e-38
0.0045774677 0.036625821 0.156 1.4197774e-38
0.0055399435 0.036634192 0.156 1.4750946e-38
0.0017737327 0.037086137 0.156 1.4658748e-38
0.0022758942 0.037086137 0.156 1.4382164e-38
0.0037823785 0.037839379 0.156 1.3737154e-38
0.0044519273 0.037420914 0.156 1.4197774e-38
0.0052529941 0.037373088 0.156 1.4750946e-38
0.0026525154 0.038467079 0.156 1.4197771e-38
0.0034476041 0.038341537 0.156 1.4197772e-38
0.0044519273 0.038341537 0.156 1.4106656e-38
0.0051633227 0.038341537 0.156 1.4106297e-38
0.002526975 0.03909478 0.156 1.4105574e-38
0.0035312977 0.039195213 0.156 1.4382164e-38
0.0043921461 0.039274123 0.156 1.4382524e-38
0.0050377822 0.03909478 0.156 1.5120089e-38
0.002526975 0.04273545 0.156 1.594985e-38
0.0026525154 0.043551464 0.156 1.530448e-38
0.0051633227 0.044493016 0.156 1.4660191e-38
0.0057910243 0.045120716 0.156 1.5765458e-38
-0.042435687 -0.00057966128 0.15700001 1.3644222e-38
-0.041930307 -0.00057966128 0.15700001 1.392009e-38
0.01037657 0.0035476116 0.15700001 1.3276174e-38
0.011513676 0.0035476114 0.15700002 1.3091784e-38
0.01037657 0.0045583718 0.15700001 1.3644597e-38
0.011513676 0.0045583718 0.15700002 1.3276175e-38
0.010408157 0.0054533174 0.15700001 1.3736793e-38
0.011513676 0.0054849032 0.15700002 1.35524e-38
0.012566552 0.0055691334 0.15700001 1.3183612e-38
0.010528184 0.0064451261 0.15700001 1.3921186e-38
0.011513676 0.0064956639 0.15700002 1.382899e-38
0.012650783 0.0064956644 0.15700001 1.3552758e-38
0.0104608 0.0075485394 0.15700001 1.3644597e-38
0.011513676 0.0074221934 0.15700002 1.401338e-38
0.012650783 0.0074221948 0.15700001 1.392154e-38
0.0097448444 0.0085171852 0.15700001 1.4657669e-38
0.010376569 0.0084329555 0.15700001 1.4012658e-38
0.011513676 0.0084329555 0.15700002 1.419777e-38
0.012650783 0.0084329545 0.15700001 1.4566191e-38
0.013493083 0.0086856456 0.15700001 1.4012647e-38
0.0096184993 0.0093594855 0.15700001 1.4842061e-38
0.01037657 0.0093594864 0.15700001 1.4381443e-38
0.011513676 0.0093594873 0.15700002 1.4105575e-38
0.012650783 0.0093594864 0.15700001 1.4566552e-38
0.013629957 0.0094016017 0.15700001 1.4105566e-38
0.014166923 0.0097806361 0.15700001 1.3459828e-38
0.0048173857 0.010538707 0.15700001 1.4288886e-38
0.0096184993 0.010286015 0.15700001 1.4104495e-38
0.010376569 0.010286016 0.15700001 1.4012658e-38
0.011513676 0.010286015 0.15700002 1.4105575e-38
0.012650783 0.010286015 0.15700001 1.4566552e-38
0.013661544 0.010286015 0.15700001 1.4197765e-38
0.014369075 0.010336554 0.15700001 1.3551304e-38
0.0096184993 0.011296778 0.15700001 1.4382161e-38
0.010376569 0.011296775 0.15700001 1.4105574e-38
0.011513676 0.011296776 0.15700002 1.3460205e-38
0.012650783 0.011296777 0.15700001 1.4105215e-38
0.013661544 0.011296776 0.15700001 1.4104495e-38
0.014419612 0.011296776 0.15700001 1.3643511e-38
0.0077233231 0.012812918 0.15700001 1.4749144e-38
0.0084392792 0.012728688 0.15700001 1.4564754e-38
0.0094806692 0.012468339 0.15700002 1.5026451e-38
0.01037657 0.012433883 0.15700002 1.4843139e-38
0.011513676 0.012433883 0.15700004 1.4474357e-38
0.012650781 0.012433883 0.15700002 1.419777e-38
0.013638572 0.012399424 0.15700002 1.419777e-38
0.014588073 0.012054848 0.15700001 1.3736422e-38
0.007533805 0.013444644 0.15700001 1.4933896e-38
0.0094500389 0.013570989 0.15700001 1.4658388e-38
0.01037657 0.01357099 0.15700001 1.4842419e-38
0.011513676 0.013570988 0.15700002 1.4473278e-38
0.012650783 0.013570989 0.15700001 1.4381082e-38
0.013493083 0.013402529 0.15700001 1.4289965e-38
0.0088604288 0.014497519 0.15700001 1.4565113e-38
0.0094500389 0.014497519 0.15700001 1.4380722e-38
0.01037657 0.014497519 0.15700001 1.4565473e-38
0.011513676 0.014497518 0.15700002 1.4565473e-38
0.012566552 0.014371174 0.15700001 1.4381442e-38
0.0088604288 0.015339821 0.15700001 1.4841338e-38
0.0094500389 0.015508279 0.15700001 1.4565112e-38
0.01037657 0.015508281 0.15700001 1.4749866e-38
0.011513676 0.015508282 0.15700002 1.4749866e-38
0.0095463023 0.016386682 0.15699999 1.4933896e-38
0.010376569 0.016434811 0.15700001 1.5210844e-38
0.011437869 0.016401118 0.15700002 1.4842063e-38
0.0096184993 0.017361343 0.15700001 1.5210843e-38
0.01037657 0.017361343 0.15700001 1.5210843e-38
0.01138733 0.017361341 0.15700001 1.4749864e-38
0.0094921542 0.018372104 0.15700001 1.5302678e-38
0.010376569 0.018372104 0.15700001 1.5026451e-38
0.01138733 0.018372104 0.15700001 1.4473279e-38
0.0085761519 0.019603968 0.15700001 1.5026093e-38
0.0094500398 0.019509209 0.15700002 1.5303038e-38
0.01037657 0.019509211 0.15700002 1.5303038e-38
0.011513676 0.019509211 0.15700004 1.5026451e-38
0.012524437 0.019761899 0.15700001 1.4657669e-38
0.0078496682 0.020646315 0.15700001 1.5026091e-38
0.0084392782 0.020646313 0.15700001 1.4841701e-38
0.0094500389 0.020646313 0.15700001 1.4933897e-38
0.010376569 0.020646315 0.15700001 1.484206e-38
0.011513676 0.020646315 0.15700002 1.4934256e-38
0.012482323 0.020477856 0.15700001 1.4473278e-38
0.007633076 0.021620978 0.15699999 1.4565114e-38
0.0084392782 0.021572845 0.15700001 1.4565475e-38
0.0094500398 0.021572845 0.15700001 1.4012301e-38
0.010376569 0.021572845 0.15700001 1.4473279e-38
0.011351232 0.021476584 0.15699999 1.4934256e-38
0.0066704471 0.022709953 0.15700001 1.3827547e-38
0.0075127473 0.022583606 0.15700001 1.4012298e-38
0.0084392782 0.022583604 0.15700001 1.465803e-38
0.0094500398 0.022583608 0.15700001 1.4657672e-38
0.010275493 0.022415148 0.15700001 1.4842063e-38
0.0065862169 0.023510138 0.15700001 1.3552042e-38
0.0075127473 0.023510136 0.15700001 1.3643878e-38
0.0084392782 0.023510138 0.15700001 1.4657313e-38
0.0094500398 0.023510136 0.15700001 1.4841703e-38
0.01012388 0.023173217 0.15700001 1.511865e-38
0.0065862169 0.024436668 0.15700001 1.3459849e-38
0.0075127473 0.024436668 0.15700001 1.3643878e-38
0.0084392782 0.024436669 0.15700001 1.4196693e-38
0.0094500398 0.024436668 0.15700001 1.4288889e-38
0.01012388 0.024689358 0.15700001 1.4104495e-38
0.0065862169 0.025447428 0.15700001 1.3275816e-38
0.0075127473 0.025447428 0.15700001 1.3368012e-38
0.0083129331 0.025363198 0.15700001 1.3460207e-38
0.0094500398 0.02519474 0.15700001 1.3828623e-38
0.0055754562 0.02658453 0.15700002 1.3183621e-38
0.0065862178 0.026584528 0.15700002 1.3551683e-38
0.0074453638 0.026533995 0.15700002 1.3459846e-38
0.0055754562 0.027721636 0.15700001 1.3368372e-38
0.0065862169 0.027721638 0.15700001 1.4197414e-38
0.0070915972 0.027468948 0.15700001 1.4289612e-38
0.0055754562 0.028732399 0.15700001 1.3183625e-38
0.0065140198 0.028696299 0.15699999 1.3644603e-38
0.0055754562 0.02965893 0.15700001 1.327582e-38
0.0063335267 0.029237779 0.15700001 1.3368016e-38
0.0056386287 0.030311711 0.15700001 1.3552407e-38
0.0056596864 0.031343531 0.15700001 1.392119e-38
0.00443835 0.032396413 0.15700004 1.3183983e-38
0.0054912264 0.03218583 0.15700001 1.4013385e-38
0.0043120049 0.03347034 0.15700001 1.3553483e-38
0.0033328305 0.034417931 0.15700001 1.3184705e-38
0.0041856598 0.034460042 0.15700001 1.3830073e-38
0.0021220231 0.035723496 0.15700001 1.3183983e-38
0.0043435912 0.035428688 0.15700001 1.3921188e-38
0.0013639524 0.036397334 0.15700001 1.2999589e-38
0.0023265819 0.036277007 0.15699999 1.3921187e-38
0.0045646955 0.036060415 0.15700001 1.4566915e-38
0.00077434193 0.037071176 0.15700001 1.4013378e-38
0.0012797223 0.03717225 0.15700001 1.419777e-38
0.0027958637 0.038334627 0.15700001 1.4012299e-38
-0.0055429135 0.053748727 0.15700001 1.4659108e-38
-0.0060482938 0.054422569 0.15700001 1.5304117e-38
-0.005374454 0.054422572 0.15700001 1.502717e-38
-0.004784843 0.054506797 0.15700001 1.6687049e-38
-0.0055429135 0.055012178 0.15700001 1.4843139e-38
-0.043341726 -0.00058335345 0.15800001 1.3091048e-38
-0.042324528 -0.00032905376 0.15800001 1.4565459e-38
0.0074228533 0.0025953925 0.15800001 1.2999587e-38
0.0085354149 0.0026377758 0.15800001 1.2999587e-38
0.007463723 0.0037034121 0.15800001 1.3183978e-38
0.0085354149 0.0036549743 0.15800001 1.3275813e-38
0.0095526138 0.0036549743 0.15800001 1.3276174e-38
0.0073910658 0.0043754899 0.15800001 1.3276174e-38
0.0085354149 0.0043754899 0.15800001 1.3368369e-38
0.0095526138 0.0043754904 0.15800001 1.3460565e-38
0.0074419258 0.0053926888 0.15800001 1.3460566e-38
0.0085354149 0.0053926879 0.15800001 1.3553122e-38
0.0095949965 0.0054350719 0.15800001 1.3644959e-38
0.0073910663 0.0065370379 0.15800001 1.3828627e-38
0.0085354149 0.0065370374 0.15800001 1.382899e-38
0.0096797626 0.0065370379 0.15800001 1.3921186e-38
0.010188363 0.0067913369 0.15800001 1.3921186e-38
0.0066281673 0.0078085358 0.15800001 1.4013378e-38
0.0073910663 0.0075542363 0.15800001 1.3920823e-38
0.0085354149 0.0075542363 0.15800001 1.4013378e-38
0.0096479757 0.0075224489 0.15800001 1.4105574e-38
0.010188363 0.0072999364 0.15800001 1.3921183e-38
0.006564592 0.0085714348 0.15800001 1.4012299e-38
0.0073910663 0.0084866686 0.15800001 1.4381442e-38
0.0085354149 0.0084866686 0.15800001 1.4289245e-38
0.0094254641 0.0083171353 0.15800001 1.4565833e-38
0.004848069 0.0095886337 0.15800001 1.4196688e-38
0.0054838187 0.009461483 0.15800001 1.4288883e-38
0.0063738674 0.0094191004 0.15800001 1.4381081e-38
0.0073910663 0.0094191004 0.15800001 1.4657669e-38
0.0085354149 0.0094190994 0.15800001 1.4104495e-38
0.0045429091 0.010351533 0.15800001 1.4196689e-38
0.0054414356 0.010436299 0.15800001 1.4473276e-38
0.0063738674 0.010436299 0.15800001 1.484206e-38
0.0073910663 0.010436299 0.15800001 1.4933537e-38
0.0085354149 0.010436299 0.15800001 1.4381801e-38
0.0047209193 0.011305157 0.15800001 1.4012299e-38
0.0054414356 0.011368732 0.15800001 1.4473278e-38
0.0063738674 0.011368732 0.15800001 1.4934256e-38
0.0073910663 0.011368731 0.15800001 1.4934256e-38
0.0085354149 0.011368732 0.15800001 1.484242e-38
0.004848069 0.01238593 0.15800001 1.4104136e-38
0.0054414351 0.012513079 0.15800001 1.4472917e-38
0.0063738674 0.01251308 0.15800001 1.4933896e-38
0.0073656365 0.01243679 0.15800001 1.5026091e-38
0.0084591256 0.012385929 0.15800001 1.465695e-38
0.004848069 0.01340313 0.15800001 1.4472556e-38
0.0054414356 0.01365743 0.15800001 1.4288165e-38
0.0063738674 0.01365743 0.15800001 1.4749504e-38
0.0073274914 0.013784579 0.15800001 1.4749504e-38
0.0084445942 0.013584772 0.15800001 1.48417e-38
0.005610968 0.014420328 0.15800001 1.4472556e-38
0.0064056548 0.01464284 0.15800001 1.502573e-38
0.0073184087 0.0146383 0.15800001 1.4841338e-38
0.008323499 0.014844161 0.15800001 1.502573e-38
0.0066281673 0.015183227 0.15800001 1.5486708e-38
0.0085354149 0.015564676 0.15800001 1.4933534e-38
0.0089168642 0.016709026 0.15800001 1.4933897e-38
0.0088532893 0.017662648 0.15800001 1.5117928e-38
0.0086201811 0.018531507 0.15800001 1.5210124e-38
0.0063102925 0.019697048 0.15800001 1.3549882e-38
0.0073910668 0.019760622 0.15800001 1.5025732e-38
0.0082387319 0.019506322 0.15800001 1.5117928e-38
0.0063738674 0.020438753 0.15800001 1.465695e-38
0.0073184096 0.020378204 0.15800001 1.4934256e-38
0.0063738674 0.021455953 0.15800001 1.4841701e-38
0.0072003417 0.021349993 0.15800001 1.5117928e-38
0.0062891007 0.022261234 0.15800001 1.4104136e-38
0.00590239 -0.012102958 0.15900001 1.3643866e-38
0.0065933452 -0.012486822 0.15900002 1.3736059e-38
0.007501822 -0.012294889 0.15900001 1.3276162e-38
0.0065848143 -0.011079322 0.15900001 1.3368006e-38
0.0077303126 -0.011298672 0.15900002 1.3183974e-38
0.0085467855 -0.01133523 0.15900002 1.2999944e-38
0.0065848147 -0.010396898 0.15900002 1.2999584e-38
-0.043232176 -0.00033113637 0.15900001 1.4289591e-38
0.0056464816 0.0054268199 0.15900002 1.3091784e-38
0.0065165721 0.0054268194 0.15900002 1.3276174e-38
0.0056464812 0.0065784114 0.15900002 1.3368009e-38
0.0064142086 0.0065784114 0.15900002 1.355204e-38
0.0044948892 0.0076020486 0.15900002 1.3459484e-38
0.0056464812 0.0076020476 0.15900002 1.3275453e-38
0.0063630268 0.0075508663 0.15900001 1.3644596e-38
0.0044948892 0.0085403807 0.15900002 1.3827905e-38
0.0056464812 0.0085403817 0.15900002 1.4104494e-38
0.0061582993 0.0083697755 0.15900001 1.3919745e-38
0.0034286014 0.0095213661 0.15900002 1.373571e-38
0.0043669348 0.0093934126 0.15900002 1.4012297e-38
0.0034712527 0.010161139 0.15900001 1.4012297e-38
0.0041110255 0.010502351 0.15900001 1.4196689e-38
0.0043669348 0.011568639 0.15900001 1.373571e-38
0.0043303766 0.01272023 0.15900002 1.4196329e-38
0.0023196612 0.013999778 0.15900001 1.2996347e-38
0.0033752869 0.013775857 0.15900002 1.4195969e-38
0.0043349462 0.013775857 0.15900002 1.4656947e-38
0.0079496633 0.013999778 0.15900001 1.4564754e-38
0.0082055731 0.013999778 0.15900001 1.4841341e-38
0.0023196612 0.014639552 0.15900002 1.2995988e-38
0.0033432981 0.014639552 0.15900002 1.3457325e-38
0.0044948892 0.014639551 0.15900002 1.4472557e-38
0.0055185263 0.014767505 0.15900001 1.4472556e-38
0.0078643607 0.014682203 0.15900001 1.4749143e-38
0.0082055731 0.014511596 0.15900001 1.4841338e-38
0.0023196612 0.015364625 0.15900002 1.3089264e-38
0.0044948892 0.015364628 0.15900002 1.3919745e-38
0.0056464812 0.015364625 0.15900002 1.4656949e-38
0.0061582993 0.015535234 0.15900001 1.5117925e-38
0.0076937545 0.015023414 0.15900001 1.5210121e-38
0.0044948892 0.01630296 0.15900002 1.3089983e-38
0.0056464812 0.016302962 0.15900002 1.4103413e-38
