# .PCD v0.7 - Point Cloud Data file format
VERSION 0.7
FIELDS x y z rgb
SIZE 4 4 4 4
TYPE F F F F
COUNT 1 1 1 1
WIDTH 993
HEIGHT 1
VIEWPOINT 0 0 0 1 0 0 0
POINTS 993
DATA ascii
0.045485809 0.019488202 0.098999985 2.0282655e-38
0.046473719 0.019488204 0.098999985 2.101986e-38
0.047461625 0.019488204 0.098999985 2.1389001e-38
0.048481394 0.019488201 0.098999985 2.1480473e-38
0.049486045 0.019473486 0.099038452 2.0282293e-38
0.050308947 0.019289089 0.0995 1.733203e-38
0.044625372 0.020348638 0.099000007 1.8622762e-38
0.045485806 0.02050798 0.098999985 2.1757786e-38
0.046387479 0.020367384 0.098999992 2.3046721e-38
0.047505744 0.020262839 0.098999992 2.203365e-38
0.048495997 0.02050134 0.098999985 2.2770852e-38
0.049381666 0.020547811 0.098999992 2.2310594e-38
0.050255377 0.02072043 0.099000007 2.1389002e-38
0.044607673 0.021304676 0.099000007 1.8715326e-38
0.045554858 0.02119845 0.099000007 2.2217688e-38
0.046059433 0.021304676 0.099000007 2.2863416e-38
0.048699919 0.021668881 0.099000014 2.3141441e-38
0.04945204 0.021510491 0.098999985 2.2956691e-38
0.050175708 0.021251565 0.099000007 2.1757789e-38
0.044915188 0.022002721 0.1 1.7241634e-38
0.048610818 0.022178214 0.099200003 2.3049244e-38
0.049166556 0.022101374 0.099000007 2.3418029e-38
0.045852013 0.014745051 0.101 1.8249953e-38
0.046420977 0.014650225 0.10099999 1.594505e-38
0.045730095 0.015618804 0.101 1.7143246e-38
0.044876661 0.016573835 0.101 1.5018767e-38
0.045449492 0.0164016 0.10099998 1.6036534e-38
0.044876661 0.017020872 0.101 1.4650347e-38
0.048713047 0.017085895 0.101 1.2999145e-38
0.04642912 0.012921025 0.10200001 1.6495323e-38
0.04753726 0.012921025 0.10200001 1.7233265e-38
0.046493616 0.013179002 0.10200001 1.7603128e-38
0.047947679 0.013085193 0.10200001 1.8711646e-38
0.046535831 0.014365703 0.10200001 1.8065192e-38
0.047181558 0.01467215 0.10200001 1.5022715e-38
0.052133963 0.014562706 0.10200001 1.5016976e-38
0.049261022 0.015711883 0.10200001 1.5022742e-38
0.052825816 0.015500811 0.10200001 1.6497155e-38
0.05310256 0.01551488 0.10200001 1.6312766e-38
0.049261022 0.016040219 0.10200001 1.3733082e-38
0.053036887 0.016040219 0.10200001 1.3640161e-38
0.046925753 0.012881923 0.10300001 1.5387869e-38
0.047555707 0.012799034 0.103 1.6403121e-38
0.048251975 0.012799035 0.10300001 1.834323e-38
0.047648523 0.013460104 0.10306251 1.7602769e-38
0.048251975 0.013545034 0.10300001 1.8619451e-38
0.046842866 0.014042366 0.10300001 1.8896039e-38
0.047451589 0.014299571 0.10366666 1.7788247e-38
0.048050892 0.014346087 0.104 1.6957009e-38
0.051733304 0.014705476 0.10300001 1.8063773e-38
0.052396417 0.014594958 0.10300001 1.5848538e-38
0.053114783 0.014650218 0.10300001 1.6490308e-38
0.051484637 0.015658699 0.10300001 1.6679741e-38
0.052488171 0.015400248 0.10310002 1.6126216e-38
0.053460155 0.015285697 0.10300001 1.6955975e-38
0.054087348 0.015468054 0.10300001 1.6587554e-38
0.050904416 0.016363254 0.10300001 1.5668109e-38
0.051492929 0.016462723 0.10300002 1.4008938e-38
0.052590173 0.016323635 0.10373332 1.3916023e-38
0.044936422 0.022828581 0.10300001 1.4839447e-38
0.046822954 0.022764865 0.105 1.3459787e-38
0.047695402 0.014195459 0.10600001 1.8248858e-38
0.048519999 0.014508236 0.10600001 1.8157395e-38
0.049230859 0.015133792 0.10600001 1.4469176e-38
0.049264759 0.014587701 0.10700001 1.7142147e-38
0.050010163 0.014860368 0.109 1.7787517e-38
0.049483858 0.015298955 0.109 1.8803124e-38
0.047901832 0.024025951 0.11000001 1.4745078e-38
0.048682641 0.014187791 0.112 1.7051043e-38
0.046983223 0.022697836 0.114 1.6867011e-38
0.048726305 0.025266586 0.11400001 1.5759588e-38
0.056302391 0.016374808 0.116 1.5851408e-38
0.05651271 0.016496405 0.11866667 1.3455412e-38
0.057178158 0.016467212 0.11800001 1.5573024e-38
0.047703184 0.023597591 0.119 1.640424e-38
0.047703184 0.024076415 0.119 1.6128015e-38
0.05621589 0.016553178 0.12 1.6684051e-38
0.058367603 0.012868628 0.126 1.5574831e-38
0.058639526 0.013583023 0.12600002 1.594361e-38
0.056836486 0.014866168 0.126 1.6866648e-38
0.057636086 0.014802433 0.126 1.6958838e-38
0.058469001 0.014643094 0.12600002 1.723579e-38
0.059161883 0.014710691 0.126 1.6496423e-38
0.054970767 0.015961265 0.126 1.6774091e-38
0.055616021 0.015776906 0.12600002 1.7420545e-38
0.056674253 0.015636792 0.12600002 1.7235789e-38
0.057640914 0.015488074 0.126 1.520384e-38
0.058545046 0.015581022 0.126 1.7696037e-38
0.059469149 0.015684726 0.12600002 1.7973367e-38
0.060716648 0.015893666 0.126 1.8616934e-38
0.054903168 0.016738649 0.126 1.6497494e-38
0.055498041 0.016569654 0.12600002 1.5757751e-38
0.056770582 0.016493604 0.126 1.8158103e-38
0.057665054 0.016598623 0.126 1.8064475e-38
0.058553491 0.016614718 0.126 1.8064469e-38
0.05951339 0.01667781 0.12600002 1.7697137e-38
0.060598351 0.016569654 0.126 1.6032551e-38
0.061392635 0.016502054 0.126 1.7324756e-38
0.054869369 0.017380837 0.126 1.8342879e-38
0.055173561 0.017380837 0.126 1.8158487e-38
0.058621094 0.017380837 0.126 1.6958814e-38
0.059482977 0.017380837 0.126 1.5576636e-38
0.058432244 0.012694811 0.127 1.4283361e-38
0.059495151 0.012715253 0.12699999 1.6220564e-38
0.060483113 0.012749321 0.12699999 1.6313474e-38
0.057706609 0.013583976 0.12699999 1.6036527e-38
0.058217619 0.013558425 0.12699999 1.6220924e-38
0.059699558 0.013430672 0.12699999 1.6773735e-38
0.060568288 0.013481772 0.12699999 1.7697131e-38
0.061566468 0.013512433 0.12699999 1.8250679e-38
0.062493101 0.013635077 0.12699999 1.7326561e-38
0.055815857 0.014759307 0.127 1.5943258e-38
0.056410491 0.014675686 0.12699999 1.6681902e-38
0.057488266 0.014415533 0.12699999 1.6220918e-38
0.058132451 0.014180158 0.127 1.6312031e-38
0.059801769 0.014384564 0.12699999 1.548081e-38
0.060568284 0.014503799 0.12699999 1.7509852e-38
0.061590314 0.014503798 0.12699999 1.7141438e-38
0.062588491 0.014534459 0.12699999 1.6494258e-38
0.055747721 0.015338455 0.127 1.7420914e-38
0.056224667 0.015229438 0.127 1.7512749e-38
0.060653452 0.015457693 0.12699999 1.7880085e-38
0.061620973 0.01550198 0.12699999 1.8341437e-38
0.062545508 0.015459001 0.12699999 1.6955619e-38
0.05673568 0.016803361 0.127 1.6955937e-38
0.060598947 0.016414991 0.127 1.6310942e-38
0.061743617 0.016087942 0.127 1.8524755e-38
0.062152427 0.016087942 0.127 1.7878305e-38
0.055815857 0.017314374 0.127 1.732763e-38
0.05704229 0.017314374 0.127 1.8155946e-38
0.060619384 0.017314374 0.127 1.4376654e-38
0.059688929 0.011785299 0.12800001 1.5209305e-38
0.057903469 0.01291838 0.12800001 1.4653957e-38
0.058452845 0.012712364 0.12800001 1.4100772e-38
0.059551585 0.012300335 0.12800001 1.5391526e-38
0.060581665 0.012300336 0.12800001 1.4377004e-38
0.061376292 0.012506351 0.12800001 1.5390792e-38
0.062023766 0.01291838 0.12800001 1.732763e-38
0.056564372 0.013768191 0.12800001 1.5024177e-38
0.057341609 0.013555153 0.12800001 1.5023097e-38
0.062641814 0.013124395 0.12800001 1.7973011e-38
0.063053839 0.013124395 0.12800001 1.6866302e-38
0.05584332 0.014875522 0.12800001 1.4007861e-38
0.056427032 0.014291813 0.12800001 1.5206768e-38
0.057182416 0.01415447 0.12800001 1.4837982e-38
0.05584332 0.015184544 0.12800001 1.5852503e-38
0.056873392 0.017038679 0.12800001 1.5387516e-38
0.057079408 0.017450709 0.12800001 1.6218023e-38
0.060993694 0.017656723 0.12800001 1.326995e-38
0.050555598 0.019613866 0.12800001 1.6035092e-38
0.058652442 0.01186254 0.12900001 1.3272468e-38
0.057732958 0.012534848 0.12900001 1.4286263e-38
0.058459647 0.012479482 0.12899999 1.3640527e-38
0.059186336 0.012188807 0.12900001 1.4194425e-38
0.062300704 0.012574395 0.12900001 1.5943614e-38
0.055587512 0.013780594 0.12900001 1.2996591e-38
0.056296889 0.013382648 0.12899999 1.3180618e-38
0.057442289 0.013102355 0.12900001 1.456284e-38
0.062923573 0.013019305 0.12900001 1.7788255e-38
0.063131198 0.013019305 0.12900001 1.7235081e-38
0.056123875 0.014265051 0.12900001 1.3456479e-38
0.053269036 0.01535508 0.12900001 1.3549041e-38
0.05565672 0.01509555 0.12900001 1.4562111e-38
0.056591026 0.017690854 0.12900001 1.7789696e-38
0.057179298 0.017725458 0.12900001 1.7051035e-38
0.050569922 0.019248037 0.12900001 1.5944698e-38
0.051227402 0.019178828 0.12900001 1.5483357e-38
0.058180507 0.012074061 0.13000001 1.3364667e-38
0.06320212 0.012353039 0.13000001 1.5576276e-38
0.057238955 0.01312023 0.13000001 1.3272452e-38
0.054728147 0.014445378 0.13000001 1.2996225e-38
0.055355858 0.014445379 0.13000001 1.3180259e-38
0.053786594 0.015631037 0.13000001 1.3916748e-38
0.054474082 0.015376967 0.13000001 1.3824544e-38
0.05558601 0.015170721 0.13000001 1.4561753e-38
0.050588302 0.018889109 0.13000001 1.5022745e-38
0.051380403 0.01897878 0.13000001 1.5759588e-38
0.050752703 0.019188013 0.13000001 1.5576277e-38
0.05127579 0.019188013 0.13000001 1.6036175e-38
0.056308769 0.015962118 0.13100001 1.6590065e-38
0.050405156 0.018913927 0.13100001 1.4101509e-38
0.062091883 0.018988626 0.133 1.3455748e-38
-0.015406653 -0.0030828053 0.134 1.2998852e-38
0.056941714 0.016558154 0.13500001 1.3915653e-38
0.056941714 0.017101357 0.13500001 1.3268834e-38
-0.015746048 -0.0022532539 0.13600001 1.3090329e-38
0.019418232 0.027938725 0.13700001 1.3178126e-38
0.021402735 0.03080523 0.13700001 1.3268506e-38
0.069030814 0.032569233 0.13700001 2.3049605e-38
0.069300316 0.033353232 0.13700001 2.1665953e-38
0.068810314 0.034112737 0.13700001 2.0375939e-38
0.069030814 0.034112737 0.13700001 2.0099349e-38
0.02178107 0.01126231 0.13800001 1.3179159e-38
0.022780564 0.012817079 0.13800001 1.3175929e-38
0.02133685 0.030585866 0.13800001 1.3175234e-38
0.06678053 0.032629278 0.13800001 2.1481202e-38
0.067646764 0.03258485 0.13800001 2.2587913e-38
0.068572216 0.032658894 0.13800001 2.332584e-38
0.069090471 0.032806966 0.13800001 2.3418032e-38
0.065980934 0.033695403 0.13800001 2.0467775e-38
0.066647261 0.033473294 0.13800001 2.074436e-38
0.067646764 0.033473291 0.13800001 2.1204978e-38
0.06864626 0.033473298 0.13800001 2.2127294e-38
0.069090471 0.033473294 0.13800001 2.2680826e-38
0.065842122 0.034556083 0.13800001 1.8069604e-38
0.066647269 0.03447279 0.13800001 1.9177394e-38
0.067683786 0.034287702 0.13800001 2.0098992e-38
0.06861452 0.034298275 0.13800001 2.0283743e-38
0.069090471 0.034139626 0.13800001 2.0744722e-38
0.066647269 0.035583343 0.13800001 1.3919e-38
0.067480177 0.035860974 0.13800001 1.3366545e-38
0.021569576 0.011610055 0.13950001 1.2994413e-38
0.022274483 0.012798097 0.13900001 1.336211e-38
0.022610061 0.013357395 0.13900001 1.3176288e-38
0.0230575 0.013357395 0.13900001 1.2990823e-38
0.019436195 0.028224032 0.13950001 1.3362164e-38
0.021491464 0.031478662 0.13900001 1.4003906e-38
0.063774422 0.03181424 0.13900001 1.9638377e-38
0.064333722 0.031926099 0.13900001 1.9822405e-38
0.063553743 0.032553446 0.13950001 1.668774e-38
0.0645127 0.032641996 0.13900003 1.9360707e-38
0.065519437 0.032731488 0.13900001 2.1019867e-38
0.066384487 0.032820977 0.13900001 2.1849983e-38
0.064557441 0.033603992 0.13900003 1.7608983e-38
0.065564178 0.033604 0.13900003 1.9638012e-38
0.066263296 0.033520103 0.13900001 2.0652163e-38
0.065564178 0.03461073 0.13900001 1.7423147e-38
0.066011615 0.034387011 0.13900001 1.9084837e-38
-0.015190257 0.0028834871 0.141 1.7882704e-38
-0.014622911 0.0028834871 0.141 1.7698313e-38
-0.015352355 0.0034022033 0.14100002 1.7513198e-38
-0.014509441 0.0034130099 0.14100002 1.7513921e-38
-0.013533607 0.003473527 0.14100002 1.7145139e-38
-0.015265902 0.0040938244 0.141 1.6313932e-38
-0.014488813 0.0043689017 0.14100002 1.7329169e-38
-0.013563864 0.0043207635 0.14100002 1.7144777e-38
-0.012693935 0.0040181787 0.141 1.7052943e-38
-0.013828627 0.0051528704 0.141 1.6775633e-38
0.023162324 0.013549589 0.141 1.3084092e-38
-0.017005764 0.01854223 0.141 1.6828555e-38
-0.016703179 0.018920461 0.141 1.5622831e-38
-0.017157055 0.019752569 0.141 1.6261383e-38
-0.016580256 0.019563455 0.14100002 1.5894036e-38
-0.017232701 0.020433383 0.14100002 1.6077365e-38
-0.016551888 0.020433387 0.14100002 1.6724892e-38
-0.017232701 0.021435695 0.14100002 1.6173518e-38
-0.016597275 0.02137896 0.14100002 1.5899088e-38
-0.017005764 0.022173245 0.141 1.7475049e-38
-0.016778825 0.022173245 0.141 1.6645289e-38
0.021800695 0.031023838 0.141 1.3083035e-38
-0.0056989794 -6.7184046e-05 0.142 1.3089247e-38
-0.015697947 0.0027896636 0.142 1.7329888e-38
-0.01415525 0.0029039374 0.142 1.732953e-38
-0.013812428 0.0029039374 0.142 1.7237335e-38
-0.015983632 0.0038181287 0.142 1.4377077e-38
-0.013012511 0.0038181287 0.142 1.7145139e-38
-0.015526537 0.0045418637 0.142 1.5023182e-38
-0.013103929 0.004640901 0.142 1.6775993e-38
-0.012783962 0.0045799548 0.142 1.6868548e-38
-0.014475216 0.0054179635 0.142 1.6130263e-38
-0.013428053 0.0055218488 0.14199999 1.6222458e-38
-0.012783962 0.0058750589 0.142 1.594587e-38
-0.013469607 0.0063321539 0.14199999 1.4286347e-38
-0.017583467 0.018399481 0.142 1.7185852e-38
-0.0093557453 0.018902285 0.142 1.5067884e-38
-0.017629176 0.019313671 0.142 1.699822e-38
-0.010269936 0.019587928 0.142 1.7010108e-38
-0.0095557244 0.019387947 0.142 1.5067889e-38
-0.0088986494 0.01935938 0.142 1.424064e-38
-0.01621218 0.020730667 0.142 1.8488481e-38
-0.010447696 0.020552909 0.142 1.4794532e-38
-0.0095842928 0.020444982 0.14199999 1.4146645e-38
-0.008588477 0.02050212 0.14199999 1.4056967e-38
-0.0076797274 0.020806849 0.142 1.49854e-38
-0.016269317 0.021473449 0.142 1.6365821e-38
-0.010581592 0.021437088 0.14199999 1.4701621e-38
-0.0095842928 0.021416312 0.142 1.4526577e-38
-0.0085558277 0.021416312 0.14199999 1.387905e-38
-0.0074816523 0.021439165 0.14199999 1.4156e-38
-0.017354921 0.022604758 0.142 1.6918639e-38
-0.016538678 0.022461101 0.142 1.4613386e-38
-0.01152695 0.022673324 0.142 1.4883492e-38
-0.010612758 0.022444775 0.14199999 1.4147364e-38
-0.0095842928 0.022444777 0.14199999 1.3235118e-38
-0.0085558277 0.022444775 0.14199999 1.3050007e-38
-0.017126372 0.02347324 0.142 1.6457296e-38
-0.016714986 0.023427531 0.142 1.5441346e-38
-0.011412675 0.023358967 0.142 1.5624652e-38
-0.010612759 0.023473239 0.14199999 1.3790079e-38
-0.0095842928 0.02347324 0.142 1.3323714e-38
-0.017126372 0.024158884 0.142 1.7564714e-38
-0.010555621 0.024444571 0.14199999 1.3324793e-38
-0.0095842928 0.024387432 0.142 1.3414113e-38
0.020641159 0.029586893 0.142 1.35469e-38
0.020812569 0.030101128 0.142 1.3454342e-38
-0.017542897 0.0021023971 0.14300001 1.6684517e-38
-0.016671587 0.0024640732 0.14300001 1.732989e-38
-0.015175564 0.0026942305 0.14300001 1.7422445e-38
-0.014715249 0.0026942305 0.14300001 1.7513921e-38
-0.015290642 0.005341039 0.14300001 1.4562917e-38
-0.014715249 0.0059164325 0.14300001 1.3365099e-38
-0.01287399 0.0054561179 0.14300001 1.6130261e-38
-0.017822374 0.016331051 0.14300001 1.6538316e-38
-0.0082708439 0.016963983 0.14300001 1.3779652e-38
-0.017661262 0.017700488 0.14300001 1.6995356e-38
-0.011032732 0.017884612 0.14300001 1.6924747e-38
-0.01037514 0.017588696 0.14300001 1.4239551e-38
-0.0096517876 0.017700488 0.14300001 1.516079e-38
-0.0084089395 0.017539376 0.14300001 1.4518298e-38
-0.0077338102 0.017731175 0.14300001 1.3411957e-38
-0.017707296 0.01811477 0.14300001 1.6813481e-38
-0.014024777 0.018575085 0.14300001 1.451433e-38
-0.013242242 0.018436989 0.14300001 1.4981404e-38
-0.012528754 0.018373696 0.14300001 1.5528835e-38
-0.011377967 0.018390959 0.14300001 1.8579225e-38
-0.010418979 0.018344928 0.14300001 1.617854e-38
-0.009575069 0.018344928 0.14300001 1.5436296e-38
-0.0085010016 0.018344928 0.14300001 1.4426823e-38
-0.0075036534 0.018344928 0.14300001 1.3505231e-38
-0.0068898997 0.018460006 0.14300001 1.3966931e-38
-0.016556507 0.019449683 0.14300001 1.56196e-38
-0.015405722 0.01984095 0.14300001 1.4697652e-38
-0.014312473 0.019553253 0.14300001 1.4237752e-38
-0.013334304 0.019438174 0.14300001 1.5621038e-38
-0.012490395 0.019438175 0.14300001 1.5250457e-38
-0.011435508 0.019438175 0.14300001 1.5067871e-38
-0.010495697 0.019316703 0.14300001 1.6457648e-38
-0.0094216308 0.019188838 0.14300001 1.5067885e-38
-0.0084703136 0.019449685 0.14299999 1.3689984e-38
-0.0067172814 0.019582022 0.14300001 1.323296e-38
-0.016326351 0.020301264 0.14300001 1.5805091e-38
-0.0155208 0.020416344 0.14300001 1.4883488e-38
-0.014370013 0.020416344 0.14300001 1.4793087e-38
-0.013334305 0.020416342 0.14300001 1.5895481e-38
-0.012490395 0.020416342 0.14300001 1.5342667e-38
-0.011472124 0.020395419 0.14300001 1.470449e-38
-0.010802574 0.020186186 0.14300001 1.4795248e-38
-0.0081174048 0.020262904 0.14300001 1.3138968e-38
-0.0074652936 0.020387571 0.14300001 1.3788655e-38
-0.0155208 0.021452051 0.14300001 1.6828958e-38
-0.014370013 0.021452051 0.14300001 1.5807614e-38
-0.013334307 0.021452053 0.14300001 1.561962e-38
-0.012490395 0.021452049 0.14300001 1.7100864e-38
-0.011631141 0.021406019 0.14300001 1.5810848e-38
-0.0071200565 0.021336973 0.14300001 1.3975566e-38
-0.016326351 0.022717915 0.14300001 1.415277e-38
-0.015520799 0.022602838 0.14300001 1.6089235e-38
-0.014370013 0.022602838 0.14300001 1.5807611e-38
-0.013334307 0.022602839 0.14300001 1.5353104e-38
-0.012490395 0.022602836 0.14300001 1.4520105e-38
-0.011723204 0.022372682 0.14300001 1.5993797e-38
-0.016464446 0.02373061 0.14300001 1.5900527e-38
-0.0155208 0.023638546 0.14300001 1.5626455e-38
-0.014370013 0.023638545 0.14300001 1.4616623e-38
-0.013334304 0.023638545 0.14300001 1.5630049e-38
-0.012490395 0.023638543 0.14300001 1.4884929e-38
-0.011838282 0.023696085 0.14300001 1.5254071e-38
-0.017323701 0.02463589 0.14300001 1.6642398e-38
-0.016556509 0.024559176 0.14300001 1.5528862e-38
-0.015750956 0.024329018 0.14300001 1.5715051e-38
-0.014300968 0.024536159 0.14300001 1.4708816e-38
-0.013334305 0.024559176 0.14300001 1.5625376e-38
-0.012567114 0.024482457 0.14300001 1.478842e-38
-0.011608126 0.024587942 0.14300001 1.4884213e-38
-0.01724698 0.025403082 0.14300001 1.5993784e-38
-0.016729126 0.025307186 0.14300001 1.4700172e-38
-0.014168627 0.025422266 0.14300001 1.6181785e-38
-0.013334307 0.025537344 0.14300001 1.4420356e-38
-0.01287399 0.025537344 0.14300001 1.3959378e-38
-0.011234119 0.025479805 0.14300001 1.4425391e-38
-0.010384106 0.025584422 0.14300001 1.3595265e-38
-0.009575069 0.025537342 0.14300001 1.3781095e-38
-0.014024777 0.026170276 0.14300001 1.4054806e-38
-0.013334305 0.026553869 0.14300001 1.3595629e-38
-0.01287399 0.026553869 0.14300001 1.4055529e-38
-0.011032732 0.026170276 0.14300001 1.4149879e-38
-0.010418979 0.026170276 0.14300001 1.4149156e-38
-0.0097668665 0.026170276 0.14300001 1.3321192e-38
-0.013219226 0.027321061 0.14300001 1.378434e-38
0.020728981 0.030543262 0.14300001 1.4096834e-38
0.020728981 0.031387173 0.14300001 1.3543652e-38
0.021419453 0.031118656 0.14300001 1.2992277e-38
-0.017367588 -0.0012269643 0.14400001 1.3090692e-38
-0.018265685 -0.00027092622 0.14400001 1.3182514e-38
-0.017444843 -0.0004737222 0.14400002 1.3827175e-38
-0.016904054 -0.00076343067 0.14400001 1.3827537e-38
-0.018364185 0.00051128666 0.14400002 1.3827519e-38
-0.017444843 0.00054991455 0.14400001 1.5393422e-38
-0.016846113 0.00062717003 0.14400001 1.6038791e-38
-0.018228436 0.0014217991 0.14400001 1.5302293e-38
-0.017444845 0.0014769816 0.14400001 1.6223181e-38
-0.016705396 0.0015211279 0.14400001 1.6960027e-38
-0.017135821 0.0020177709 0.14400001 1.6776356e-38
-0.01659503 0.0020177709 0.14400001 1.7145139e-38
-0.015281687 0.0022495377 0.14400001 1.7237335e-38
-0.014354619 0.0027130712 0.14400001 1.732953e-38
-0.018062888 0.014996712 0.14400001 1.7460271e-38
-0.017251704 0.014996712 0.14400001 1.6815615e-38
-0.016904054 0.014996712 0.14400001 1.690494e-38
-0.018062888 0.015614758 0.14400001 1.690961e-38
-0.017444843 0.015614758 0.14400001 1.5713225e-38
-0.016904054 0.015614756 0.14400001 1.6446119e-38
-0.0092093963 0.015831072 0.14400001 1.5156099e-38
-0.0083286809 0.015807897 0.14400001 1.3872561e-38
-0.007401614 0.015807895 0.14400001 1.304604e-38
-0.018062888 0.016850846 0.14400001 1.7270488e-38
-0.017396558 0.016503196 0.14400001 1.6445766e-38
-0.016614346 0.016734961 0.14400001 1.6814557e-38
-0.015629338 0.016696334 0.14400001 1.663268e-38
-0.014453948 0.01655286 0.14400001 1.7652225e-38
-0.013688291 0.016503196 0.14400001 1.6911058e-38
-0.012848135 0.016850846 0.14400001 1.6906379e-38
-0.010443553 0.016590109 0.14400001 1.4881676e-38
-0.0093716327 0.016464567 0.14400002 1.5526323e-38
-0.0083286809 0.016464569 0.14400001 1.3689613e-38
-0.018062888 0.01731438 0.14400001 1.736233e-38
-0.017334478 0.01731438 0.14400001 1.6903514e-38
-0.01659503 0.01731438 0.14400001 1.6720921e-38
-0.015513455 0.01731438 0.14400002 1.6631961e-38
-0.014509131 0.01731438 0.14400001 1.6541562e-38
-0.01365932 0.01731438 0.14400001 1.635608e-38
-0.012647972 0.017335448 0.14400002 1.6354278e-38
-0.011573417 0.017546147 0.14400001 1.5803275e-38
-0.010607722 0.01715987 0.14400001 1.460725e-38
-0.0094102602 0.017262878 0.14400001 1.5713599e-38
-0.0080969147 0.017082613 0.14400001 1.3137519e-38
-0.017213076 0.018280074 0.14400001 1.7287731e-38
-0.01659503 0.018357329 0.14400002 1.5532428e-38
-0.015513454 0.018357329 0.14400002 1.5616367e-38
-0.014544246 0.018325724 0.14400002 1.5341219e-38
-0.013725539 0.018208338 0.14400001 1.6548728e-38
-0.012546837 0.018056031 0.14400001 1.5802907e-38
-0.011727929 0.018086934 0.14400001 1.9961799e-38
-0.0072857309 0.018009679 0.14400001 1.3781459e-38
-0.016324636 0.019342341 0.14400001 1.5067502e-38
-0.015582984 0.019353926 0.14400002 1.4972438e-38
-0.01470227 0.019168515 0.14400001 1.4605094e-38
-0.016208753 0.0248468 0.14400001 1.5341591e-38
-0.015552081 0.024730919 0.14400001 1.5073279e-38
-0.012654996 0.024885429 0.14400001 1.4695147e-38
-0.01644052 0.025426216 0.14400001 1.5067877e-38
-0.012500484 0.025580728 0.14400001 1.3687108e-38
-0.011805184 0.025889751 0.14400001 1.3136094e-38
-0.017135821 0.026121518 0.14400001 1.469981e-38
-0.016904054 0.026121518 0.14400001 1.4610135e-38
-0.014470503 0.02652711 0.14400001 1.4057683e-38
-0.012500484 0.02643054 0.14400001 1.378254e-38
-0.011639637 0.026485723 0.14400001 1.3780023e-38
-0.010530467 0.026816819 0.14400001 1.4705206e-38
-0.0093716327 0.026662305 0.14400001 1.332371e-38
-0.014122852 0.027048584 0.14400001 1.3785777e-38
-0.013659319 0.027628001 0.14400001 1.3419512e-38
-0.012616367 0.027512118 0.14400002 1.4057687e-38
-0.011552348 0.02746998 0.14400002 1.3686387e-38
-0.010530466 0.02751212 0.14400002 1.4059481e-38
-0.013427552 0.028207419 0.14400001 1.3232606e-38
-0.012703282 0.028468158 0.14400001 1.3135371e-38
-0.010530467 0.028516442 0.14400002 1.295206e-38
0.017629202 0.028439187 0.14400001 1.3269252e-38
0.020873938 0.031683922 0.14400001 1.3635839e-38
0.021105705 0.032610986 0.14400001 1.3726968e-38
-0.017604884 -0.0015155366 0.145 1.2998136e-38
-0.016788067 -0.0010021086 0.14500001 1.3735343e-38
-0.015232225 0.0021095753 0.14500001 1.7236974e-38
-0.014687681 0.0021484713 0.14500001 1.7052943e-38
0.021252273 0.012533716 0.14500001 1.3827538e-38
-0.017488196 0.013733937 0.145 1.8301898e-38
-0.017534873 0.014517414 0.145 1.7830494e-38
-0.016729722 0.014575758 0.14500001 1.7460274e-38
-0.01025353 0.014680779 0.14500001 1.6550174e-38
-0.0094756102 0.01486748 0.14500001 1.5344805e-38
-0.0086198961 0.01486748 0.14500001 1.4701598e-38
-0.017954949 0.015100855 0.14500001 1.700073e-38
-0.016469827 0.015440311 0.145 1.6813823e-38
-0.015387808 0.015800985 0.14500001 1.7278401e-38
-0.014407629 0.015614283 0.14500001 1.8031427e-38
-0.013462454 0.015412022 0.145 1.7941386e-38
-0.012820669 0.015567608 0.14500001 1.765581e-38
-0.011187036 0.015800985 0.14500001 1.6079495e-38
-0.010444473 0.015440312 0.145 1.6355356e-38
-0.0095200622 0.015300892 0.145 1.5434123e-38
-0.0086198961 0.015217544 0.145 1.4608326e-38
-0.007686391 0.015217543 0.145 1.3966557e-38
-0.016450968 0.016189948 0.145 1.6538321e-38
-0.015416982 0.016238565 0.145 1.6723432e-38
-0.014512648 0.016092705 0.14500001 1.7749094e-38
-0.013339285 0.016215878 0.145 1.7373471e-38
-0.012457641 0.016449252 0.145 1.6906017e-38
-0.011446344 0.016449252 0.145 1.5707838e-38
-0.010603595 0.016112154 0.145 1.5800751e-38
-0.012198334 0.017279034 0.14500001 1.6259929e-38
-0.011653788 0.01731793 0.14500001 1.5339056e-38
-0.016262971 0.025719475 0.14500001 1.4520101e-38
-0.015426706 0.025447205 0.145 1.6275778e-38
-0.01725482 0.026769668 0.14500001 1.4606182e-38
-0.016583864 0.026332088 0.145 1.461517e-38
-0.015271121 0.026380708 0.145 1.4524061e-38
-0.016671378 0.027003044 0.14500001 1.4428264e-38
-0.015154433 0.027003044 0.14500001 1.387581e-38
-0.014454304 0.027547589 0.14500001 1.3877971e-38
-0.013987551 0.028169926 0.14500001 1.4068483e-38
-0.012260567 0.028403303 0.14500001 1.3043175e-38
-0.0094172433 -0.0021914276 0.14650001 1.2998133e-38
-0.01435793 0.011937659 0.147 1.6215195e-38
-0.013786157 0.011917944 0.147 1.5569456e-38
-0.017335087 0.012864324 0.147 1.8328147e-38
-0.016428137 0.012824893 0.147 1.8421422e-38
-0.015329659 0.012672795 0.147 1.7871485e-38
-0.014417077 0.012627731 0.147 1.6672579e-38
-0.013549563 0.012627729 0.147 1.648674e-38
-0.012760911 0.012884041 0.147 1.7503779e-38
-0.011262474 0.012864324 0.147 1.6582191e-38
-0.010552689 0.012824893 0.147 1.5752072e-38
-0.0096851718 0.012617871 0.147 1.473756e-38
-0.0086204931 0.012627729 0.14699998 1.3262428e-38
-0.017232828 0.013325113 0.14600001 1.8499951e-38
-0.01650838 0.013424584 0.14666668 1.8594304e-38
-0.015473844 0.013505829 0.14655557 1.8415307e-38
-0.014456133 0.013433327 0.14633335 1.6944131e-38
-0.013555902 0.013423365 0.14622223 1.7405827e-38
-0.012502346 0.013471891 0.14674999 1.7778573e-38
-0.011499071 0.013495246 0.147 1.7132488e-38
-0.010552688 0.013495247 0.147 1.6299848e-38
-0.0096851718 0.013495247 0.147 1.5282097e-38
-0.0086204931 0.013495245 0.14699998 1.4540572e-38
-0.0075558145 0.013495246 0.147 1.3067247e-38
-0.017138833 0.01403007 0.14600001 1.7836607e-38
-0.016512206 0.014421714 0.14600001 1.7651135e-38
-0.015552678 0.014500043 0.146 1.8214373e-38
-0.014475659 0.014500041 0.14600001 1.7862494e-38
-0.013614045 0.014500043 0.14600001 1.7956131e-38
-0.012513887 0.01450902 0.14623529 1.7861418e-38
-0.011546622 0.014599527 0.1463 1.7299608e-38
-0.010462469 0.014301843 0.14611112 1.6562039e-38
-0.0095848823 0.014407986 0.14666666 1.5262314e-38
-0.008540432 0.014424576 0.14654544 1.4430761e-38
-0.0075723212 0.01457874 0.14661537 1.3141108e-38
-0.01619889 0.015205 0.14600001 1.7091489e-38
-0.015552679 0.015322492 0.14600001 1.7743687e-38
-0.014671482 0.015205 0.14600001 1.8038612e-38
-0.012486114 0.015486983 0.14600001 1.7472495e-38
-0.011577502 0.015400822 0.14600001 1.7097593e-38
-0.012204131 0.016262434 0.14600001 1.6814539e-38
-0.01619889 0.026562644 0.14600001 1.3698254e-38
-0.015963903 0.026425568 0.14600001 1.4342187e-38
-0.017138833 0.027541753 0.14600001 1.4148081e-38
-0.016534584 0.027491396 0.14600001 1.3969443e-38
-0.015676698 0.027476477 0.14600001 1.4248553e-38
-0.016530965 0.028318522 0.14616668 1.4426111e-38
-0.015510716 0.028431345 0.14600001 1.3965133e-38
-0.014553989 0.028573079 0.14600001 1.3877974e-38
-0.013849031 0.028834173 0.14600001 1.3415558e-38
-0.016262522 0.029362898 0.147 1.3411598e-38
-0.010441738 0.032515619 0.14600001 1.2958537e-38
0.02142711 0.033763573 0.147 1.3451096e-38
0.021545408 0.034000169 0.147 1.2990473e-38
0.022728384 0.034236763 0.147 1.3357457e-38
0.036687508 0.040624831 0.147 1.3276534e-38
0.036687505 0.04149235 0.147 1.3737513e-38
-0.016182587 0.011840215 0.148 1.7321191e-38
-0.015706176 0.011840214 0.148 1.7228994e-38
-0.014610435 0.011697292 0.148 1.6122995e-38
-0.013609976 0.011744933 0.148 1.5385419e-38
-0.012371311 0.011780664 0.148 1.4741134e-38
-0.016516075 0.012221343 0.148 1.7688895e-38
-0.015765728 0.012137971 0.148 1.7597058e-38
-0.013324129 0.012078419 0.148 1.5660928e-38
-0.012490413 0.012396025 0.148 1.6675455e-38
-0.01145252 0.012282595 0.148 1.5477639e-38
-0.010513313 0.012173702 0.148 1.4463128e-38
-0.0099892626 0.012078419 0.148 1.3818476e-38
-0.012133106 0.013031239 0.148 1.7320112e-38
-0.015944382 0.029943777 0.148 1.3416277e-38
0.020977361 0.033993259 0.148 1.4464887e-38
0.02193018 0.034231462 0.148 1.3359255e-38
0.022287488 0.034469668 0.148 1.344965e-38
-0.014213539 0.010881022 0.149 1.4004276e-38
-0.013462121 0.0106492 0.14900002 1.3267066e-38
-0.016052114 0.011680402 0.149 1.722864e-38
-0.015332672 0.011520526 0.149 1.6214837e-38
-0.014373414 0.011200774 0.149 1.4832241e-38
-0.013414157 0.011392625 0.149 1.4833313e-38
-0.012694715 0.011392625 0.149 1.3174875e-38
-0.016052114 0.030625727 0.149 1.314077e-38
0.017521886 0.030146098 0.149 1.4376669e-38
-0.012215086 0.036501177 0.149 1.3231885e-38
0.045886062 0.0077753025 0.15000001 1.3178104e-38
-0.015435576 0.011155235 0.15000001 1.5385433e-38
-0.014952728 0.011034523 0.15000001 1.446383e-38
0.021260839 0.03469405 0.15000001 1.4096104e-38
0.018536199 0.053490609 0.14999999 1.300103e-38
-0.015538479 0.010865053 0.15100001 1.4742232e-38
-0.016267579 0.01135112 0.15100001 1.6770185e-38
-0.015781512 0.011108086 0.15100001 1.621556e-38
-0.015052413 0.033467144 0.15100001 1.3789363e-38
-0.012136014 0.038084775 0.15100001 1.3693587e-38
0.016622923 0.051735144 0.15100001 1.3830429e-38
0.016420396 0.052585762 0.15100001 1.447544e-38
0.016420396 0.053476885 0.15100001 1.3554564e-38
0.011600236 0.055583168 0.15100001 1.5581424e-38
0.012572368 0.055583168 0.15100001 1.3644956e-38
0.011863522 0.056251511 0.15100001 1.5673261e-38
0.01257237 0.056433793 0.15100001 1.3829709e-38
0.015326746 0.056433793 0.15100001 1.4015541e-38
0.016055847 0.05631227 0.15100001 1.3738231e-38
0.012815402 0.057365414 0.15100001 1.4383607e-38
0.013463492 0.057527438 0.15100001 1.401446e-38
0.01346349 0.058013503 0.15100001 1.466019e-38
0.014233096 0.058013503 0.15100001 1.3183978e-38
0.042828236 0.0021298693 0.15200001 1.3730947e-38
-0.015559837 0.033607233 0.15200001 1.3601741e-38
-0.014907456 0.034911994 0.15200001 1.332695e-38
0.021788958 0.035401281 0.15200001 1.3267059e-38
0.021788958 0.036502175 0.15200001 1.308483e-38
0.022441337 0.036379848 0.15200001 1.299156e-38
0.019750267 0.04070187 0.15200001 1.4291765e-38
0.019538246 0.041468419 0.152 1.4566915e-38
0.01946485 0.042495921 0.15199998 1.3093227e-38
0.019464852 0.044534605 0.152 1.3369814e-38
0.016896103 0.045676276 0.15200001 1.382935e-38
0.01943149 0.045409396 0.152 1.309251e-38
0.0049086083 0.046410203 0.15200001 1.4567994e-38
0.0055202153 0.046654847 0.15200001 1.4107016e-38
0.015917532 0.04689949 0.15200001 1.6503021e-38
0.016590299 0.046654847 0.15200001 1.3921904e-38
0.01836396 0.046532523 0.152 1.3553486e-38
0.0056425366 0.047388773 0.15200001 1.4567994e-38
0.014857414 0.047796514 0.15200001 1.3552403e-38
0.015642308 0.047663994 0.15200001 1.4843862e-38
0.016488364 0.047633413 0.15200001 1.4843864e-38
0.011636284 0.055706624 0.15200001 1.5488869e-38
0.012492534 0.055706624 0.15200001 1.4474357e-38
0.015917532 0.056929838 0.15200001 1.484566e-38
0.016162174 0.056929838 0.15200001 1.3554921e-38
0.015819674 0.057663769 0.15200001 1.3277977e-38
0.016162174 0.057174481 0.15200001 1.3647117e-38
0.013960389 0.058886979 0.15200001 1.4936774e-38
0.020208541 0.033787288 0.15300001 1.5019142e-38
0.020372709 0.034567088 0.15300001 1.5019141e-38
0.020495834 0.035470013 0.15300001 1.3544742e-38
0.021316675 0.035634182 0.15300001 1.3174146e-38
0.02140902 0.036342151 0.15300001 1.3175601e-38
0.017663935 0.040477142 0.15300001 1.3183983e-38
0.016219255 0.041297983 0.15300001 1.3093228e-38
0.017787062 0.042365078 0.15300001 1.3001031e-38
0.015628248 0.043563504 0.15300001 1.3922272e-38
0.016479578 0.043584611 0.15300001 1.3553485e-38
0.015529748 0.044499263 0.15300001 1.3922269e-38
0.016432671 0.044499259 0.15300001 1.4290687e-38
0.017007262 0.044499263 0.15300001 1.3368732e-38
0.014637083 0.045699745 0.15300001 1.4475438e-38
0.015529749 0.045607399 0.15300001 1.5673261e-38
0.016402824 0.045573819 0.15300001 1.5672898e-38
0.013682856 0.046838656 0.15300001 1.4476161e-38
0.014544738 0.046715528 0.15300001 1.5765457e-38
0.015529748 0.046715531 0.15300001 1.650266e-38
0.016268505 0.046592407 0.15300001 1.5026809e-38
0.013470185 0.047655765 0.15300001 1.5213726e-38
0.014513957 0.047577415 0.15300001 1.5397396e-38
0.015365579 0.047372203 0.15300001 1.5858011e-38
0.01360898 0.048390049 0.15300001 1.401518e-38
0.014298487 0.048193045 0.15300001 1.3737154e-38
0.010604704 0.049916811 0.15300001 1.3185423e-38
0.0097838631 0.050573483 0.15300001 1.5212645e-38
0.010440536 0.050409313 0.15300001 1.3646042e-38
0.0097428206 0.051394325 0.15300001 1.4566914e-38
0.010440536 0.051394317 0.15300001 1.3368375e-38
0.010549981 0.052461419 0.15300001 1.3092504e-38
0.011425545 0.052502457 0.15300001 1.3092865e-38
0.011835965 0.055826865 0.15300001 1.5488869e-38
0.013067226 0.055826865 0.15300001 1.3276174e-38
0.024798976 0.013563434 0.15459999 1.3085884e-38
0.017562207 0.03244108 0.15499999 1.2996298e-38
0.018416528 0.032874804 0.15450001 1.3363225e-38
0.013986452 0.033605278 0.155 1.3460568e-38
0.014806144 0.033391446 0.15499999 1.346021e-38
0.015649594 0.033355802 0.15499999 1.3091781e-38
0.019411141 0.033760265 0.15400001 1.4283741e-38
0.012739098 0.034727894 0.155 1.3367656e-38
0.013647884 0.03453188 0.15499999 1.3368013e-38
0.014734865 0.03447843 0.15499999 1.382971e-38
0.015649594 0.034478422 0.15499999 1.3277255e-38
0.019514417 0.034379918 0.15400003 1.3455058e-38
0.020092761 0.034379918 0.15400001 1.3636565e-38
0.012572784 0.035684202 0.15499999 1.3921546e-38
0.013612245 0.035601046 0.15499999 1.3460932e-38
0.014734866 0.035601046 0.15499999 1.3369094e-38
0.017490214 0.035495296 0.15400003 1.3368009e-38
0.020092761 0.035371363 0.15400001 1.308412e-38
0.011563019 0.036634572 0.15499999 1.3000312e-38
0.012489627 0.036598936 0.15499999 1.2999952e-38
0.013612245 0.036598932 0.15499999 1.3184702e-38
0.014703683 0.036567748 0.15499999 1.3553123e-38
0.010868063 0.037596814 0.155 1.3184704e-38
0.012489627 0.037513658 0.15499999 1.3460212e-38
0.013612247 0.037513658 0.15499999 1.3183623e-38
0.014693436 0.037492175 0.15457143 1.3184702e-38
0.01860559 0.037602119 0.15400003 1.3276175e-38
0.010618592 0.038469967 0.15499999 1.3185062e-38
0.011491741 0.038428385 0.15499999 1.3184345e-38
0.012489626 0.038428385 0.15499999 1.4014106e-38
0.013612248 0.038428392 0.15499999 1.3552766e-38
0.015383388 0.038510945 0.15400003 1.3092508e-38
0.016374836 0.038510945 0.15400003 1.3000671e-38
0.010577013 0.039426271 0.15499999 1.3276181e-38
0.011491741 0.039426275 0.15499999 1.3461291e-38
0.012489627 0.039426275 0.15499999 1.3369095e-38
0.013553765 0.0394543 0.15472727 1.3830789e-38
0.017415855 0.039386727 0.15400003 1.3553126e-38
0.0087475572 0.040490679 0.155 1.3738957e-38
0.0096622854 0.040340997 0.15499999 1.3001391e-38
0.010577013 0.040340994 0.15499999 1.3369814e-38
0.011533899 0.040389329 0.15489998 1.3276901e-38
0.0125246 0.040440004 0.15466668 1.3000671e-38
0.013532965 0.040379249 0.15410003 1.3646042e-38
0.016374836 0.040411215 0.15400003 1.3737875e-38
0.017180387 0.0403286 0.15400001 1.5027533e-38
0.0078565888 0.041588355 0.15499999 1.3552766e-38
0.0086644003 0.041463617 0.15499999 1.3644603e-38
0.0096622845 0.041463625 0.15499999 1.3462371e-38
0.010577013 0.041463625 0.15499999 1.346237e-38
0.011531794 0.04139993 0.15463637 1.346201e-38
0.012574289 0.041320045 0.15400003 1.3460931e-38
0.013565735 0.041320045 0.15400003 1.3554202e-38
0.014474561 0.041320048 0.15400003 1.3093226e-38
0.016374836 0.041072182 0.15400001 1.3737516e-38
0.017217565 0.041369617 0.15400001 1.3460572e-38
0.0077496725 0.042586237 0.15499999 1.4198497e-38
0.0086644003 0.042586237 0.15499999 1.346201e-38
0.0096622854 0.042586237 0.15499999 1.4198856e-38
0.010608239 0.042498436 0.15450001 1.4199576e-38
0.011665461 0.042435426 0.15400003 1.4014826e-38
0.01257429 0.042435423 0.15400003 1.346201e-38
0.013565737 0.042435423 0.15400003 1.3093587e-38
0.0075625689 0.043584123 0.15499999 1.3644957e-38
0.0086644003 0.043584123 0.15499999 1.3554561e-38
0.0096622854 0.04358412 0.15499999 1.3738957e-38
0.0067517883 0.04449885 0.155 1.4014462e-38
0.0075625698 0.04449885 0.15499999 1.3091788e-38
0.0086644012 0.04449885 0.15499999 1.4475441e-38
0.007674831 0.045380317 0.15499999 1.3370175e-38
0.0086644003 0.045413584 0.15499999 1.4843146e-38
0.011665462 0.045451071 0.15400003 1.3462367e-38
0.007674831 0.046403147 0.15499999 1.3461648e-38
0.0086644003 0.04641147 0.15499999 1.3921907e-38
0.011665463 0.0463599 0.15400003 1.3646401e-38
0.01257429 0.046359904 0.15400003 1.3092508e-38
0.013565736 0.0463599 0.15400003 1.327762e-38
0.014144079 0.046029419 0.15400001 1.3185783e-38
0.0086644003 0.047076721 0.155 1.3369451e-38
0.012574289 0.047351345 0.15400003 1.3277621e-38
0.013152633 0.047144793 0.15400001 1.3738958e-38
0.0047560176 0.048074607 0.155 1.4383603e-38
0.0052549597 0.04857355 0.155 1.4383603e-38
0.0065334998 0.048604734 0.15499999 1.327762e-38
0.0074001988 0.048565358 0.154875 1.3830793e-38
0.0082780188 0.04842541 0.15400001 1.4383603e-38
0.012409048 0.048012313 0.15400001 1.3370537e-38
0.0065854732 0.049488273 0.15499999 1.401482e-38
0.0075046835 0.04945524 0.15425003 1.3922625e-38
0.0083606392 0.049416859 0.15400003 1.3553483e-38
0.010674016 0.049747344 0.15400001 1.3369098e-38
0.0069560893 0.050614856 0.15400001 1.3554921e-38
0.0075344336 0.050490931 0.15400003 1.3554202e-38
0.008498637 0.05047382 0.15410003 1.3093224e-38
0.0094037252 0.050459944 0.15400003 1.429141e-38
0.010178292 0.050243065 0.15400001 1.3923348e-38
0.0075344332 0.051234514 0.15400001 1.3277617e-38
0.0085424045 0.051383235 0.15400001 1.3922628e-38
0.0091868453 0.051606305 0.15400001 1.5765457e-38
0.0072507299 0.053562976 0.155 1.3830426e-38
0.0067034732 0.054530192 0.15471427 1.300067e-38
0.0091868453 0.054952439 0.15400001 1.318506e-38
0.0055875876 0.055641901 0.15499999 1.3830069e-38
0.0092694657 0.055282921 0.15400001 1.318506e-38
0.0055356147 0.056525446 0.15499999 1.3922625e-38
0.0065222075 0.056496393 0.15474999 1.3738233e-38
0.011616477 0.056307159 0.155 1.4752384e-38
0.012457395 0.056260996 0.15459999 1.4290324e-38
0.013238039 0.056307159 0.155 1.3183975e-38
0.0056707454 0.057221889 0.155 1.392119e-38
0.0062528448 0.057305045 0.155 1.3737876e-38
0.012319122 0.031562362 0.156 1.3460568e-38
0.011816962 0.032566682 0.156 1.3645682e-38
0.011637619 0.033571005 0.156 1.3277617e-38
0.012402818 0.033445463 0.156 1.3276898e-38
0.014256031 0.033284057 0.156 1.3091785e-38
0.011482187 0.034575328 0.156 1.3368015e-38
0.012350508 0.034543943 0.156 1.3921547e-38
0.0097455457 0.035579652 0.156 1.3001034e-38
0.010477864 0.035495955 0.156 1.3000314e-38
0.011482187 0.035495955 0.156 1.3368015e-38
0.012168474 0.035429001 0.156 1.5119369e-38
0.009557236 0.036500283 0.156 1.3277258e-38
0.010477864 0.036500283 0.156 1.3461648e-38
0.011314799 0.036332898 0.156 1.3092508e-38
0.0095572351 0.03742091 0.156 1.4014104e-38
0.010382214 0.037373085 0.156 1.401482e-38
0.0084273713 0.038341537 0.156 1.3554567e-38
0.009557236 0.038341537 0.156 1.3738599e-38
0.010059397 0.038215995 0.156 1.4199573e-38
0.0072975084 0.03934586 0.156 1.3369094e-38
0.0084273713 0.03934586 0.156 1.3646401e-38
0.0093689244 0.039283089 0.156 1.346237e-38
0.0047867014 0.040852346 0.156 1.3645682e-38
0.0053725559 0.040475722 0.156 1.3000312e-38
0.0072975084 0.040475722 0.156 1.318506e-38
0.0083474824 0.040350184 0.156 1.3646041e-38
0.004686269 0.041655805 0.156 1.3737517e-38
0.0053725559 0.041605592 0.156 1.3184704e-38
0.0062931855 0.041605588 0.156 1.3276899e-38
0.0072661233 0.041574206 0.156 1.3553486e-38
0.0047239312 0.042421598 0.156 1.3553486e-38
0.0053725559 0.042526223 0.156 1.3276899e-38
0.0062931855 0.042526215 0.156 1.3461291e-38
0.0070464276 0.042526215 0.156 1.3368735e-38
0.0047867014 0.043530542 0.156 1.4198496e-38
0.0053725559 0.043530539 0.156 1.3553128e-38
0.0062931855 0.043530542 0.156 1.410666e-38
0.0070464276 0.043112073 0.156 1.327546e-38
0.0047867014 0.044116396 0.156 1.4474364e-38
0.0054980968 0.044534862 0.156 1.3921906e-38
0.0062214481 0.044403341 0.156 1.447544e-38
0.0055399435 0.045246258 0.156 1.5120089e-38
0.0061676456 0.045120716 0.156 1.4751306e-38
0.0041589998 0.047694292 0.156 1.4475798e-38
0.0044100806 0.04866723 0.156 1.4291051e-38
0.0057910243 0.048886929 0.156 1.466019e-38
0.0062304158 0.048447538 0.156 1.3646039e-38
0.0070464276 0.048384767 0.156 1.3369098e-38
0.0045356206 0.049338873 0.156 1.4107379e-38
0.005414403 0.04913801 0.156 1.4475441e-38
0.0095572351 0.050644498 0.156 1.3369455e-38
0.010059397 0.050644495 0.156 1.3554565e-38
0.033118691 -0.010181888 0.15700001 1.3182442e-38
0.034129452 -0.0091711273 0.15700001 1.2997695e-38
0.018968038 0.011170432 0.15700001 1.3272475e-38
0.016946515 0.01382368 0.15700001 1.3738231e-38
0.017199205 0.01382368 0.15700001 1.3646035e-38
0.02056841 0.013739449 0.15700001 1.2998485e-38
0.016621629 0.01454565 0.15699999 1.3369091e-38
0.017451895 0.01449752 0.15700001 1.2999948e-38
0.018209966 0.01483444 0.15700001 1.3183981e-38
0.015935754 0.015718857 0.15700001 1.3276536e-38
0.016525365 0.015508281 0.15700001 1.31847e-38
0.017451895 0.015508281 0.15700001 1.3000308e-38
0.015809409 0.016540099 0.15700001 1.3368012e-38
0.016525364 0.016434811 0.15700001 1.3460207e-38
0.017451895 0.016434811 0.15700001 1.3183981e-38
0.015683064 0.017361343 0.15700001 1.3460209e-38
0.016525365 0.017361343 0.15700001 1.3368372e-38
0.017451894 0.017361341 0.15700001 1.3276176e-38
0.018513195 0.017386612 0.15700002 1.2999589e-38
0.014924994 0.018624794 0.15700001 1.3644243e-38
0.015514604 0.018372104 0.15700001 1.3552407e-38
0.016525365 0.018372104 0.15700001 1.346057e-38
0.017451895 0.018372104 0.15700001 1.3183981e-38
0.018589005 0.018372102 0.15700002 1.3091785e-38
0.014816699 0.019563358 0.15699999 1.3737154e-38
0.015514605 0.019509209 0.15700002 1.3552763e-38
0.016525364 0.019509209 0.15700002 1.3368372e-38
0.017451895 0.019509209 0.15700002 1.3183981e-38
0.018589003 0.019509211 0.15700004 1.2999589e-38
0.019473419 0.019761899 0.15700001 1.3091784e-38
0.014588073 0.020646313 0.15700001 1.3737154e-38
0.015514604 0.020646313 0.15700001 1.3368372e-38
0.016525365 0.020646313 0.15700001 1.3183981e-38
0.017420309 0.02061473 0.15700001 1.2999589e-38
0.01850477 0.020477856 0.15700001 1.2999589e-38
0.014823918 0.021505464 0.15700001 1.3368372e-38
0.015514604 0.021572845 0.15700001 1.3091785e-38
0.01639902 0.021446502 0.15700001 1.2999589e-38
0.014798649 0.022794183 0.15700001 1.4013381e-38
0.015388259 0.022457263 0.15700001 1.3736794e-38
0.014714419 0.023383791 0.15700001 1.4197772e-38
0.015177685 0.023510138 0.15700001 1.3921186e-38
0.011260985 0.026963567 0.15700001 1.3183265e-38
0.011513676 0.027721638 0.15700002 1.3183622e-38
0.012398092 0.027847983 0.15700001 1.3644963e-38
0.010376569 0.031259302 0.15700001 1.3093227e-38
0.012619196 0.031227715 0.15700001 1.3092865e-38
0.011408388 0.032333236 0.15700002 1.3276541e-38
0.011235716 0.033482976 0.15700001 1.3646401e-38
0.0075127473 0.037323866 0.15700001 1.3184704e-38
0.0081023583 0.037197523 0.15700001 1.3184704e-38
0.0065862169 0.038334627 0.15700001 1.3093227e-38
0.0073442878 0.038233552 0.15700001 1.3000673e-38
0.0043120049 0.040608838 0.15700001 1.300067e-38
0.0035539344 0.041872289 0.15700001 1.3183625e-38
0.0041603907 0.041467987 0.15700001 1.364568e-38
0.0013302604 0.042377673 0.15700001 1.3276175e-38
0.0034275893 0.042546127 0.15700001 1.3277621e-38
0.0041224873 0.04263036 0.15700001 1.4199216e-38
0.0014818746 0.043540046 0.15700001 1.4105574e-38
0.0023747133 0.04389381 0.15700001 1.4750585e-38
0.0033328305 0.043514777 0.15700001 1.3737876e-38
0.0041856598 0.043472659 0.15700001 1.4475441e-38
0.0017851029 0.044146501 0.15700001 1.4934256e-38
0.0024168284 0.044367608 0.15700001 1.4842782e-38
0.0033012442 0.044399191 0.15700001 1.4382883e-38
0.0042398078 0.044435292 0.15699999 1.4567275e-38
0.0027958637 0.045157261 0.15700001 1.4474719e-38
0.0031748991 0.045157261 0.15700001 1.3921546e-38
0.0046657715 0.045460485 0.15700001 1.3737156e-38
0.0048173857 0.046168022 0.15700001 1.4658755e-38
0.0033854742 0.047768395 0.15700001 1.4567994e-38
0.0033012442 0.048610691 0.15700001 1.4567637e-38
0.0034697044 0.049368765 0.15700001 1.4567638e-38
0.0098711895 0.049958374 0.15700001 1.346237e-38
0.00970273 0.050379526 0.15700001 1.3277618e-38
0.01012388 0.050463755 0.15700001 1.3370174e-38
0.013748559 0.009461483 0.15800001 1.3000308e-38
0.01298566 0.010860132 0.15800001 1.3091785e-38
0.013526047 0.010478683 0.15800001 1.3000668e-38
0.016291557 0.010436299 0.15800001 1.3000308e-38
0.011714161 0.011521311 0.15800001 1.3460566e-38
0.012604211 0.011400519 0.15800001 1.3368371e-38
0.013494259 0.011368732 0.15800001 1.3276174e-38
0.015528657 0.011368733 0.15800001 1.3368732e-38
0.016418707 0.011400518 0.15800001 1.3736793e-38
0.017054455 0.011623031 0.15800001 1.3460205e-38
0.010866496 0.012597847 0.15800001 1.3552763e-38
0.011629395 0.01251308 0.15800001 1.3368372e-38
0.012561828 0.012513078 0.15800001 1.3183621e-38
0.013494258 0.012513082 0.15800001 1.419777e-38
0.015528657 0.012513079 0.15800001 1.3368372e-38
0.016461089 0.012513079 0.15800001 1.3737153e-38
0.017163441 0.012567572 0.15800001 1.35524e-38
0.010824111 0.013657429 0.15800001 1.3737154e-38
0.011629395 0.013657431 0.15800001 1.3737154e-38
0.012561828 0.01365743 0.15800001 1.3368372e-38
0.013494259 0.013657429 0.15800001 1.2999589e-38
0.01451146 0.013657431 0.15800001 1.2999589e-38
0.015528657 0.013657431 0.15800001 1.3092145e-38
0.016418707 0.013625642 0.15800001 1.3369451e-38
0.017308755 0.013606569 0.15800001 1.3644957e-38
0.010849542 0.014623767 0.15800001 1.382935e-38
0.011629395 0.014674629 0.15800001 1.3921546e-38
0.012561828 0.014674627 0.15800001 1.3737154e-38
0.013494258 0.014674627 0.15800001 1.3460568e-38
0.014511458 0.014674629 0.15800001 1.2999948e-38
0.011629395 0.015607059 0.15800001 1.3460206e-38
0.012561828 0.015607061 0.15800001 1.382935e-38
0.013494258 0.015607059 0.15800001 1.3921546e-38
0.014511458 0.015607061 0.15800001 1.3737515e-38
0.015455999 0.015546511 0.15800001 1.3368731e-38
0.011866741 0.016454725 0.15800001 1.3275456e-38
0.012561828 0.016539492 0.15800001 1.382935e-38
0.013494259 0.016539492 0.15800001 1.3737154e-38
0.014511458 0.016539492 0.15800001 1.382935e-38
0.015376076 0.016454725 0.15800001 1.3737154e-38
0.012561828 0.01755669 0.15800001 1.3828631e-38
0.013494258 0.01755669 0.15800001 1.3552402e-38
0.014511458 0.01755669 0.15800001 1.3644599e-38
0.015274357 0.017556692 0.15800001 1.4013022e-38
0.012561827 0.018489122 0.15800001 1.3828989e-38
0.013494259 0.018489122 0.15800001 1.3552403e-38
0.014479671 0.018457334 0.15800001 1.3736796e-38
0.012561828 0.019506322 0.15800001 1.3736793e-38
0.013494259 0.019506322 0.15800001 1.3921546e-38
0.014320734 0.019442746 0.15800001 1.4013741e-38
0.011883695 0.020693054 0.15800001 1.3367652e-38
0.012561828 0.020438753 0.15800001 1.401374e-38
0.013494259 0.020438753 0.15800001 1.401446e-38
0.014257158 0.020014921 0.15800001 1.401482e-38
0.011629395 0.021455951 0.15800001 1.3921186e-38
0.012561828 0.021455951 0.15800001 1.4105577e-38
0.013494259 0.021455953 0.15800001 1.4105937e-38
0.014257158 0.02166787 0.15800001 1.3921186e-38
0.0096797636 0.022812217 0.15800001 1.3366933e-38
0.010951262 0.022049319 0.15800001 1.4105577e-38
0.011629395 0.022388386 0.15800001 1.4013022e-38
0.012561828 0.022388386 0.15800001 1.4197772e-38
0.013494259 0.022388382 0.15800001 1.4105577e-38
0.014426692 0.022303618 0.15800001 1.4013381e-38
0.0096797626 0.023320816 0.15800001 1.3183625e-38
0.010660634 0.023393471 0.15800001 1.3644243e-38
0.011629394 0.023320816 0.15800001 1.364424e-38
0.012561828 0.023320816 0.15800001 1.4197772e-38
0.013494259 0.023320816 0.15800001 1.4197772e-38
0.014257158 0.023320816 0.15800001 1.4289968e-38
0.015528657 0.023066517 0.15800001 1.382899e-38
0.0096797636 0.024338016 0.15800001 1.3460931e-38
0.010612196 0.024338014 0.15800001 1.3920828e-38
0.011629394 0.024338014 0.15800001 1.3368012e-38
0.012561828 0.024338016 0.15800001 1.382899e-38
0.01339254 0.024236295 0.15800001 1.3368012e-38
0.014384309 0.024210865 0.15800001 1.3921186e-38
0.0096797626 0.025482364 0.15800001 1.3183621e-38
0.010612196 0.025482364 0.15800001 1.3368012e-38
0.011629396 0.025482366 0.15800001 1.3828631e-38
0.012561828 0.025482366 0.15800001 1.3368372e-38
0.011629394 0.026626712 0.15800001 1.3459852e-38
