# .PCD v0.7 - Point Cloud Data file format
VERSION 0.7
FIELDS x y z rgb
SIZE 4 4 4 4
TYPE F F F F
COUNT 1 1 1 1
WIDTH 685
HEIGHT 1
VIEWPOINT 0 0 0 1 0 0 0
POINTS 685
DATA ascii
-0.0053704148 -0.028462926 0.088999994 1.2079739e-38
-0.0075096907 -0.026491003 0.088000037 1.208046e-38
-0.0084806653 -0.025627628 0.088000022 1.2079738e-38
-0.0037253946 -0.030946903 0.091000006 1.2080467e-38
0.044443365 0.018525681 0.097000018 1.2354109e-38
0.046391599 0.016427675 0.09800002 1.2074993e-38
0.047118913 0.016462723 0.098000012 1.29948e-38
0.045393437 0.017289614 0.097999997 1.2169338e-38
0.046067376 0.017146222 0.098000005 1.3086984e-38
0.045331299 0.018460641 0.098000012 1.2078931e-38
0.047651321 0.013579715 0.1 1.5202475e-38
0.040518496 0.014487134 0.099074066 1.2904033e-38
0.041458517 0.014581269 0.099047616 1.2810395e-38
0.042314708 0.014648504 0.099250011 1.2626356e-38
0.046291053 0.014825632 0.099500008 1.2167547e-38
0.039538763 0.015262026 0.098999992 1.2262635e-38
0.040442705 0.015150181 0.099000007 1.2168999e-38
0.047174811 0.016843164 0.099000007 1.3271388e-38
0.0462806 0.017642343 0.099200003 1.2722152e-38
0.047222126 0.017281547 0.1 1.3363575e-38
0.045900092 0.018675571 0.099000007 1.2171128e-38
0.046361338 0.018520424 0.098999992 1.2355518e-38
0.046477865 0.014371167 0.10099997 1.4650714e-38
0.041406211 0.012782113 0.10200001 1.3639432e-38
0.046141826 0.014480621 0.10200001 1.4467033e-38
0.042228717 0.01376607 0.10300001 1.308879e-38
0.04690145 0.014632864 0.11700001 1.3915297e-38
0.046084657 0.010804928 0.125 1.2627805e-38
0.046487033 0.011341426 0.125 1.3272813e-38
0.046858929 0.010891367 0.126 1.2996588e-38
0.047163121 0.010891367 0.126 1.3457207e-38
0.057471916 0.010823769 0.126 1.3364333e-38
0.046656132 0.011905347 0.126 1.2534518e-38
0.046858929 0.012108142 0.126 1.2809303e-38
0.051114529 0.0089337518 0.127 1.2720016e-38
0.049479287 0.0096662045 0.12699999 1.3917122e-38
0.05039911 0.0096151028 0.12699999 1.3825277e-38
0.04770777 0.010841536 0.127 1.336501e-38
0.049182165 0.0095191337 0.12800001 1.2350512e-38
0.050349589 0.0090727685 0.12800001 1.2627461e-38
0.052495576 0.0090040965 0.12800001 1.3549784e-38
0.05361836 0.009168908 0.12800001 1.2996239e-38
0.0472937 0.010858231 0.12800001 1.2074632e-38
0.048467986 0.010363795 0.12800001 1.2719639e-38
0.058933545 0.01250635 0.12800001 1.4190477e-38
0.060016833 0.013849802 0.12900001 1.4927342e-38
-0.048180077 -0.046371948 0.13000001 1.2170531e-38
-0.046453893 -0.045430396 0.13000001 1.2631506e-38
0.060272846 0.013538698 0.13000001 1.4835508e-38
-0.0515039 -0.027462911 0.133 1.2447113e-38
-0.050558463 -0.027462913 0.133 1.2539306e-38
-0.051503908 -0.026499635 0.133 1.2262724e-38
-0.021524027 0.021419825 0.13500001 1.5628977e-38
-0.021207159 0.022605816 0.13500001 1.5355628e-38
0.064981125 0.029703675 0.13500001 1.4004648e-38
0.065415688 0.029703673 0.13500001 1.4834057e-38
0.06631197 0.029785154 0.13500001 1.3910684e-38
0.064981125 0.030138237 0.13500001 1.3728783e-38
0.065415688 0.030500373 0.13500001 1.2713928e-38
-0.021546658 0.022481414 0.13600001 1.5079764e-38
0.013585332 0.027078122 0.13600001 1.2070692e-38
0.063601896 0.028829249 0.13600001 1.2813341e-38
0.065024689 0.029814258 0.13600001 1.2901532e-38
0.063412853 0.030460982 0.13600002 1.3456913e-38
0.064368024 0.03043445 0.13600002 1.2073952e-38
0.065079413 0.030525655 0.13600001 1.2992666e-38
0.063383013 0.031455938 0.13600002 1.3085249e-38
0.014346723 0.027718225 0.13700001 1.2071407e-38
0.061478682 0.033340983 0.13699999 1.3271828e-38
0.062195305 0.033120483 0.13700001 1.2349877e-38
-0.058178484 -0.020055177 0.13800001 1.2447118e-38
-0.058178484 -0.019610956 0.13800001 1.2354922e-38
0.040438302 0.0037105756 0.13800001 1.2998383e-38
-0.021419302 0.0050432347 0.13800001 1.3641699e-38
-0.020864027 0.0050432347 0.13800001 1.3089244e-38
-0.022418795 0.021257253 0.13800001 1.5715056e-38
-0.021974577 0.022589913 0.13800001 1.5264872e-38
-0.021456322 0.025625415 0.13800001 1.3783979e-38
-0.020775182 0.025210809 0.13800001 1.378002e-38
0.014895664 0.028142659 0.13800001 1.2254719e-38
-0.013054565 -0.0032208415 0.14 1.3365837e-38
-0.012754126 -0.00036667625 0.14 1.3641342e-38
0.039897718 0.0030883658 0.14 1.3090579e-38
0.040433038 0.0036628908 0.13900001 1.2813994e-38
0.040731333 0.0041849026 0.13900001 1.2630318e-38
0.041439157 0.0043967166 0.13950001 1.2721799e-38
-0.017185593 0.018786274 0.14 1.4332119e-38
-0.016885156 0.018861383 0.14 1.3873659e-38
-0.014406538 0.018861383 0.14 1.2313523e-38
-0.017223148 0.019537371 0.14 1.4146649e-38
-0.016584717 0.019662552 0.14 1.378218e-38
-0.01598384 0.019988028 0.14 1.3695382e-38
-0.014481648 0.019537371 0.14 1.2317121e-38
-0.02184239 0.020889344 0.14 1.5527785e-38
-0.018011799 0.020889344 0.14 1.4890688e-38
-0.017335812 0.020513795 0.14 1.3695378e-38
-0.016374497 0.020392137 0.13916667 1.3696096e-38
-0.015774392 0.02054682 0.13985714 1.3879051e-38
-0.014237541 0.020438686 0.14 1.213129e-38
-0.022550618 0.021824695 0.13950001 1.5531744e-38
-0.017298259 0.021302447 0.14 1.3052886e-38
-0.016603494 0.021171004 0.14 1.3328394e-38
-0.015583255 0.021415109 0.14 1.3141126e-38
-0.013655442 0.021415109 0.14 1.2038739e-38
-0.022411147 0.022435308 0.13933335 1.5352393e-38
-0.018124465 0.022691973 0.14 1.3235826e-38
-0.017335813 0.022489179 0.14 1.3047847e-38
-0.016885156 0.022541754 0.14 1.2770183e-38
-0.015307853 0.022015987 0.14 1.3232606e-38
0.012095252 0.02208245 0.13900001 1.2353369e-38
-0.022285882 0.023298301 0.13925001 1.4341117e-38
-0.018011799 0.023142632 0.14 1.2958523e-38
-0.017335813 0.02314263 0.14 1.2954214e-38
-0.021015216 0.025885679 0.13900001 1.3693584e-38
-0.021339582 0.026421122 0.13933334 1.3881932e-38
-0.020715745 0.026747894 0.14 1.3693584e-38
-0.021346666 0.027288681 0.14 1.3510266e-38
-0.020715745 0.027311215 0.14 1.3229e-38
0.014779883 0.028570309 0.13900001 1.2899723e-38
0.055440877 0.033603992 0.13900003 1.327399e-38
-0.012466997 -0.00039090851 0.14100002 1.3733538e-38
-0.012410263 0.0004439003 0.141 1.2075097e-38
0.039728824 0.0028834871 0.141 1.2721796e-38
0.041657802 0.0049259318 0.141 1.2168633e-38
-0.016324949 0.015818972 0.141 1.3598495e-38
-0.015757602 0.015818972 0.141 1.2770899e-38
-0.019350791 0.016625861 0.14100002 1.5712159e-38
-0.018651066 0.016896928 0.141 1.4423585e-38
-0.017440731 0.016632168 0.14100002 1.5161867e-38
-0.016531257 0.016541049 0.14100002 1.4058041e-38
-0.015530665 0.016499786 0.14100002 1.3045691e-38
-0.014509442 0.016541047 0.14100002 1.2312083e-38
-0.0201829 0.017558834 0.141 1.7930976e-38
-0.019558819 0.017558834 0.14100002 1.8028211e-38
-0.018594332 0.017558832 0.14100002 1.5994869e-38
-0.017516376 0.01755883 0.14100002 1.5254783e-38
-0.016551889 0.01755883 0.14100002 1.3873655e-38
-0.015530664 0.017558834 0.14100002 1.3414479e-38
-0.014509441 0.017558834 0.14100002 1.2771985e-38
-0.020409839 0.018542232 0.14100002 1.5618882e-38
-0.019558821 0.018542232 0.14100002 1.6270733e-38
-0.018594332 0.018542232 0.14100002 1.6458012e-38
-0.017554199 0.018409848 0.14100002 1.4701259e-38
-0.016551888 0.018542232 0.14100002 1.3506672e-38
-0.015530664 0.018542234 0.14100002 1.2956017e-38
-0.014486748 0.018451456 0.14100002 1.2496474e-38
-0.013488218 0.018542232 0.14100002 1.2131286e-38
-0.012542643 0.018592663 0.14100002 1.2040891e-38
-0.020409837 0.01952563 0.14100002 1.5623207e-38
-0.019558819 0.019525629 0.14100002 1.5075069e-38
-0.018594332 0.019525629 0.14100002 1.4978569e-38
-0.017913517 0.01952563 0.141 1.4421439e-38
-0.016495153 0.01927978 0.141 1.3414479e-38
-0.015644133 0.01952563 0.14100002 1.3511352e-38
-0.022452284 0.020811616 0.141 1.5901611e-38
-0.021453757 0.020720841 0.141 1.6083476e-38
-0.020561131 0.020433385 0.14100002 1.6456214e-38
-0.019558819 0.020433385 0.14100002 1.5074e-38
-0.018594332 0.020433385 0.14100002 1.451651e-38
-0.017913517 0.0201308 0.141 1.3869343e-38
-0.015492842 0.020433385 0.14100002 1.3973408e-38
-0.01473638 0.020811616 0.141 1.2682306e-38
-0.023246568 0.021492429 0.141 1.6088881e-38
-0.022603579 0.021366352 0.14100002 1.5992725e-38
-0.021509618 0.021387687 0.14100002 1.5716851e-38
-0.020561131 0.021435695 0.14100002 1.5813003e-38
-0.019558821 0.021435695 0.14100002 1.5163319e-38
-0.018614963 0.0214718 0.14100002 1.4241361e-38
-0.017610932 0.021795014 0.141 1.3418432e-38
-0.016597275 0.021764755 0.141 1.3140767e-38
-0.015190256 0.021265492 0.141 1.2590469e-38
-0.01463912 0.021492427 0.14100002 1.2039095e-38
-0.013147811 0.021435695 0.141 1.2039097e-38
0.011588468 0.021719366 0.141 1.2261891e-38
-0.02290616 0.022627121 0.141 1.5259836e-38
-0.021279769 0.022438006 0.14100002 1.4892847e-38
-0.020551674 0.022371816 0.14100002 1.4519387e-38
-0.019558821 0.022400184 0.14100002 1.4609419e-38
-0.018626751 0.022335341 0.14100002 1.3877242e-38
-0.01745964 0.022173245 0.141 1.3324796e-38
-0.016551889 0.022400182 0.14100002 1.2862021e-38
-0.015530664 0.022445571 0.14100002 1.2865261e-38
0.011588468 0.022400184 0.141 1.235373e-38
-0.022679223 0.023534875 0.141 1.4157089e-38
-0.021090655 0.023080997 0.141 1.5164764e-38
-0.020636776 0.023364671 0.141 1.4977847e-38
-0.019460825 0.023307936 0.14100002 1.489068e-38
-0.018644763 0.023509659 0.14100002 1.3326588e-38
-0.01745964 0.023610521 0.14100002 1.2862021e-38
-0.016551888 0.023421405 0.14100002 1.2126618e-38
-0.015530664 0.023421407 0.14100002 1.2312449e-38
-0.014509442 0.023421407 0.14100002 1.2409679e-38
-0.018480863 0.024215689 0.141 1.3413034e-38
-0.017913517 0.024215689 0.141 1.3412314e-38
-0.021090655 0.026598539 0.141 1.4247839e-38
-0.021090655 0.027846701 0.141 1.3137163e-38
-0.020863716 0.027846701 0.141 1.3044968e-38
-0.021240233 0.0029039374 0.142 1.3366185e-38
0.04115333 0.0031324853 0.142 1.2629603e-38
0.042562712 0.0052655977 0.142 1.2813273e-38
0.043324534 0.0051894155 0.142 1.2812915e-38
-0.017420219 0.013710984 0.142 1.516329e-38
-0.018523052 0.014559876 0.142 1.6263522e-38
-0.017431103 0.014483695 0.142 1.5066422e-38
-0.020195441 0.015539365 0.142 1.6721985e-38
-0.019411851 0.015474069 0.14199999 1.5985859e-38
-0.018440522 0.015474068 0.14199999 1.5524882e-38
-0.017431103 0.015474066 0.14199999 1.4974229e-38
-0.016669275 0.015506716 0.142 1.3965118e-38
-0.015983632 0.015702615 0.142 1.2863453e-38
-0.014840893 0.015397885 0.142 1.2033694e-38
-0.020358693 0.016584156 0.142 1.5983701e-38
-0.019411851 0.01638826 0.142 1.5523807e-38
-0.018497659 0.016416827 0.142 1.4699086e-38
-0.017812015 0.016159711 0.142 1.5712517e-38
-0.021411644 0.017930957 0.142 1.5072527e-38
-0.020668864 0.01737863 0.142 1.6079858e-38
-0.022230608 0.018749921 0.142 1.5068224e-38
-0.021468781 0.018521374 0.142 1.5437721e-38
-0.023297163 0.019587928 0.142 1.4421428e-38
-0.022497246 0.01935938 0.14199999 1.4790205e-38
-0.021468781 0.01935938 0.142 1.5710719e-38
-0.023342872 0.02054783 0.142 1.5902685e-38
-0.022497246 0.02027357 0.14199999 1.5899085e-38
-0.021544963 0.02019739 0.142 1.5989481e-38
-0.023639986 0.021302037 0.142 1.6830039e-38
-0.022382973 0.022406684 0.142 1.5814445e-38
-0.021697329 0.022216227 0.142 1.5999193e-38
-0.020783138 0.022787597 0.142 1.4887091e-38
0.011213561 0.022444777 0.142 1.2538841e-38
-0.022154424 0.023244692 0.142 1.5726569e-38
-0.021468781 0.023530379 0.142 1.535203e-38
-0.020554589 0.023538541 0.142 1.5160438e-38
-0.022840068 0.024387432 0.142 1.6000272e-38
-0.021285942 0.024478853 0.142 1.4606545e-38
-0.020417461 0.024524562 0.14199999 1.3778222e-38
-0.019434704 0.02457027 0.14199999 1.3872935e-38
-0.018440522 0.024730254 0.142 1.3596346e-38
-0.017431103 0.024615981 0.142 1.3321919e-38
-0.016555004 0.02464455 0.142 1.2220612e-38
-0.022154424 0.025530171 0.142 1.4329239e-38
-0.021544963 0.025606355 0.142 1.3869699e-38
-0.020440316 0.025644446 0.14199999 1.3413759e-38
-0.019444501 0.025464872 0.142 1.3874735e-38
-0.018497659 0.025399571 0.142 1.3688182e-38
-0.017354919 0.025598735 0.14199999 1.3324073e-38
-0.016516911 0.025644442 0.14199999 1.2496115e-38
-0.021240233 0.026444362 0.142 1.4061646e-38
-0.020440316 0.026627202 0.14199999 1.4059488e-38
-0.017383488 0.026644342 0.142 1.2773058e-38
-0.021240233 0.027130006 0.142 1.4062366e-38
-0.020783138 0.027130006 0.142 1.4149526e-38
-0.021240233 0.028501293 0.142 1.2311721e-38
-0.020706953 0.028577475 0.142 1.212805e-38
0.03637968 -0.0012184437 0.14300001 1.2167543e-38
0.040982828 0.0031545451 0.14300001 1.3090579e-38
0.04360662 0.0055942121 0.14300001 1.2629253e-38
-0.017477136 0.011670366 0.14300001 1.4184745e-38
-0.016786665 0.011670366 0.14300001 1.3170235e-38
-0.019088238 0.012821152 0.14300001 1.6852664e-38
-0.017523168 0.01261401 0.14300001 1.5094469e-38
-0.016694602 0.012637027 0.14300001 1.444658e-38
-0.022080284 0.013971939 0.14300001 1.8140885e-38
-0.021543249 0.013971939 0.14300001 1.7955775e-38
-0.02042315 0.013925907 0.14300001 1.7763467e-38
-0.019443937 0.013616242 0.14300001 1.7116655e-38
-0.018650938 0.013672736 0.14300001 1.6464451e-38
-0.017592216 0.013204749 0.14300001 1.5265552e-38
-0.016556509 0.013569165 0.14300001 1.4246012e-38
-0.015597519 0.01389522 0.14300001 1.2770891e-38
-0.023000913 0.014777489 0.14300001 1.8217612e-38
-0.02238716 0.014585691 0.14300001 1.8038977e-38
-0.021543249 0.014585691 0.14300001 1.7852429e-38
-0.020526722 0.014585692 0.14300001 1.7563973e-38
-0.019663632 0.014585692 0.14300001 1.6820653e-38
-0.018397767 0.014202096 0.14300001 1.6174199e-38
-0.016556509 0.014585692 0.14300001 1.4057671e-38
-0.0155208 0.014585692 0.14300001 1.286201e-38
-0.014531123 0.014386222 0.14300001 1.2036927e-38
-0.023000913 0.015429601 0.14300001 1.793312e-38
-0.02238716 0.015429601 0.14300001 1.7564339e-38
-0.021543249 0.015429601 0.14300001 1.7558578e-38
-0.02087196 0.015352882 0.14300001 1.7370231e-38
-0.016498968 0.015180264 0.14300001 1.3597774e-38
-0.015635878 0.015429599 0.14300001 1.2677983e-38
-0.023362588 0.016569428 0.14300001 1.7281648e-38
-0.02238716 0.016503671 0.14300001 1.6634112e-38
-0.021578122 0.016461821 0.14300001 1.6723064e-38
-0.020929495 0.016350232 0.14300001 1.6720904e-38
-0.0155208 0.016043354 0.14300001 1.2402475e-38
-0.02323107 0.017501017 0.14300001 1.5802202e-38
-0.02238716 0.017501017 0.14300001 1.5899054e-38
-0.021758063 0.017424297 0.14300001 1.5809725e-38
0.01374754 0.017731175 0.14300001 1.2445676e-38
-0.023231069 0.018344929 0.14300001 1.497244e-38
-0.022586631 0.018298896 0.14300001 1.4977463e-38
0.011906282 0.018498367 0.14300001 1.2073941e-38
-0.023422867 0.019303916 0.14300001 1.451362e-38
-0.023921542 0.020416342 0.14300001 1.5443141e-38
0.0096814279 0.022602838 0.14300001 1.2077853e-38
-0.022157004 0.023715265 0.14300001 1.572549e-38
-0.023077631 0.024635894 0.14300001 1.6463411e-38
-0.022387158 0.024559174 0.14300001 1.6648524e-38
-0.021850126 0.024559174 0.14300001 1.5993798e-38
-0.023000913 0.025249645 0.14300001 1.6465207e-38
-0.022387162 0.025249647 0.14300001 1.5716853e-38
-0.021773407 0.025326364 0.14300001 1.4329239e-38
-0.019318396 0.025940118 0.14300001 1.3872935e-38
-0.018627923 0.025940118 0.14300001 1.3782891e-38
-0.017937452 0.025940118 0.14300001 1.3602092e-38
-0.020008868 0.026553869 0.14300001 1.3873296e-38
-0.019471833 0.026553869 0.14300001 1.3780739e-38
-0.018627923 0.026553869 0.14300001 1.4062354e-38
-0.017937452 0.026170276 0.14300001 1.3604966e-38
-0.020492198 0.027551215 0.14300001 1.3412318e-38
-0.019471833 0.0274745 0.14300001 1.3135731e-38
-0.018627921 0.027474497 0.14300001 1.3322276e-38
-0.017630575 0.027602365 0.14300001 1.2309926e-38
-0.020385489 0.028367229 0.14300001 1.2493599e-38
-0.019680072 0.028504727 0.14300001 1.2218454e-38
-0.018627923 0.028011533 0.14300001 1.2769107e-38
-0.019701991 0.029239038 0.14300001 1.2036221e-38
-0.020392463 0.030082949 0.14300001 1.2132012e-38
-0.026499202 -0.0043326393 0.14400001 1.2906657e-38
-0.026609289 -0.003573603 0.14400001 1.2906657e-38
-0.027101792 -0.0025016817 0.14400001 1.2998852e-38
-0.027101792 -0.0015746144 0.14400001 1.3182525e-38
0.037097618 -0.00099519745 0.14400001 1.2259739e-38
0.040342353 0.002944838 0.14400001 1.2445934e-38
0.043818854 0.0059578065 0.14400001 1.2998383e-38
-0.019495629 0.011541281 0.14400002 1.5385443e-38
-0.018603677 0.011578151 0.14400002 1.4739716e-38
-0.016672287 0.011983743 0.14400001 1.3445022e-38
-0.022613946 0.012700113 0.14400002 1.6944132e-38
-0.018642304 0.012650074 0.14400001 1.5931787e-38
-0.01644052 0.012679044 0.14400001 1.4078518e-38
-0.02451925 0.01363922 0.14400001 1.8306213e-38
-0.023625292 0.013528855 0.14400001 1.8135486e-38
-0.022582343 0.013528854 0.14400002 1.7773177e-38
-0.020438498 0.013548169 0.14400001 1.7680263e-38
-0.018526422 0.013142577 0.14400001 1.5831312e-38
-0.016208753 0.013374344 0.14400001 1.360352e-38
-0.015552081 0.013606112 0.14400001 1.2773404e-38
-0.02455236 0.014533176 0.14400002 1.7556423e-38
-0.023671646 0.014463648 0.14400002 1.8125416e-38
-0.02281411 0.014069645 0.14400001 1.8046891e-38
-0.024436476 0.015614758 0.14400001 1.6815625e-38
-0.023741176 0.015614756 0.14400001 1.7466031e-38
-0.024320593 0.016155547 0.14400001 1.6631597e-38
-0.023857059 0.016155547 0.14400001 1.6820307e-38
-0.024436478 0.017430265 0.14400001 1.6077707e-38
-0.02439785 0.018280074 0.14400001 1.5433055e-38
0.011255614 0.018704981 0.14400001 1.2259105e-38
-0.024320593 0.01940028 0.14400001 1.4880243e-38
-0.019360783 0.028439188 0.14400001 1.2125899e-38
-0.018460203 0.028604733 0.14400001 1.2309569e-38
-0.018178772 0.029134486 0.14400001 1.2125538e-38
-0.020264674 0.030525086 0.14400001 1.2038017e-38
-0.019731609 0.030246964 0.14400001 1.2036579e-38
0.036888484 -0.0010021086 0.14500001 1.2537761e-38
0.040855881 0.0020317831 0.14500001 1.235196e-38
0.04470659 0.0057658036 0.14500001 1.3090228e-38
0.04412315 0.0062325564 0.14500001 1.2906193e-38
-0.020522088 0.010666706 0.14500001 1.2898294e-38
-0.022447443 0.011775242 0.14500001 1.6028642e-38
-0.021922346 0.011833587 0.14500001 1.6580367e-38
-0.016788067 0.011522419 0.14500001 1.2342274e-38
-0.022389099 0.012253664 0.14500001 1.6486744e-38
-0.016399108 0.01249482 0.145 1.3530382e-38
-0.02542299 0.013622805 0.14500001 1.8392659e-38
-0.016087938 0.013000468 0.14500001 1.3612146e-38
-0.015387809 0.013467222 0.14500001 1.2592609e-38
-0.014532097 0.013311637 0.14500001 1.2228142e-38
-0.02542299 0.01447852 0.14500001 1.7460273e-38
-0.025306303 0.015392575 0.14500001 1.6723066e-38
-0.025189614 0.01673449 0.14500001 1.6722723e-38
-0.024956236 0.016578905 0.14500001 1.6539047e-38
-0.02612312 0.017667994 0.14500001 1.672128e-38
-0.025389651 0.017501296 0.145 1.6447208e-38
-0.024956238 0.017201243 0.14500001 1.6722359e-38
-0.025356311 0.018334782 0.145 1.5348037e-38
-0.024956238 0.018601499 0.14500001 1.5343012e-38
-0.025376314 0.019464992 0.145 1.5618521e-38
-0.024956238 0.019418318 0.14500001 1.5249025e-38
-0.02612312 0.020468511 0.14500001 1.6263558e-38
-0.025393818 0.020439338 0.145 1.6358627e-38
-0.024956236 0.020468511 0.14500001 1.6177468e-38
-0.018655078 0.031437192 0.145 1.2958896e-38
0.036687505 -0.0010159308 0.147 1.2445212e-38
0.037388384 -0.00042259652 0.14650001 1.299766e-38
0.040315196 0.001458331 0.14600001 1.216792e-38
0.040946219 0.0020598078 0.147 1.3181695e-38
0.041372631 0.0027507527 0.14600001 1.2722152e-38
0.044691809 0.006539898 0.14600001 1.2629973e-38
-0.022384115 0.010894543 0.14650001 1.5386138e-38
-0.022398079 0.011431656 0.14633335 1.566129e-38
-0.01619889 0.012385169 0.14600001 1.2980806e-38
-0.015590912 0.012562526 0.14669999 1.2702062e-38
-0.015585621 0.013213553 0.14650001 1.3058976e-38
-0.026068293 0.015674971 0.14600001 1.6170972e-38
-0.025833307 0.015909957 0.14600001 1.6263167e-38
-0.025739312 0.016332932 0.14600001 1.6631598e-38
-0.026068293 0.017202377 0.14600001 1.6719845e-38
-0.025833307 0.017202377 0.14600001 1.681204e-38
-0.020193648 0.032358959 0.14600001 1.2313882e-38
-0.019418195 0.032452956 0.14600001 1.2958174e-38
-0.018392092 0.032633111 0.14600001 1.2219533e-38
-0.01938558 0.033290382 0.147 1.2311368e-38
-0.017413987 0.034474589 0.14666668 1.2034423e-38
-0.016897202 -0.0062633464 0.148 1.2537155e-38
-0.018088225 -0.0054693311 0.148 1.2444962e-38
-0.017453011 -0.0054693297 0.148 1.272191e-38
-0.016897202 -0.0050723227 0.148 1.3090692e-38
-0.016698698 -0.0043974095 0.148 1.3182526e-38
0.037592143 -0.00012957399 0.148 1.2168279e-38
0.040271949 0.0015974105 0.148 1.2722149e-38
0.041224767 0.0025502297 0.148 1.2722153e-38
0.035746057 0.0056468914 0.148 1.2351625e-38
0.036222465 0.0056468914 0.148 1.25342e-38
0.038128104 0.0070761195 0.148 1.2072855e-38
-0.022375911 0.010649191 0.148 1.4742192e-38
-0.021899503 0.010887396 0.148 1.4189383e-38
-0.021661296 0.011125601 0.148 1.4557452e-38
-0.018088225 0.035184283 0.148 1.2402845e-38
-0.017850021 0.035541587 0.148 1.2034421e-38
0.031431112 -0.0029482669 0.149 1.2163973e-38
0.032510277 0.00072888494 0.149 1.3456174e-38
0.039824612 0.00088876107 0.149 1.2905464e-38
0.040064428 0.00088876107 0.149 1.2905464e-38
0.032550246 0.0015282658 0.149 1.2351649e-38
0.033169769 0.0016082039 0.149 1.391606e-38
0.040184334 0.0016082039 0.149 1.2353372e-38
0.033379607 0.0024475534 0.149 1.3179951e-38
0.034308884 0.002567461 0.149 1.3362163e-38
0.034308884 0.0033668419 0.149 1.3363606e-38
0.035302401 0.0035267181 0.149 1.2256184e-38
0.035448 0.0044260216 0.149 1.2810071e-38
0.036501471 0.0053767143 0.149 1.2625312e-38
-0.022167377 0.010721145 0.149 1.3912796e-38
0.012725599 0.012639659 0.149 1.2998499e-38
0.015523434 0.033263687 0.149 1.2529136e-38
0.031159213 -0.0035716132 0.15000001 1.2716423e-38
0.035021994 -0.0035716132 0.15000001 1.2167546e-38
0.0313101 -0.0025153845 0.14999999 1.345506e-38
0.036229111 -0.0022437829 0.15000001 1.2444136e-38
0.031521346 -0.0015195116 0.14999999 1.2994821e-38
0.032366332 -0.0012780878 0.15000001 1.326995e-38
0.032469798 -0.00038137104 0.14999999 1.4007885e-38
0.032366332 0.00041187843 0.15000001 1.3179963e-38
0.033694163 0.0017397089 0.15000001 1.4467063e-38
0.033814874 0.0021018446 0.15000001 1.4191922e-38
0.034418434 0.0021018446 0.15000001 1.2901549e-38
-0.022436865 0.0098274043 0.15000001 1.2161808e-38
0.011442938 0.03260171 0.15000001 1.3269248e-38
0.014742397 0.032762662 0.15000001 1.3358533e-38
0.014983821 0.033245508 0.15000001 1.3081947e-38
0.024562011 -0.011007938 0.15100001 1.235231e-38
0.030151773 -0.0042030071 0.15100001 1.2075e-38
0.030425185 -0.0036865615 0.15100001 1.2443075e-38
0.032339074 -0.0015296416 0.15100001 1.3362149e-38
0.03428334 0.0018728237 0.15100001 1.3913893e-38
0.034526374 0.0021158569 0.15100001 1.3638738e-38
-0.022586444 0.01062202 0.15100001 1.3268508e-38
0.010790125 0.032900065 0.15100001 1.2627168e-38
0.011438213 0.032738045 0.15100001 1.2902278e-38
0.010952147 0.033467144 0.15100001 1.2998131e-38
0.01119518 0.033467144 0.15100001 1.2444957e-38
0.015205229 0.033831693 0.15100001 1.3266705e-38
0.015326746 0.034682307 0.15100001 1.2623135e-38
-0.019427013 0.035775959 0.15100001 1.2402845e-38
-0.019183978 0.036140509 0.15100001 1.2586516e-38
-0.018859934 0.036464553 0.15100001 1.249432e-38
0.014597646 0.036262028 0.15100001 1.2538244e-38
0.015326745 0.036464553 0.15100001 1.2076177e-38
0.015326747 0.037355676 0.15100001 1.2630804e-38
0.016387256 0.038327809 0.15100001 1.2170908e-38
0.014354612 0.044484649 0.15100001 1.2078714e-38
0.02472467 -0.010836195 0.15200001 1.225976e-38
0.025947886 -0.01034691 0.15200001 1.2075726e-38
0.025784791 -0.0094091138 0.15200001 1.2167936e-38
0.032553241 -0.001295129 0.15200001 1.3730928e-38
0.033205617 -0.00072429591 0.15200001 1.3361797e-38
-0.0023083533 0.0035977254 0.15200001 1.207727e-38
0.011513963 0.031976283 0.15200001 1.4190469e-38
0.012492534 0.031976283 0.15200001 1.4926584e-38
0.011562892 0.032563426 0.15200001 1.3637659e-38
0.012614856 0.032710209 0.152 1.4834391e-38
0.013568962 0.032759137 0.15200001 1.5201738e-38
0.011562891 0.033835568 0.15200001 1.2627535e-38
0.012614854 0.033607233 0.152 1.2993023e-38
0.013715747 0.03360723 0.15200001 1.299156e-38
0.014400746 0.033688784 0.15200001 1.2714965e-38
0.012614854 0.034585804 0.152 1.235166e-38
0.013715747 0.034585804 0.15200001 1.2809344e-38
0.014571996 0.03454503 0.15200001 1.3083757e-38
0.013715748 0.035482828 0.15200001 1.2627525e-38
0.014400746 0.035401281 0.15200001 1.2256551e-38
0.014205032 0.036379851 0.15200001 1.2630084e-38
0.022917315 -0.01139999 0.15300001 1.2812579e-38
0.023656072 -0.011470348 0.15300001 1.2536347e-38
0.024148576 -0.011153738 0.15300001 1.2905133e-38
-0.0019541613 0.0038676469 0.15300001 1.2261661e-38
-0.023501234 0.010147078 0.15300001 1.2806457e-38
0.013805982 0.013594611 0.15300001 1.2906306e-38
0.014495487 0.013619235 0.15300001 1.2628975e-38
0.013805982 0.014456493 0.15300001 1.2998864e-38
0.014544738 0.014579619 0.15300001 1.262935e-38
0.010506203 0.030856889 0.15300001 1.2810058e-38
0.011097209 0.030955389 0.15300001 1.299407e-38
0.0098659471 0.031694148 0.15300001 1.2904843e-38
0.010440536 0.031694148 0.15300001 1.2995552e-38
0.011374243 0.031724926 0.15300001 1.4007157e-38
0.012164301 0.031858314 0.15300001 1.4374134e-38
0.010358452 0.032383654 0.15300001 1.3456928e-38
0.0075265504 0.041380066 0.15300001 1.2262027e-38
0.022240898 -0.013416083 0.15400003 1.2075708e-38
0.022323517 -0.012548568 0.15400003 1.2444143e-38
0.023149723 -0.012300706 0.15400001 1.3089155e-38
0.023191033 -0.011970224 0.15400001 1.327319e-38
0.01124227 0.014894938 0.155 1.2811155e-38
0.01124227 0.015643351 0.155 1.3087035e-38
0.011408583 0.016682817 0.15499999 1.2995583e-38
0.011491741 0.017472807 0.15499999 1.3180349e-38
0.011578602 0.018203486 0.15450001 1.2904852e-38
0.0046728607 0.027576387 0.15499999 1.2537514e-38
0.0055044312 0.027493229 0.15499999 1.2537874e-38
0.0055044312 0.029613737 0.15499999 1.2721551e-38
0.0094347065 0.02985644 0.15400001 1.3271786e-38
0.0065023159 0.030528465 0.15499999 1.2537517e-38
0.010240257 0.030600026 0.15400001 1.3732377e-38
0.0081953984 0.037726052 0.15400001 1.2537532e-38
0.010059397 0.011224823 0.156 1.3549799e-38
0.0060421051 0.026038585 0.156 1.2629351e-38
0.0034476044 0.027545068 0.156 1.345804e-38
0.0042343242 0.027494851 0.156 1.2352042e-38
-0.00073707459 0.032315601 0.156 1.2169473e-38
-0.0016577038 0.034575328 0.156 1.2078356e-38
0.00443835 -0.010939959 0.15700001 1.235313e-38
0.0058281464 -0.004117324 0.15700001 1.2353477e-38
0.0048173857 -0.0031065631 0.15700001 1.2447492e-38
0.0056386287 -0.0034224261 0.15700001 1.2170895e-38
0.0047542132 -0.0026011828 0.15700001 1.2447492e-38
0.0055438699 -0.0024748377 0.15700001 1.2263099e-38
0.0057018013 -0.001590422 0.15700001 1.2447489e-38
0.0063335267 -0.0017167672 0.15700001 1.2168345e-38
0.0063335267 -0.00032697115 0.15700001 1.2354549e-38
0.0065140198 0.00071988819 0.15699999 1.2169439e-38
0.0065862169 0.0026210812 0.15700001 1.2631153e-38
0.0075127473 0.0035476116 0.15700001 1.2445995e-38
0.0075127473 0.0045583718 0.15700001 1.290663e-38
0.0081023583 0.0064956639 0.15700001 1.2906996e-38
0.009113119 0.0090225656 0.15700001 1.3457622e-38
-0.0025106308 0.017529802 0.15700001 1.2535729e-38
0.00026896148 0.027721636 0.15700001 1.2261304e-38
1.6271251e-05 0.029995849 0.15700001 1.2353504e-38
-0.00074179942 0.032017373 0.15700001 1.2169113e-38
0.0044242362 -0.010501041 0.15800001 1.2998861e-38
0.0054414351 -0.010501041 0.15800001 1.244567e-38
0.0054414356 -0.0096533746 0.15800001 1.2538229e-38
0.005102369 -0.0087209428 0.15800001 1.2815193e-38
0.0038308704 -0.0073222946 0.15800001 1.2815193e-38
0.0044242362 -0.0075765946 0.15800001 1.2630801e-38
0.0052295192 -0.0075765946 0.15800001 1.2354212e-38
0.0026229471 -0.0062415213 0.15800001 1.2722997e-38
0.0034918045 -0.0064322464 0.15800001 1.2630801e-38
0.0044242358 -0.006432246 0.15800001 1.2630801e-38
0.0053884564 -0.0064004585 0.15800001 1.2353847e-38
0.00065212417 -0.0052878973 0.15800001 1.2630804e-38
0.0015421732 -0.0052878973 0.15800001 1.2538608e-38
0.0025593718 -0.005415048 0.15800001 1.2722998e-38
0.0034918045 -0.0054150475 0.15800001 1.2630803e-38
0.0044242362 -0.0054150475 0.15800001 1.2630803e-38
0.0054414356 -0.005415048 0.15800001 1.2169815e-38
-0.0010008239 -0.0041435491 0.15800001 1.2722997e-38
-0.00061937439 -0.0042706989 0.15800001 1.2722997e-38
0.0015421732 -0.0044826153 0.15800001 1.2538608e-38
0.0025593718 -0.0044826153 0.15800001 1.2631163e-38
0.0044242362 -0.0044826153 0.15800001 1.2631163e-38
0.0053884564 -0.0045249988 0.15800001 1.2262375e-38
-0.0010008239 -0.003550183 0.15800001 1.244641e-38
-0.00061937439 -0.0035501833 0.15800001 1.2538606e-38
0.00039782448 -0.0035501828 0.15800001 1.2630804e-38
0.0015421731 -0.003550183 0.15800001 1.2446413e-38
0.0025593718 -0.003550183 0.15800001 1.2446773e-38
0.0053566685 -0.0036349497 0.15800001 1.2263098e-38
-0.0041795708 -0.0021091516 0.15800001 1.2538246e-38
-0.0032895214 -0.0021091516 0.15800001 1.244641e-38
-0.0022723223 -0.0022363015 0.15800001 1.2169825e-38
-0.0013398902 -0.0026177505 0.15800001 1.2169826e-38
-0.00059394439 -0.0026177508 0.15800001 1.2630803e-38
0.00039782445 -0.0025329839 0.15800001 1.2630804e-38
0.0015421733 -0.0025329841 0.15800001 1.2630804e-38
0.0025593718 -0.0025329841 0.15800001 1.2630804e-38
0.0041868901 -0.002465171 0.15800001 1.2539327e-38
0.0058652679 -0.0028720505 0.15800001 1.2170531e-38
-0.0041795708 -0.0018548518 0.15800001 1.2261659e-38
-0.0032047548 -0.0016853189 0.15800001 1.2354214e-38
-0.0023570892 -0.0016005524 0.15800001 1.2169826e-38
-0.0014367662 -0.0016368807 0.15800001 1.2538608e-38
0.0044242362 -0.0016005522 0.15800001 1.2538969e-38
0.005102369 -0.0016005522 0.15800001 1.2447492e-38
0.0062467176 -0.0013462525 0.15800001 1.2169804e-38
-0.0021027892 -0.00075288658 0.15800001 1.2170185e-38
-0.0015941899 -0.00075288658 0.15800001 1.2354577e-38
0.0062467176 -0.00083765318 0.15800001 1.2170166e-38
0.0025593718 0.00068814488 0.15800001 1.253825e-38
0.00030700309 0.0055561671 0.15800001 1.2446413e-38
0.00039782445 0.0065370384 0.15800001 1.2630444e-38
-0.00061937439 0.0075542363 0.15800001 1.2538247e-38
-0.0012127403 0.016666641 0.15800001 1.3088541e-38
-0.00061937439 0.01755669 0.15800001 1.2628646e-38
0.0013514484 0.020332795 0.15800001 1.2442811e-38
0.00039782445 0.024338014 0.15800001 1.2721921e-38
0.0012878735 0.025482364 0.15800001 1.308998e-38
0.00052497425 0.027347228 0.15800001 1.2629725e-38
0.00019801753 0.029460337 0.15800001 1.23535e-38
0.00078420615 -0.0080084112 0.15900001 1.2907028e-38
0.00078420615 -0.0074965931 0.15900001 1.2907028e-38
0.0013813275 -0.0064729564 0.15900002 1.2722997e-38
0.0022684794 -0.0066265017 0.15900001 1.2815193e-38
0.00044299386 -0.0057052285 0.15900001 1.2722997e-38
0.0013813275 -0.0057052285 0.15900001 1.2630801e-38
-0.0012630675 -0.0021225007 0.15900001 1.2262022e-38
-0.0037368566 -0.0014400762 0.15900001 1.2077628e-38
-0.0012950561 -0.00049107958 0.15900002 1.2170545e-38
-0.00036738525 -0.00058704562 0.15900002 1.2538608e-38
0.0011680699 0.00056454574 0.15900002 1.2446773e-38
-0.0013910221 0.001716137 0.15900002 1.2170908e-38
-0.0022867045 0.0027397736 0.15900001 1.2169826e-38
-0.0014259189 0.0026234512 0.15900002 1.2446413e-38
-0.001391022 0.0085403817 0.15900002 1.2906306e-38
-0.0022867045 0.0091375029 0.15900001 1.2998499e-38
-0.0030544321 0.012976141 0.15900001 1.2444971e-38
-0.0040780688 0.013999778 0.15900001 1.2536802e-38
-0.0034382958 0.013775857 0.15900002 1.207583e-38
-0.0025426133 0.013743868 0.15900002 1.2629364e-38
-0.004248675 0.014682203 0.15900001 1.2351696e-38
-0.0025426138 0.01463955 0.15900002 1.2444971e-38
-0.0025426135 0.015364625 0.15900002 1.2259861e-38
-0.0025426135 0.01630296 0.15900002 1.2442453e-38
-0.005648829 0.00069685566 0.16000001 1.3089616e-38
-0.0066789044 0.0017269304 0.16000001 1.3733179e-38
-0.0010134926 0.0031432828 0.16000001 1.2630804e-38
-0.00065296644 0.0032720421 0.16000001 1.2630804e-38
-0.0030736423 0.0091949711 0.16000001 1.2260934e-38
-0.0044899951 0.012542714 0.16 1.3641711e-38
-0.0033633506 0.012510524 0.16000001 1.2720479e-38
-0.0045251106 0.013455735 0.16 1.3458038e-38
-0.0035886795 0.013057752 0.16000001 1.2260215e-38
-0.0047732657 0.014448354 0.16000001 1.2720477e-38
-0.0065016523 -0.0050306618 0.162 1.2353854e-38
-0.0071100406 -0.0043353611 0.162 1.2722274e-38
-0.0066754776 -0.004422274 0.162 1.2538603e-38
0.033391211 -0.0042484486 0.162 1.2350501e-38
0.03370335 -0.0034448395 0.16100001 1.2624581e-38
-0.0075446032 -0.0013803347 0.162 1.2445323e-38
-0.0073707779 -0.0007284907 0.162 1.3273646e-38
-0.0067206468 0.0022559799 0.16100001 1.2995615e-38
-0.00050157058 0.0038107489 0.16100001 1.2630804e-38
-0.0075498573 0.01044443 0.16100001 1.2165852e-38
-0.0046006804 0.010360883 0.161625 1.3274003e-38
-0.0064615184 0.012621108 0.16100001 1.2626837e-38
0.0050014891 -0.0071604922 0.163 1.2722997e-38
-0.0083782161 -0.0055864095 0.163 1.2169463e-38
-0.0075911749 -0.0053240624 0.163 1.226094e-38
-0.0066467249 -0.0052715931 0.163 1.2353854e-38
-0.0085531138 -0.0041872249 0.163 1.2445325e-38
-0.0077879354 -0.0043402603 0.163 1.2444968e-38
-0.0091652572 -0.0034876324 0.163 1.2537521e-38
-0.0086405631 -0.0033564586 0.163 1.2260934e-38
-0.0053612241 0.010285592 0.163 1.2628633e-38
-0.0085615944 -0.0052247467 0.164 1.2352775e-38
-0.0086935731 -0.0045648552 0.164 1.2444971e-38
-0.0082976371 -0.0029811156 0.164 1.235313e-38
-0.007336081 -0.0026794507 0.16400002 1.2629717e-38
-0.0063179634 0.010322299 0.164 1.3181806e-38
-0.0057900497 0.010216716 0.164 1.2905938e-38
-0.007949885 -0.0027337272 0.16500001 1.2814108e-38
-0.05141421 0.0027546391 0.16500001 1.3182525e-38
-0.0084433584 -0.0023940613 0.16600001 1.2445325e-38
-0.052816782 0.002593217 0.16600001 1.2537513e-38
-0.050746169 0.0031275682 0.16600001 1.244496e-38
0.033615451 -0.0035732184 0.16700001 1.2165786e-38
-0.054331914 0.0020836713 0.16800001 1.2260926e-38
-0.053471819 0.013430162 0.17400001 1.2169097e-38
