# .PCD v0.7 - Point Cloud Data file format
VERSION 0.7
FIELDS x y z rgb
SIZE 4 4 4 4
TYPE F F F F
COUNT 1 1 1 1
WIDTH 995
HEIGHT 1
VIEWPOINT 0 0 0 1 0 0 0
POINTS 995
DATA ascii
-0.030341147 -0.02742709 0.095000021 1.5303387e-38
-0.02972954 -0.027444933 0.095000014 1.5487778e-38
-0.031149814 -0.026415331 0.096000008 1.5487418e-38
-0.03047985 -0.026500532 0.095407419 1.5303387e-38
-0.029628951 -0.026641795 0.095000021 1.5118996e-38
-0.031046804 -0.02541616 0.096000001 1.4012648e-38
-0.030683247 -0.025448883 0.095999993 1.4105204e-38
-0.029653089 -0.025120826 0.095000006 1.419704e-38
-0.031046806 -0.024767213 0.096000001 1.3368361e-38
-0.030815039 -0.024767213 0.096000001 1.3368359e-38
-0.028403915 -0.030021064 0.097000003 1.6687401e-38
-0.030797765 -0.026482329 0.097000003 1.4934605e-38
0.0065202862 -0.010568427 0.097000003 1.3643147e-38
0.0074738236 -0.010457942 0.097000033 1.3827178e-38
0.0056253518 -0.010582743 0.098000005 1.3826819e-38
0.012081553 -0.0080947708 0.1 1.594624e-38
0.010874434 -0.0079338215 0.1 1.594624e-38
0.011759655 -0.0077192225 0.1 1.5669653e-38
0.012196518 -0.0077268863 0.10000001 1.5577815e-38
0.011430214 -0.0080944393 0.101 1.5854044e-38
0.010414222 -0.0078506013 0.101 1.5854763e-38
0.011308296 -0.0076880427 0.101 1.5670372e-38
0.011895266 -0.0085859485 0.104 1.594624e-38
0.030169794 0.0017895019 0.123 1.2954917e-38
0.031621557 0.0017895019 0.123 1.3968363e-38
0.032420028 0.0016443258 0.12300001 1.3509902e-38
0.029668277 0.0025945692 0.123 1.3137515e-38
0.030318273 0.0025813722 0.12300002 1.3320469e-38
0.031621557 0.0024163991 0.123 1.3786487e-38
0.032429926 0.0025153828 0.12300002 1.3234395e-38
0.026698764 0.0036240004 0.123 1.3320843e-38
0.029608887 0.0035052202 0.12300001 1.3411951e-38
0.030400755 0.0035052199 0.12300002 1.3135723e-38
0.026804347 0.0044510644 0.12300001 1.3508474e-38
0.027512228 0.0045310515 0.12300002 1.4246758e-38
0.028346846 0.0047425162 0.12300001 1.3320843e-38
0.029453341 0.0045374786 0.12300002 1.3319404e-38
0.030400757 0.0044950568 0.12300002 1.3229363e-38
0.031390596 0.0044950573 0.12300002 1.3047491e-38
0.026936326 0.0050889594 0.123 1.3604265e-38
0.027596217 0.0054409015 0.12300001 1.3507035e-38
0.028421083 0.0054848939 0.12300002 1.2951701e-38
0.029410921 0.0054848948 0.12300002 1.3416996e-38
0.029410921 0.0065242234 0.12300002 1.3145809e-38
0.029410921 0.0075140614 0.12300002 1.3697184e-38
0.028421082 0.008503899 0.12300002 1.3050372e-38
0.026770756 -0.0042840564 0.125 1.5934657e-38
0.027374316 -0.0042840564 0.125 1.5566594e-38
0.02687135 -0.0035296071 0.125 1.6385925e-38
0.02747491 -0.0035296073 0.125 1.6020738e-38
0.026837818 -0.0024733786 0.125 1.6000244e-38
0.02747491 -0.0025236751 0.125 1.591524e-38
0.030794486 -0.0022721919 0.125 1.5558686e-38
0.031297453 -0.0022721919 0.125 1.5094473e-38
0.024893016 -0.0011991974 0.125 1.4790913e-38
0.025691666 -0.0013759976 0.125 1.3965111e-38
0.026670163 -0.0015177426 0.125 1.4793794e-38
0.027508441 -0.0014674461 0.125 1.5169769e-38
0.0305933 -0.0014308668 0.125 1.5359191e-38
0.031398047 -0.0015177428 0.125 1.498645e-38
0.032705758 -0.0010650731 0.125 1.3780718e-38
0.033309318 -0.0010650731 0.125 1.3320103e-38
0.024799129 -0.00046151379 0.125 1.4605085e-38
0.025664233 -0.00051181036 0.125 1.4055513e-38
0.026670162 -0.00051181042 0.125 1.4423938e-38
0.027676096 -0.00051181036 0.125 1.4703404e-38
0.028514372 -0.00029385838 0.125 1.5166538e-38
0.029550789 -0.00038835502 0.125 1.5166535e-38
0.030467398 -0.00051033712 0.1244375 1.4793792e-38
0.031498641 -0.00051181042 0.125 1.4423212e-38
0.032487713 -0.00048633796 0.1244 1.3410861e-38
0.033276029 -0.00050857983 0.124125 1.2951324e-38
0.024712466 0.00057537021 0.125 1.5342301e-38
0.025664235 0.00054441852 0.125 1.4698734e-38
0.026670162 0.00054441846 0.125 1.4240989e-38
0.027676096 0.00054441858 0.125 1.4333904e-38
0.028581435 0.00054441846 0.125 1.4057675e-38
0.029472651 0.00051713397 0.124625 1.4057311e-38
0.030448342 0.00049016881 0.12399998 1.3779999e-38
0.031414337 0.00055801211 0.12433333 1.3502337e-38
0.023954146 0.0016844749 0.125 1.6638082e-38
0.024608001 0.0015503506 0.125 1.5529213e-38
0.025662802 0.0015475221 0.12481249 1.4244216e-38
0.026650487 0.0015651702 0.12406666 1.332442e-38
0.027610295 0.0015403781 0.12424999 1.3320831e-38
0.028581433 0.0015503507 0.125 1.3320831e-38
0.029439541 0.0015146451 0.12426665 1.3048551e-38
0.030498235 0.0014215279 0.12399999 1.3138584e-38
0.031392492 0.0014611874 0.12399999 1.35967e-38
0.032384239 0.0011787094 0.124 1.2956006e-38
0.023954146 0.0025562828 0.125 1.5158986e-38
0.024608003 0.002556283 0.125 1.5344096e-38
0.02566647 0.0025697963 0.12433334 1.387436e-38
0.026656378 0.0025358328 0.12399998 1.3228274e-38
0.027602397 0.0025223014 0.12407692 1.295241e-38
0.030747708 0.0021366787 0.12400001 1.3413384e-38
0.031306524 0.0025957059 0.124 1.3505581e-38
0.023913909 0.0036426899 0.125 1.6365089e-38
0.024608003 0.003562215 0.125 1.6273974e-38
0.025659945 0.0035441022 0.12437499 1.3964773e-38
0.026578765 0.0034671917 0.12400001 1.3227565e-38
0.029250881 0.0035337175 0.12400001 1.304461e-38
0.031346437 0.0031345636 0.12400001 1.3137878e-38
0.02367558 0.0046455269 0.125 1.516475e-38
0.024607984 0.0045610941 0.1248125 1.5167631e-38
0.025658496 0.0045316028 0.12399998 1.3688549e-38
0.026442546 0.004588624 0.12400001 1.3506674e-38
0.027953628 0.0041324482 0.12400001 1.3877255e-38
0.028592277 0.0042122789 0.124 1.3321562e-38
0.029151091 0.0042322366 0.12400001 1.3228647e-38
0.022948213 0.0056243762 0.125 1.5444574e-38
0.023602068 0.0056243762 0.125 1.4704493e-38
0.024607977 0.0056006541 0.12475 1.479849e-38
0.025658496 0.0055294875 0.12399998 1.3783623e-38
0.026636422 0.0055560977 0.12399998 1.314113e-38
0.027354898 0.0056625381 0.12400001 1.360103e-38
0.02288115 0.006546481 0.125 1.5814438e-38
0.023602068 0.0066303085 0.125 1.6000272e-38
0.024608001 0.0066303089 0.125 1.5537134e-38
0.025658494 0.0065772664 0.12399998 1.396729e-38
0.026656378 0.0065772664 0.12399998 1.3229727e-38
0.027354898 0.0068267374 0.12400001 1.313717e-38
0.022948213 0.0071835713 0.125 1.6550928e-38
0.023666736 0.0076003154 0.125 1.5075794e-38
0.024608001 0.0076362411 0.125 1.4706647e-38
0.025659628 0.0075910268 0.12424999 1.350954e-38
0.021841686 0.0089942496 0.125 1.4886362e-38
0.02382002 0.0086812936 0.125 1.3691059e-38
0.024608003 0.0086421734 0.125 1.3875803e-38
0.021866532 0.0094545009 0.12400001 1.4976761e-38
0.022747027 0.0095307473 0.125 1.4242073e-38
0.023501476 0.0094720675 0.125 1.3967287e-38
0.024691829 0.0093295602 0.125 1.3690337e-38
0.021710839 0.010839887 0.12425001 1.387437e-38
0.022143468 0.010804928 0.125 1.3689618e-38
0.021904405 0.011513743 0.12450001 1.3322636e-38
0.022603324 0.01149471 0.125 1.3597424e-38
0.022143468 0.012012046 0.125 1.3414476e-38
0.019518344 -0.0093697924 0.12600002 1.3457671e-38
0.026883524 -0.0044704257 0.126 1.565879e-38
0.02755275 -0.0043994477 0.126 1.5475116e-38
0.025903344 -0.0032367508 0.126 1.6466975e-38
0.026492419 -0.003507145 0.126 1.6566359e-38
0.027998902 -0.0035578441 0.126 1.5837067e-38
0.031446435 -0.0031015533 0.126 1.5014147e-38
0.024956962 -0.0020875735 0.126 1.571287e-38
0.025687028 -0.002520205 0.12600002 1.5994132e-38
0.026463447 -0.0026090487 0.126 1.6089562e-38
0.027998902 -0.0025438645 0.126 1.6010313e-38
0.028472094 -0.0024593661 0.126 1.5739121e-38
0.030736648 -0.0023917675 0.126 1.5561564e-38
0.031547833 -0.0026706117 0.126 1.5100947e-38
0.022929003 -0.0017833796 0.126 1.6179597e-38
0.023131799 -0.0016819816 0.126 1.5811174e-38
0.024794726 -0.0015603041 0.126 1.534229e-38
0.025605911 -0.0018442184 0.126 1.5252971e-38
0.027998902 -0.0016819816 0.126 1.5727258e-38
0.028566729 -0.0014791855 0.12600002 1.5639016e-38
0.029469173 -0.0010735937 0.126 1.5913088e-38
0.030331057 -0.0015805836 0.126 1.5827003e-38
0.032497287 -0.0015160576 0.12600002 1.4615151e-38
0.033499744 -0.0016566322 0.126 1.3416252e-38
0.034123342 -0.0014386264 0.126 1.2953837e-38
0.024416173 -0.00053280458 0.126 1.5064623e-38
0.02865799 -0.00082009879 0.126 1.5354163e-38
0.029296795 -0.00078967941 0.126 1.5725462e-38
0.032257617 -0.00087079784 0.126 1.4147703e-38
0.023841586 0.00095436565 0.126 1.6911423e-38
0.024145776 0.00041357649 0.126 1.5708198e-38
0.022929003 0.0018669474 0.126 1.6918985e-38
0.023537392 0.0015627533 0.12600002 1.6825349e-38
0.022847887 0.0023739373 0.126 1.5809399e-38
0.023469793 0.0025767332 0.12600002 1.525514e-38
0.023514859 0.0035456473 0.126 1.5256219e-38
0.022878306 0.0046046926 0.126 1.6458728e-38
0.023266995 0.004334298 0.126 1.7195933e-38
0.022675507 0.0054158764 0.126 1.6091022e-38
0.02259101 0.0064298562 0.126 1.5354536e-38
0.021915024 0.0078494279 0.126 1.5904114e-38
0.022685647 0.0075046755 0.12600002 1.5533898e-38
0.023131799 0.0078494279 0.126 1.5254073e-38
0.022692407 0.0085085146 0.12600002 1.4977842e-38
0.023305627 0.0085157575 0.126 1.4702694e-38
0.022726208 0.0090662036 0.126 1.5070395e-38
0.023659069 0.0096340319 0.126 1.4612655e-38
0.02459193 0.0098368283 0.126 1.4244233e-38
0.021813625 0.010418177 0.126 1.4609415e-38
0.022604531 0.010512814 0.12600002 1.3873652e-38
0.023588089 0.010536475 0.12600002 1.4335349e-38
0.02460207 0.010536475 0.12600002 1.3320117e-38
0.023693386 0.011515356 0.12600002 1.3227562e-38
0.022726208 0.012108142 0.126 1.3597784e-38
0.023469791 0.012108142 0.126 1.3043173e-38
0.027505696 -0.0049658176 0.127 1.4832262e-38
0.028221115 -0.0043526012 0.127 1.5198887e-38
0.02576825 -0.0034668446 0.127 1.6378372e-38
0.026381467 -0.0039437902 0.127 1.6481354e-38
0.028527725 -0.0035860809 0.12699999 1.5377527e-38
0.03169601 -0.0033305741 0.127 1.492231e-38
0.032309227 -0.0033305741 0.127 1.4369137e-38
0.024950629 -0.0026151552 0.127 1.589906e-38
0.025359439 -0.0029217633 0.127 1.6364711e-38
0.028834332 -0.0028195605 0.127 1.5373933e-38
0.030673981 -0.0025640537 0.127 1.5655557e-38
0.032513633 -0.0024311901 0.12699999 1.4540218e-38
0.033535659 -0.0021041415 0.127 1.3791142e-38
0.034148876 -0.0021041415 0.127 1.3143262e-38
0.022753268 -0.0016442293 0.127 1.5535306e-38
0.023560673 -0.0015113656 0.12699999 1.5256561e-38
0.024419174 -0.0015318063 0.127 1.5618875e-38
0.029488429 -0.0015318063 0.127 1.5735527e-38
0.030367374 -0.0017975334 0.127 1.5739481e-38
0.03282024 -0.0018997361 0.127 1.4620183e-38
0.033331253 -0.0018997361 0.127 1.406665e-38
0.024133006 -0.00060516834 0.127 1.5340848e-38
0.02274305 0.00088017789 0.127 1.6261732e-38
0.023610637 0.00064397597 0.12699999 1.6354645e-38
0.021884548 0.0017114267 0.127 1.6726315e-38
0.02249776 0.0015313551 0.12699999 1.7467118e-38
0.02311098 0.0011663454 0.127 1.7652944e-38
0.021884548 0.002460913 0.127 1.6731714e-38
0.022351759 0.0025095812 0.12699999 1.6824268e-38
0.021721022 0.0034148053 0.12699999 1.5628593e-38
0.022548862 0.0033637038 0.12699999 1.5071825e-38
0.02311098 0.0036192108 0.127 1.4332462e-38
0.021782344 0.0044368329 0.12699999 1.4613004e-38
0.022446662 0.0043686978 0.12699999 1.4978192e-38
0.021782344 0.0054588597 0.12699999 1.5532448e-38
0.022170715 0.0053770975 0.127 1.5993429e-38
0.021632971 0.0065123341 0.12699999 1.5535683e-38
0.022088952 0.0064808871 0.127 1.5352731e-38
0.02150299 0.0074756597 0.12699999 1.4889956e-38
0.022088952 0.0073666438 0.127 1.498359e-38
0.021748278 0.0085249413 0.12699999 1.5349142e-38
0.022191156 0.0084738405 0.127 1.5348423e-38
0.02274305 0.012694811 0.127 1.3321562e-38
0.023570891 0.012715253 0.12699999 1.2951339e-38
0.024133006 0.01302186 0.127 1.3043896e-38
0.028031299 -0.0050049187 0.12800001 1.4647871e-38
0.026692202 -0.0046958961 0.12800001 1.5475118e-38
0.028391825 -0.0046958961 0.12800001 1.4831902e-38
0.029267389 -0.0031507842 0.12800001 1.5190978e-38
0.032769643 -0.003356799 0.12800001 1.4184745e-38
0.022777919 -0.0021207095 0.12800001 1.507505e-38
0.023292955 -0.0021207095 0.12800001 1.5810814e-38
0.024666389 -0.0022580528 0.12800001 1.5804706e-38
0.029494008 -0.0024503332 0.12800001 1.5651241e-38
0.03050348 -0.0025842432 0.12800001 1.5655556e-38
0.032769643 -0.0029447693 0.12800001 1.4457376e-38
0.033428889 -0.0025739423 0.12800001 1.3894845e-38
0.034417763 -0.0023953961 0.12800001 1.296498e-38
0.022592504 -0.0014614618 0.12800001 1.5166527e-38
0.023911001 -0.0015026648 0.12800001 1.5164004e-38
0.024391703 -0.0018460229 0.12800001 1.5620313e-38
0.029645083 -0.0018460229 0.12800001 1.5647288e-38
0.030297464 -0.0019146946 0.12800001 1.5925669e-38
0.022839723 -0.00039018417 0.12800001 1.4520081e-38
0.023550473 -0.00047259009 0.12800001 1.4885265e-38
0.021799346 0.00076349941 0.12800001 1.5985869e-38
0.022468895 0.00043387554 0.12800001 1.5619238e-38
0.023375362 0.00022786064 0.12800001 1.5433765e-38
0.02168604 0.0015051531 0.12800001 1.6262816e-38
0.021541828 0.0024802906 0.12800001 1.6174939e-38
0.021191603 0.0034004904 0.12800001 1.5720073e-38
0.02143882 0.0044717682 0.12800001 1.4707715e-38
0.02143882 0.0053644995 0.12800001 1.5163305e-38
0.021026792 0.0065319175 0.12800001 1.5074345e-38
0.020820776 0.0071499622 0.12800001 1.479812e-38
0.022880927 0.013124395 0.12800001 1.3321201e-38
0.028717449 -0.0052516437 0.12900001 1.3911381e-38
0.028873168 -0.0048363949 0.12900001 1.4556391e-38
0.029288417 -0.0042827297 0.12900001 1.4645714e-38
0.025343552 -0.0031753997 0.12900001 1.5999882e-38
0.029555364 -0.0035313275 0.12900001 1.4733237e-38
0.030949412 -0.0031753997 0.12900001 1.5566241e-38
0.031572286 -0.0035906485 0.12900001 1.5383285e-38
0.03330249 -0.0033138159 0.12900001 1.390708e-38
0.022488717 -0.0023449019 0.12900001 1.4709153e-38
0.023526838 -0.0024487141 0.12900001 1.581082e-38
0.024616867 -0.0026044324 0.12900001 1.5901215e-38
0.029842084 -0.0028985671 0.12900001 1.5468644e-38
0.030378446 -0.0028120568 0.12900001 1.5655194e-38
0.033565484 -0.0028847256 0.12900001 1.3900963e-38
0.02167552 -0.0016528205 0.12900001 1.4157062e-38
0.022125375 -0.0015144043 0.12900001 1.4431126e-38
0.022478333 -0.00039323242 0.12900001 1.5071458e-38
0.020983439 0.0008732765 0.12900001 1.571216e-38
0.02154699 0.00050251867 0.12900001 1.5803634e-38
0.022021562 0.00014659103 0.12900001 1.5528126e-38
0.021398688 0.0014615456 0.12900001 1.6078424e-38
0.020983439 0.0028457085 0.12900001 1.4887075e-38
0.021398688 0.0020152109 0.12900001 1.5895832e-38
0.020983439 0.0030533329 0.12900001 1.5348775e-38
0.020983439 0.0040914551 0.12900001 1.526161e-38
0.019945316 0.0057524503 0.12900001 1.4979274e-38
0.020983439 0.0053372015 0.12900001 1.5071469e-38
0.020775814 0.0068943845 0.12900001 1.4432213e-38
0.027213885 -0.0050831204 0.13000001 1.5108493e-38
0.02951546 -0.0050831204 0.13000001 1.3819547e-38
0.025958482 -0.0040369509 0.13000001 1.6295527e-38
0.02637695 -0.0042461846 0.13000001 1.6023257e-38
0.029724695 -0.0045019151 0.13000001 1.4185452e-38
0.030352395 -0.0040369509 0.13000001 1.3906706e-38
0.02564463 -0.0037230998 0.13000001 1.6287614e-38
0.029933926 -0.0038277169 0.13000001 1.4273693e-38
0.030603474 -0.0035557128 0.13000001 1.4827592e-38
0.031398565 -0.003618483 0.13000001 1.5383285e-38
0.033700138 -0.003618483 0.13000001 1.3724127e-38
0.020867122 -0.0022933348 0.13000001 1.4932088e-38
0.021624351 -0.00239297 0.13000001 1.4271952e-38
0.02255843 -0.0027292389 0.13000001 1.4619839e-38
0.023238441 -0.0027815474 0.13000001 1.5445634e-38
0.024284611 -0.0025723134 0.13000001 1.6270357e-38
0.034641691 -0.0027815474 0.13000001 1.3065446e-38
0.020847196 -0.0015859249 0.13000001 1.4549979e-38
0.021564567 -0.0012471653 0.13000001 1.4065232e-38
0.02162734 -0.00039628072 0.13000001 1.5162582e-38
0.022401504 -0.00061946362 0.13000001 1.5163294e-38
0.020811327 0.0005243484 0.13000001 1.5346616e-38
0.021355335 0.00014772739 0.13000001 1.5345896e-38
0.020936867 0.0014728755 0.13000001 1.5344098e-38
0.020936867 0.0023098111 0.13000001 1.5161146e-38
0.020727633 0.0034954702 0.13000001 1.4797401e-38
0.020853173 0.0046253325 0.13000001 1.544133e-38
0.019890698 0.0052739582 0.13000001 1.4978556e-38
0.020541647 0.0053785751 0.13000001 1.5254423e-38
0.024912313 0.018141843 0.13000001 1.3325871e-38
0.028835448 0.021280352 0.13000001 1.3135724e-38
0.03026961 -0.0051222211 0.13100001 1.326637e-38
0.030480452 -0.004595113 0.13100003 1.354044e-38
0.031231333 -0.0041897576 0.13150001 1.4369485e-38
0.020887077 -0.0030137871 0.13100001 1.4840611e-38
0.021561775 -0.0030981244 0.13100001 1.4840252e-38
0.022415066 -0.0032362863 0.13144445 1.4830888e-38
0.023400752 -0.0030784032 0.13150001 1.5081895e-38
0.024587661 -0.0031076488 0.13140002 1.6089562e-38
0.025295578 -0.0036741518 0.132 1.5915598e-38
0.03142925 -0.0038571609 0.13100001 1.5106335e-38
0.034539361 -0.0030917369 0.13133334 1.3440704e-38
0.020887077 -0.0028029438 0.13100001 1.5025002e-38
0.021519607 -0.0028029438 0.13100001 1.4839531e-38
0.022152137 -0.0028029438 0.13100001 1.5008076e-38
0.023733463 -0.0028029438 0.13100001 1.5536391e-38
0.024365993 -0.0028029438 0.13100001 1.6086685e-38
0.020516926 -0.0011898545 0.13133334 1.4740493e-38
0.020615993 -0.0004384857 0.13100003 1.4347584e-38
0.021308763 -0.00058908819 0.13100001 1.5073985e-38
0.022152137 -0.00079993159 0.13100001 1.5071104e-38
0.019832859 0.00057055056 0.13100001 1.3530066e-38
0.020395109 0.00052369642 0.13100003 1.4615891e-38
0.019699033 0.0016353338 0.13180001 1.4168952e-38
0.020452537 0.0015105673 0.13122223 1.4980713e-38
0.019665577 0.0028056614 0.132 1.4161039e-38
0.02043674 0.0024771595 0.13150001 1.5164745e-38
0.019729313 0.0034642653 0.132 1.4983598e-38
0.020331049 0.0035358022 0.13150001 1.4888159e-38
0.020423222 0.0045765755 0.13100003 1.507039e-38
0.020465391 0.0068958527 0.13100001 1.4984306e-38
0.020395109 0.0071769771 0.13100001 1.4893551e-38
0.026477493 0.019468755 0.13163637 1.3141118e-38
0.027845016 0.021395288 0.132 1.2954207e-38
0.028565723 0.022126416 0.13180001 1.3320113e-38
0.029474437 0.022607574 0.13128571 1.3228277e-38
0.030234469 0.02284967 0.13100001 1.3043884e-38
0.029610591 0.023177691 0.13166668 1.3781088e-38
0.030234469 0.023201076 0.13100001 1.3503062e-38
0.031338252 -0.0046295901 0.133 1.3356406e-38
0.025487212 -0.0039160489 0.133 1.5919914e-38
0.019707527 0.0021847291 0.133 1.5179505e-38
0.026514713 0.020465657 0.133 1.3328382e-38
0.027285337 0.020529876 0.133 1.2953848e-38
0.026679846 0.021435054 0.133 1.3696448e-38
0.027413776 0.02150386 0.133 1.3231511e-38
0.027413776 0.022199562 0.133 1.3877602e-38
0.028312836 0.022456437 0.133 1.3689613e-38
0.028698148 0.023055812 0.133 1.4148429e-38
0.029233305 0.023269875 0.133 1.3872918e-38
0.031717658 -0.00480818 0.134 1.3263852e-38
0.02179675 -0.0037298207 0.134 1.5117198e-38
0.02287511 -0.0037298207 0.134 1.5208675e-38
0.023522126 -0.0035141488 0.134 1.5191379e-38
0.024276977 -0.003298477 0.134 1.5541429e-38
0.027447354 0.022668416 0.134 1.3882277e-38
0.028159073 0.022797819 0.134 1.4150948e-38
0.028446635 0.023372943 0.134 1.4518289e-38
0.029129596 0.023660507 0.134 1.3966188e-38
0.026522323 -0.0050613433 0.13500001 1.5107795e-38
0.022285335 -0.0041922182 0.13500001 1.5209395e-38
0.025870478 -0.0041922182 0.13500001 1.5831315e-38
0.0261964 -0.0046267807 0.13500001 1.5562647e-38
0.032171641 -0.0046267807 0.13500001 1.3908863e-38
0.021959413 -0.0039749364 0.13500001 1.5209396e-38
0.022466401 -0.0039749364 0.13500001 1.5209395e-38
0.023263102 -0.0035403739 0.13500001 1.5848282e-38
0.025109993 -0.0037576552 0.13500001 1.5731932e-38
0.027826011 0.023402516 0.13500001 1.3973398e-38
0.028260574 0.023728438 0.13500001 1.4704479e-38
0.026937675 -0.0053177257 0.13600001 1.5016316e-38
0.022486893 -0.0043691988 0.13600001 1.5301589e-38
0.032628838 -0.004879944 0.13600001 1.3541521e-38
0.023763757 -0.0035665988 0.13600001 1.4826925e-38
0.024383947 -0.0035665988 0.13600001 1.5180573e-38
0.020152058 -0.0018154721 0.13600001 1.5485262e-38
-0.019169336 -0.0091053322 0.13700001 1.3875079e-38
0.021733485 -0.0041440753 0.13700001 1.5301592e-38
0.022946239 -0.0046953261 0.13700001 1.5393785e-38
0.023534238 -0.0043768254 0.13700001 1.5209394e-38
0.024544865 -0.0040338249 0.13700001 1.5381175e-38
0.025592241 -0.0042543253 0.13700001 1.5374315e-38
0.021402735 -0.0035928241 0.13700001 1.5117198e-38
0.020300234 -0.0020493215 0.13700001 1.5209394e-38
0.019859232 -0.0018288211 0.13700001 1.5393066e-38
-0.019531367 -0.0087275747 0.13800001 1.4244943e-38
0.022891618 -0.0051738182 0.13800001 1.5485981e-38
0.023557948 -0.0052848733 0.13800001 1.548562e-38
0.024002168 -0.0051738182 0.13800001 1.5393785e-38
0.022669509 -0.0047295983 0.13800001 1.5393785e-38
0.023780057 -0.0047295983 0.13800001 1.5393785e-38
0.024351198 -0.0044122986 0.13800001 1.5115757e-38
0.025334828 -0.0042853788 0.13800001 1.4826919e-38
0.023899367 -0.0056994585 0.14 1.5577457e-38
0.024325198 -0.0055038771 0.13960001 1.5485622e-38
0.021344248 -0.0042200992 0.13950001 1.5301592e-38
0.022386342 -0.004763871 0.13900001 1.5393785e-38
0.024623536 -0.0046892981 0.13900001 1.5209034e-38
0.02537404 -0.0046209805 0.13975 1.5112151e-38
0.038195845 0.038451247 0.13900001 1.3092864e-38
0.022821918 -0.0053997617 0.141 1.5670013e-38
0.0236162 -0.005740169 0.141 1.5577457e-38
0.024902185 -0.0055132308 0.141 1.5393423e-38
0.026452933 -0.0053997617 0.141 1.4748053e-38
0.021800695 -0.0046054772 0.141 1.5485983e-38
0.026112523 -0.0048324158 0.141 1.5296538e-38
0.032863937 0.035392396 0.141 1.3737872e-38
-0.017240645 -0.011151752 0.142 1.3789357e-38
-0.016897824 -0.011151752 0.142 1.3328736e-38
-0.017126372 -0.010808931 0.142 1.4157063e-38
-0.016897824 -0.010808931 0.142 1.3327303e-38
0.024812158 -0.0060094274 0.142 1.5577813e-38
0.023098048 -0.0057808794 0.142 1.5854044e-38
0.025383528 -0.0055523315 0.142 1.5393423e-38
0.026983364 -0.0057808794 0.142 1.4563661e-38
0.021955309 -0.004866688 0.142 1.5670372e-38
0.025726348 -0.004866688 0.142 1.5024281e-38
0.022869501 0.018902285 0.142 1.419777e-38
0.030487763 0.036576647 0.142 1.318578e-38
-0.017937452 -0.011115207 0.14300001 1.3881555e-38
-0.01752317 -0.010654892 0.14300001 1.3788281e-38
0.025677364 -0.0074326904 0.14300001 1.4194879e-38
-0.01724698 -0.0060517471 0.14300001 1.3698619e-38
0.023836104 -0.0060517471 0.14300001 1.5669653e-38
0.024641655 -0.0062819044 0.14300001 1.5577456e-38
0.025583208 -0.0065329853 0.14300001 1.5301226e-38
-0.01724698 -0.0057065114 0.14300001 1.3145083e-38
0.025677364 -0.0057065114 0.14300001 1.5393065e-38
0.026022598 -0.0054763537 0.14300001 1.530087e-38
0.029935276 0.029469194 0.14300001 1.3368009e-38
0.029877737 0.030370643 0.14300001 1.3275813e-38
0.030472312 0.030313104 0.14300001 1.3183618e-38
0.029877737 0.031176196 0.14300001 1.3091422e-38
0.030472308 0.031406354 0.14300001 1.3091422e-38
0.029935276 0.0324996 0.14300001 1.3368009e-38
0.026943229 0.036987666 0.14300001 1.4014818e-38
0.027748782 0.036987666 0.14300001 1.3460925e-38
0.026943229 0.037447982 0.14300001 1.3368369e-38
0.022570239 0.042774476 0.14300001 1.3183976e-38
0.022570239 0.043259457 0.14300001 1.3275813e-38
-0.017135821 -0.011888237 0.14400001 1.3236539e-38
-0.018178772 -0.010729402 0.14400001 1.3881558e-38
-0.017444843 -0.010111358 0.14400001 1.341734e-38
-0.019685257 -0.0070211338 0.14400001 1.3601371e-38
0.02547065 -0.007600551 0.14400001 1.428707e-38
0.026204575 -0.0075426092 0.14400001 1.3640981e-38
-0.019569373 -0.0065286299 0.14400001 1.3600294e-38
-0.018062888 -0.0060940669 0.14400001 1.3232236e-38
-0.017560728 -0.0065576006 0.14400001 1.3326955e-38
0.023423374 -0.0060940669 0.14400001 1.5854044e-38
0.02469809 -0.0066734836 0.14400001 1.5577813e-38
0.026262518 -0.0063837753 0.14400001 1.5116835e-38
-0.019337606 -0.0058623003 0.14400001 1.3230798e-38
-0.018062888 -0.0056305337 0.14400001 1.2958168e-38
-0.017715238 -0.0055725919 0.14400001 1.3051807e-38
0.022380423 -0.0055146497 0.14400001 1.5577817e-38
0.026436344 -0.005804359 0.14400001 1.5208672e-38
0.026204575 0.025657983 0.14400001 1.4013378e-38
0.029634725 0.028578246 0.14400001 1.3275453e-38
0.030144613 0.028902719 0.14400001 1.2999226e-38
0.027734239 0.029412607 0.14400001 1.2997787e-38
0.028580189 0.029366253 0.14400002 1.3460206e-38
0.029614862 0.029333144 0.14400001 1.3275813e-38
0.027780592 0.030386025 0.14400001 1.3460205e-38
0.028580187 0.030467145 0.14400002 1.3644596e-38
0.029548641 0.030392647 0.14400001 1.3368009e-38
0.027769001 0.031510096 0.14400001 1.3828987e-38
0.028580189 0.031452153 0.14400002 1.3368009e-38
0.02954202 0.031498507 0.14400001 1.3275095e-38
0.026899878 0.032842755 0.14400001 1.4105574e-38
0.027616246 0.032526705 0.14400002 1.3091424e-38
0.028580189 0.032495108 0.14400002 1.3275813e-38
0.029634729 0.03244875 0.14400002 1.2999226e-38
0.02689988 0.033538058 0.14400001 1.3921183e-38
0.027595179 0.033538055 0.14400001 1.3368009e-38
0.028580187 0.033538051 0.14400002 1.3276174e-38
0.029449312 0.033422172 0.14400001 1.3368009e-38
0.027595177 0.034581009 0.14400002 1.3183978e-38
0.027711062 0.035623956 0.14400001 1.2999587e-38
0.027711062 0.03647377 0.14400001 1.3091782e-38
0.026552228 0.037864368 0.14400001 1.3184698e-38
0.027537236 0.037304267 0.14400001 1.3276534e-38
0.017165668 0.042576961 0.14400001 1.3275813e-38
0.017629202 0.043272261 0.14400001 1.4105573e-38
-0.01725482 -0.01220417 0.14500001 1.2959949e-38
-0.018888455 -0.011153977 0.14500001 1.3512774e-38
-0.019355206 -0.010103785 0.14500001 1.34177e-38
-0.018748429 -0.01033716 0.14500001 1.3696087e-38
-0.017954949 -0.010103785 0.14500001 1.3694287e-38
-0.019541908 -0.0094503313 0.14500001 1.3600294e-38
-0.017721573 -0.0095786881 0.14500001 1.3140035e-38
-0.020055335 -0.0084701497 0.14500001 1.3598495e-38
-0.019744167 -0.0084701506 0.145 1.3599932e-38
0.0074830698 -0.0087035261 0.14500001 1.6037715e-38
-0.020335387 -0.007536645 0.14500001 1.3600297e-38
-0.019555243 -0.0075699845 0.145 1.3235466e-38
0.024986293 -0.0070698923 0.14500001 1.5485618e-38
-0.020522088 -0.0065253475 0.14500001 1.3875084e-38
-0.019355206 -0.0061363867 0.14500001 1.3415185e-38
0.02451954 -0.0068365159 0.14500001 1.5485618e-38
-0.020405399 -0.005640462 0.145 1.4613009e-38
-0.019588582 -0.0055529461 0.145 1.3324074e-38
-0.020522088 -0.0046527809 0.145 1.4615533e-38
-0.01958858 -0.0046194405 0.145 1.3603185e-38
-0.020444296 -0.0035692474 0.145 1.4619495e-38
-0.019588582 -0.0035692474 0.145 1.3510274e-38
-0.020255372 -0.0025690638 0.145 1.3140769e-38
-0.021338906 -0.0012354848 0.14500001 1.3696099e-38
-0.018655077 -0.0015855492 0.145 1.3420954e-38
0.025919799 0.025369411 0.14500001 1.4013378e-38
0.026153175 0.026069541 0.14500001 1.4105574e-38
0.027413407 0.027843198 0.14500001 1.3551321e-38
0.02837025 0.02793655 0.14500001 1.3275813e-38
0.026561582 0.028461646 0.14500001 1.3551318e-38
0.027436743 0.028403303 0.145 1.3644236e-38
0.0284536 0.028336626 0.145 1.3183978e-38
0.026415722 0.029365979 0.145 1.3643517e-38
0.027345985 0.029284947 0.145 1.3920464e-38
0.025719762 0.030437009 0.145 1.401266e-38
0.02638655 0.030386999 0.145 1.4105574e-38
0.027273381 0.030433675 0.145 1.4013378e-38
0.024986293 0.031787258 0.14500001 1.4104492e-38
0.025530836 0.031553883 0.145 1.3920102e-38
0.026386552 0.031553879 0.145 1.4104495e-38
0.02729884 0.031522054 0.145 1.3459846e-38
0.024986291 0.032604072 0.14500001 1.4012299e-38
0.025530837 0.032604072 0.145 1.4104854e-38
0.026386552 0.032604076 0.145 1.4013018e-38
0.027145021 0.03254573 0.14500001 1.419777e-38
0.024986291 0.033459786 0.14500001 1.3551681e-38
0.025530837 0.03345979 0.145 1.336765e-38
0.026386552 0.03345979 0.145 1.3828987e-38
0.024892941 0.034424413 0.14500001 1.355276e-38
0.025530837 0.034529433 0.145 1.3460565e-38
0.026386552 0.034529429 0.145 1.401374e-38
0.027086681 0.034704462 0.14500001 1.3921183e-38
0.024869606 0.035637967 0.14500001 1.3368369e-38
0.025530837 0.035560176 0.145 1.3460565e-38
0.026386552 0.035560172 0.145 1.3183978e-38
0.027180027 0.035637967 0.14500001 1.2999226e-38
0.024586217 0.036404777 0.145 1.3183979e-38
0.025453046 0.036163066 0.14500001 1.3368369e-38
0.016701434 0.04287263 0.14500001 1.3091422e-38
0.016759777 0.043514416 0.14500001 1.392118e-38
0.017424902 0.043572761 0.14500001 1.4566552e-38
0.016818123 0.044039514 0.14500001 1.4382158e-38
0.017401565 0.044039514 0.14500001 1.4474354e-38
-0.020489691 -0.010243147 0.147 1.3692128e-38
-0.019768707 -0.010432751 0.14633334 1.3232589e-38
-0.018548748 -0.010173465 0.14600001 1.4157063e-38
-0.021160044 -0.0092967656 0.147 1.4889951e-38
-0.020311141 -0.009468508 0.14600001 1.3782526e-38
-0.019283079 -0.0095566278 0.14600001 1.3601732e-38
-0.018392092 -0.009429343 0.14600001 1.3786843e-38
-0.021278342 -0.0084292488 0.147 1.5444211e-38
-0.020663619 -0.0085285651 0.14600001 1.4614807e-38
-0.019253705 -0.0085285651 0.14600001 1.360425e-38
-0.018335124 -0.0085712904 0.14600001 1.2958164e-38
-0.022540182 -0.0072462731 0.147 1.4425381e-38
-0.021578953 -0.007443862 0.14662501 1.443042e-38
0.024923626 -0.007706115 0.14600001 1.5209029e-38
0.026849408 -0.0074837208 0.14625001 1.3917929e-38
-0.022619048 -0.0066153519 0.147 1.4609771e-38
-0.021624416 -0.0066003515 0.14666668 1.3783249e-38
0.023556467 -0.0064576222 0.147 1.5761849e-38
0.024218669 -0.0066486788 0.14600001 1.5577457e-38
0.026987098 -0.0068125152 0.147 1.5024639e-38
-0.022658974 -0.0056261113 0.14689998 1.5165464e-38
-0.021571526 -0.0055718147 0.14610001 1.4241712e-38
0.022808755 -0.0059437207 0.14600001 1.5761849e-38
-0.022621518 -0.0045493329 0.14650001 1.5352023e-38
-0.021632936 -0.0045044334 0.14600001 1.4150601e-38
0.020599026 -0.0043282644 0.147 1.5209394e-38
0.021190513 -0.0046831574 0.147 1.5578176e-38
-0.023289401 -0.0035001808 0.147 1.4616255e-38
-0.022491181 -0.0035982344 0.14616668 1.5261267e-38
-0.021603564 -0.0035938632 0.14600001 1.3691423e-38
-0.023265742 -0.0024828212 0.147 1.5721888e-38
-0.022465177 -0.0025755917 0.14600001 1.5448539e-38
-0.021486072 -0.0025364272 0.146 1.3693584e-38
-0.023328833 -0.0014496888 0.147 1.4798851e-38
-0.02249651 -0.0013145012 0.14600001 1.3973758e-38
-0.021603562 -0.0015181554 0.14600001 1.3326596e-38
-0.019429944 -0.0011265124 0.14600001 1.3052536e-38
-0.02435408 -6.9549678e-05 0.147 1.5442417e-38
-0.023565128 -0.00025840936 0.14680001 1.4801362e-38
-0.022543507 -0.00030406233 0.14600001 1.3236913e-38
-0.021533068 -0.00030406239 0.14600001 1.3883017e-38
-0.02435408 0.00040364088 0.147 1.5349142e-38
-0.023466848 0.00052193843 0.147 1.4710611e-38
-0.022660142 0.00055999809 0.14650001 1.3786854e-38
-0.022528917 0.0015528178 0.147 1.3229727e-38
-0.023171104 0.0020598078 0.147 1.3504154e-38
-0.022816211 0.0023752681 0.147 1.3045692e-38
-0.023289401 0.0038342723 0.147 1.3234043e-38
-0.023289401 0.0067917127 0.147 1.323511e-38
-0.024117485 0.0076197963 0.147 1.4059473e-38
-0.023486564 0.0075014988 0.147 1.3047846e-38
0.022136897 0.020987429 0.147 1.4657669e-38
0.022405755 0.021589674 0.14699998 1.4288886e-38
0.023370573 0.021663414 0.147 1.3920104e-38
0.022669235 0.022466149 0.147 1.4012299e-38
0.023556465 0.022564732 0.14699998 1.4381082e-38
0.024463415 0.022801325 0.147 1.4657669e-38
0.022728384 0.023432247 0.147 1.4749864e-38
0.023556465 0.023432249 0.14699998 1.4749864e-38
0.024621146 0.023432245 0.147 1.4565473e-38
0.022633746 0.024347082 0.147 1.4842057e-38
0.023556465 0.024299765 0.14699998 1.4565473e-38
0.024621148 0.024299763 0.147 1.4381082e-38
0.025459407 0.024429137 0.14683335 1.3920464e-38
0.022539109 0.02536444 0.14699998 1.5118647e-38
0.023556467 0.025423588 0.147 1.484206e-38
0.024626637 0.025408877 0.14691666 1.4381082e-38
0.025409264 0.025358226 0.14628573 1.4197051e-38
0.022559388 0.026462922 0.147 1.5210121e-38
0.02358933 0.026469519 0.14692305 1.484134e-38
0.024624133 0.026440417 0.14608335 1.4473278e-38
0.025550256 0.026425568 0.14600001 1.4196691e-38
0.026176885 0.02679763 0.14600001 1.4012299e-38
0.022498487 0.027478015 0.14691664 1.5395231e-38
0.023562167 0.027442109 0.14660001 1.4749862e-38
0.024610313 0.027424257 0.14600001 1.4657669e-38
0.025550256 0.027424257 0.14600001 1.3827908e-38
0.026411869 0.027424261 0.14600001 1.4104495e-38
0.027038498 0.027541753 0.14600001 1.4104855e-38
0.022586426 0.028463837 0.147 1.502609e-38
0.023637449 0.028500838 0.14635715 1.5303035e-38
0.024610311 0.028481694 0.14600001 1.4749862e-38
0.025550256 0.028481698 0.14600001 1.4288883e-38
0.026274793 0.028393576 0.14600001 1.4104494e-38
0.029623343 0.028834173 0.14600001 1.2999226e-38
0.022448771 0.029741459 0.14699998 1.4749504e-38
0.023559405 0.02957258 0.14649999 1.5210482e-38
0.024610313 0.029539131 0.14600001 1.4288165e-38
0.025550256 0.029539131 0.14600001 1.3735711e-38
0.026098557 0.029304147 0.14600001 1.3551318e-38
0.021342611 0.030755434 0.147 1.5026449e-38
0.022462735 0.030614819 0.1462 1.5026449e-38
0.02357246 0.030596569 0.146 1.4749862e-38
0.024610311 0.030596569 0.14600001 1.4288885e-38
0.025252607 0.030526072 0.14600001 1.4288885e-38
0.020599026 0.031870812 0.147 1.5210121e-38
0.021364812 0.031588715 0.14689998 1.5210481e-38
0.022434978 0.031629339 0.14625001 1.4842057e-38
0.02357246 0.031654004 0.14600001 1.4104132e-38
0.024571147 0.03162463 0.14600001 1.3459124e-38
0.020599026 0.032107405 0.147 1.5210121e-38
0.021441579 0.032267898 0.14683335 1.5117925e-38
0.022603143 0.032476455 0.14600001 1.3458405e-38
0.023572458 0.032515619 0.14600001 1.4196691e-38
0.024453655 0.032515619 0.14600001 1.3643876e-38
0.021868812 0.033651382 0.14600001 1.419777e-38
0.022573769 0.033455562 0.14600001 1.3828627e-38
0.02357246 0.033455562 0.14600001 1.4104495e-38
0.024453655 0.033455562 0.14600001 1.3920104e-38
0.02168401 0.034372624 0.14657143 1.4289965e-38
0.022573771 0.034473833 0.14600001 1.3644236e-38
0.02357246 0.034473833 0.146 1.3644596e-38
0.024420084 0.034507401 0.14600001 1.3828987e-38
0.021545408 0.035301439 0.147 1.419777e-38
0.022443721 0.035436764 0.14627275 1.3644237e-38
0.023572458 0.035492104 0.14600001 1.4105215e-38
0.024453655 0.035492107 0.14600001 1.3368009e-38
0.022808755 0.036118735 0.14600001 1.419813e-38
0.023620524 0.036396444 0.14600001 1.3737154e-38
0.024218669 0.036236227 0.14600001 1.3183979e-38
0.016307481 0.043794934 0.14600001 1.3828984e-38
0.015807971 0.044469509 0.147 1.4381079e-38
0.016283927 0.044495095 0.14650001 1.4013376e-38
-0.020232068 -0.011265647 0.148 1.3232586e-38
-0.021423092 -0.010074623 0.148 1.4523328e-38
-0.021661296 -0.0094791111 0.148 1.4614804e-38
-0.022852322 -0.0081689851 0.148 1.4425018e-38
-0.021899503 -0.0081689851 0.148 1.5257663e-38
-0.023328731 -0.0075337719 0.148 1.5163304e-38
-0.022614116 -0.0078116776 0.148 1.442574e-38
0.027408889 -0.0075337719 0.148 1.3733538e-38
-0.023566935 -0.0060251416 0.148 1.5440968e-38
0.023597613 -0.0067397566 0.148 1.5761849e-38
0.027527992 -0.006680205 0.148 1.4840248e-38
0.028123504 -0.0069779609 0.148 1.4563661e-38
-0.023566937 -0.0054693311 0.148 1.5719717e-38
0.021691974 -0.0050723227 0.148 1.5762567e-38
-0.023566937 -0.0045165117 0.148 1.5814079e-38
-0.024472114 -0.0034525301 0.148 1.4982881e-38
-0.023686036 -0.0038812989 0.148 1.5075431e-38
-0.024400653 -0.0027299756 0.148 1.4521184e-38
-0.02380514 -0.0025711725 0.148 1.3875454e-38
-0.024519755 -0.0014794009 0.148 1.5537136e-38
-0.025353473 -0.00030822758 0.148 1.6181783e-38
-0.02463886 -0.00042732994 0.148 1.5536056e-38
-0.02523437 0.00064459146 0.148 1.562393e-38
-0.024579307 0.00076369394 0.148 1.5443497e-38
-0.023566937 0.00088279624 0.148 1.4709536e-38
-0.02523437 0.0015180089 0.148 1.6456929e-38
-0.024579307 0.0015180089 0.148 1.5905557e-38
-0.023596711 0.0014783081 0.148 1.3966934e-38
-0.02523437 0.0021929224 0.148 1.6459813e-38
-0.024579303 0.0023914266 0.148 1.4887447e-38
-0.023709858 0.0024549479 0.148 1.3597065e-38
-0.022495015 0.0023914266 0.148 1.2955657e-38
-0.021804219 0.0024549477 0.148 1.3420234e-38
-0.024499903 0.0033640957 0.148 1.415024e-38
-0.023646338 0.0032648442 0.148 1.304749e-38
-0.022495013 0.0030266391 0.148 1.3233322e-38
-0.023662219 0.0044558677 0.148 1.3417716e-38
-0.023328731 0.0054086871 0.148 1.2957448e-38
-0.023646334 0.0065203086 0.148 1.3419857e-38
-0.024559455 0.0073540248 0.148 1.4613361e-38
-0.024638858 0.0083862459 0.148 1.4613361e-38
0.02185078 0.019859776 0.148 1.4934256e-38
0.022168385 0.019939177 0.148 1.5026451e-38
0.020977361 0.020772893 0.148 1.4380722e-38
0.021612575 0.020574389 0.148 1.4749506e-38
0.022436365 0.020624015 0.148 1.4658028e-38
0.023121204 0.020891996 0.148 1.4105574e-38
0.020882079 0.021606609 0.148 1.4842057e-38
0.02145377 0.02152721 0.148 1.4933896e-38
0.022883 0.0211302 0.148 1.4104495e-38
0.023121204 0.0211302 0.148 1.4288886e-38
0.020709381 0.022440325 0.148 1.521084e-38
0.021612575 0.022400625 0.148 1.5118647e-38
0.022247786 0.022638833 0.148 1.4565473e-38
0.020659754 0.023452699 0.148 1.5302675e-38
0.021648664 0.023490595 0.148 1.4933894e-38
0.022287488 0.023452699 0.148 1.4749863e-38
0.020709381 0.024494842 0.148 1.502573e-38
0.021612575 0.024544468 0.148 1.4656947e-38
0.022227935 0.024465069 0.148 1.4473276e-38
0.020858258 0.025417885 0.148 1.5578903e-38
0.021612575 0.025417887 0.148 1.4748425e-38
0.022168385 0.025656091 0.148 1.5117928e-38
0.020659754 0.026688313 0.148 1.5394872e-38
0.021612575 0.026489809 0.148 1.5210122e-38
0.022168385 0.026370704 0.148 1.5394512e-38
0.019726785 0.027621282 0.148 1.5302675e-38
0.020500952 0.02756173 0.148 1.5394871e-38
0.021612575 0.027561728 0.148 1.5118285e-38
0.019601069 0.028620418 0.148 1.585549e-38
0.020500951 0.028574102 0.148 1.5395231e-38
0.021533174 0.028461615 0.148 1.5303035e-38
0.018773967 0.029705573 0.148 1.6132077e-38
0.019468732 0.029705571 0.148 1.5302317e-38
0.02045764 0.029683918 0.148 1.5117925e-38
0.018833518 0.030181982 0.148 1.5856209e-38
0.01946873 0.030181982 0.148 1.5302677e-38
0.020183345 0.030340785 0.148 1.5394512e-38
0.020500951 0.031849414 0.148 1.5026088e-38
0.020143643 0.032405227 0.148 1.4841697e-38
0.020262746 0.033040438 0.148 1.4749862e-38
-0.022047471 -0.010142695 0.149 1.4708439e-38
-0.021328028 -0.010382509 0.149 1.4429334e-38
-0.023066683 -0.0093632983 0.149 1.4887793e-38
-0.022527099 -0.0094232513 0.149 1.4430413e-38
-0.023246543 -0.0085839024 0.149 1.4701964e-38
-0.022575062 -0.0086078839 0.149 1.4243145e-38
-0.024301726 -0.0072169611 0.149 1.6642028e-38
-0.023965986 -0.0074447845 0.149 1.5903024e-38
0.024716312 -0.0075846761 0.149 1.5301225e-38
-0.024325708 -0.0063856044 0.149 1.6088497e-38
-0.023965986 -0.0065454808 0.149 1.5719713e-38
0.022677893 -0.0061857589 0.149 1.5761849e-38
0.023277428 -0.0067852954 0.149 1.5761849e-38
-0.024325706 -0.005506285 0.149 1.5349495e-38
0.022078358 -0.0058260378 0.149 1.594624e-38
-0.024265755 -0.0045670131 0.149 1.5998105e-38
-0.025165057 -0.0036677097 0.149 1.6092465e-38
-0.02460549 -0.0038275858 0.149 1.4983237e-38
-0.025284963 -0.0024686384 0.149 1.4983241e-38
-0.024625475 -0.002528592 0.149 1.4613019e-38
0.019440399 -0.0024686386 0.149 1.5854763e-38
-0.025284965 -0.00078993867 0.149 1.646017e-38
-0.024685429 -0.00078993867 0.149 1.5721891e-38
-0.025644686 0.00064894685 0.149 1.5991994e-38
-0.025824547 0.0025075071 0.149 1.6365455e-38
-0.026364127 0.0033668417 0.149 1.5809766e-38
-0.025692651 0.0032869037 0.149 1.4977843e-38
-0.025244996 0.0040862844 0.149 1.4519022e-38
-0.024525553 0.0044060368 0.149 1.4338952e-38
-0.023965986 0.0054452321 0.149 1.406092e-38
-0.025404871 0.0065072658 0.149 1.5901952e-38
-0.024479875 0.0064044888 0.149 1.4520812e-38
-0.023965986 0.0061646746 0.149 1.406307e-38
-0.025557483 0.0074073481 0.14900002 1.5904457e-38
-0.025644684 0.0084429104 0.149 1.5904455e-38
0.018720957 0.019514335 0.149 1.5487069e-38
0.019527607 0.019550668 0.14900002 1.5395234e-38
0.02063947 0.01971418 0.149 1.5395234e-38
0.021530211 0.019525755 0.149 1.5118647e-38
0.018720957 0.020393653 0.149 1.5486711e-38
0.019560307 0.020393653 0.14900002 1.5303038e-38
0.020609494 0.020343693 0.149 1.5395234e-38
0.021358915 0.020073902 0.149 1.5118647e-38
0.014164485 0.021033159 0.149 1.7052955e-38
0.018720957 0.021033159 0.149 1.5578903e-38
0.019680215 0.021403778 0.14900002 1.5579264e-38
0.020479595 0.021392882 0.149 1.5118647e-38
0.018641019 0.022791795 0.149 1.6224273e-38
0.019593012 0.022581052 0.14900002 1.5947686e-38
0.020399656 0.022232231 0.149 1.5487427e-38
0.018549662 0.023397041 0.149 1.6224273e-38
0.019560307 0.023431303 0.14900002 1.5947686e-38
0.021358915 0.023191487 0.149 1.5487427e-38
0.018720957 0.024150744 0.149 1.585549e-38
0.01965357 0.024337266 0.149 1.6039883e-38
0.018720957 0.025829444 0.149 1.6408664e-38
0.019624872 0.025534291 0.14900002 1.6224273e-38
0.020399656 0.025469722 0.149 1.5947686e-38
0.018661002 0.026488932 0.149 1.6132077e-38
0.019560304 0.026548887 0.14900002 1.6132077e-38
0.020570954 0.026548883 0.149 1.5947686e-38
0.018720957 0.027028514 0.149 1.6132077e-38
0.019350469 0.027448189 0.149 1.585549e-38
0.018720957 0.028707214 0.149 1.585549e-38
0.019200586 0.028707212 0.149 1.6132077e-38
0.019680215 0.030865541 0.149 1.5395231e-38
0.019800121 0.031105356 0.149 1.5118644e-38
0.023996871 0.042376626 0.149 1.3091782e-38
0.024716314 0.043191992 0.149 1.3091781e-38
0.025195943 0.043096069 0.149 1.3091782e-38
-0.020746898 -0.011659309 0.15000001 1.360065e-38
-0.022799 -0.010210766 0.15000001 1.5351293e-38
-0.021551644 -0.010693614 0.15000001 1.4337499e-38
-0.024126831 -0.0082793767 0.15000001 1.5438088e-38
0.022636954 -0.0082310913 0.14999999 1.5208668e-38
0.023614721 -0.0080983089 0.15000001 1.5116472e-38
0.024399348 -0.0080379527 0.15000001 1.5116832e-38
0.02258867 -0.0073136822 0.14999999 1.5762206e-38
0.023675077 -0.0073136818 0.14999999 1.5485618e-38
0.024399348 -0.0073136818 0.15000001 1.5485618e-38
0.028020702 -0.0073136818 0.15000001 1.4194519e-38
0.022508195 -0.006669885 0.14999999 1.5761849e-38
-0.025213238 -0.0053822915 0.15000001 1.5068597e-38
0.021562617 -0.0055633588 0.15000001 1.5762567e-38
-0.02521324 -0.0045775454 0.14999999 1.498e-38
-0.024851102 -0.0045373081 0.15000001 1.5165824e-38
-0.02533395 -0.0039337487 0.15000001 1.5906632e-38
-0.027023919 0.0027054041 0.15000001 1.6090306e-38
-0.026782494 0.0027054041 0.15000001 1.627398e-38
-0.027023919 0.0030675395 0.15000001 1.6738191e-38
-0.026178934 0.0037918109 0.15000001 1.5162233e-38
-0.027023919 0.004596557 0.15000001 1.6081311e-38
-0.026380122 0.0044557261 0.14999999 1.5346984e-38
-0.025535138 0.0047172685 0.14999999 1.5352021e-38
-0.024851102 0.0049989298 0.15000001 1.4706299e-38
-0.027023919 0.0054817772 0.15000001 1.6360052e-38
-0.02638012 0.0054817772 0.14999999 1.6272535e-38
-0.025414428 0.0054817777 0.14999999 1.6367977e-38
-0.024730392 0.0054817772 0.14999999 1.4334276e-38
-0.027084274 0.0065078279 0.15000001 1.6455127e-38
-0.026437601 0.0063784937 0.14999999 1.7473239e-38
-0.025816798 0.0062060482 0.15000001 1.728849e-38
-0.027127385 0.0074821445 0.14999999 1.867286e-38
-0.026621545 0.0076143532 0.14999999 1.7655825e-38
-0.027023919 0.0083788615 0.15000001 1.7564712e-38
-0.026782494 0.0084995739 0.15000001 1.7469629e-38
0.018846601 0.014414456 0.15000001 1.4381085e-38
0.019088024 0.01465588 0.15000001 1.4381085e-38
0.019302625 0.0155411 0.14999999 1.4473638e-38
0.02005372 0.015862998 0.15000001 1.4105574e-38
0.018846601 0.016707983 0.15000001 1.4843139e-38
0.01926047 0.01655278 0.14999999 1.4658748e-38
0.02005372 0.016345846 0.15000001 1.4566552e-38
0.016915211 0.017794389 0.15000001 1.5856209e-38
0.018605176 0.017432254 0.15000001 1.5303038e-38
0.019377735 0.01760125 0.15000001 1.4934976e-38
0.020295145 0.017673677 0.14999999 1.4935335e-38
0.01664361 0.018488482 0.14999999 1.6224273e-38
0.017277347 0.01851866 0.15000001 1.5948045e-38
0.019474303 0.018373806 0.15000001 1.5119007e-38
0.020295143 0.018438185 0.14999999 1.5211201e-38
0.021115985 0.01851866 0.15000001 1.4934616e-38
0.016613431 0.019061863 0.15000001 1.6224273e-38
0.017156634 0.019001506 0.15000001 1.6132077e-38
0.018243041 0.01984649 0.15000001 1.5763298e-38
0.019450162 0.019001506 0.15000001 1.5395231e-38
0.020295143 0.019122219 0.14999999 1.5487427e-38
0.02109989 0.019081982 0.15000001 1.5118644e-38
0.018243041 0.020610997 0.14999999 1.5671102e-38
0.018363753 0.021174321 0.15000001 1.5763295e-38
0.016673787 0.023105711 0.15000001 1.650086e-38
0.017880905 0.02696849 0.15000001 1.6593055e-38
0.018243041 0.02684778 0.15000001 1.6408664e-38
0.017760195 0.027813476 0.15000001 1.5209042e-38
0.018393932 0.027662586 0.14999999 1.5947326e-38
0.017784337 0.028513601 0.15000001 1.5762935e-38
0.018393932 0.028537745 0.14999999 1.585513e-38
-0.016267579 -0.013681303 0.15100001 1.3061493e-38
0.019701345 -0.011737037 0.15100001 1.5485981e-38
-0.022343412 -0.010683893 0.15100001 1.5168697e-38
0.021726621 -0.0081725502 0.15100001 1.5577816e-38
0.019944377 -0.0076054726 0.15100001 1.6407574e-38
0.02091651 -0.0073624393 0.15100001 1.6407574e-38
0.021483589 -0.0073624393 0.15100001 1.6130987e-38
0.021767126 -0.0065725818 0.15100001 1.613063e-38
0.022131678 -0.0061472729 0.15100001 1.594624e-38
0.017514046 0.013416904 0.15100001 1.4934256e-38
0.018000113 0.013416903 0.15100001 1.4842061e-38
0.016784946 0.014510552 0.15100001 1.5395234e-38
0.017514044 0.014389034 0.15100001 1.5118647e-38
0.01834036 0.014413339 0.15100001 1.4749866e-38
0.017392529 0.015239652 0.15100001 1.5303038e-38
0.018777817 0.015628505 0.15100001 1.484206e-38
0.017514046 0.016767289 0.15100001 1.5487429e-38
0.018607695 0.01669785 0.15100001 1.5026811e-38
0.019822862 0.016819369 0.15100001 1.4843139e-38
0.020187411 0.016940884 0.15100001 1.4935335e-38
0.017514044 0.017669983 0.15100001 1.5579624e-38
0.018194538 0.017669985 0.15100001 1.5395234e-38
0.019822862 0.017426951 0.15100001 1.4935335e-38
0.020430446 0.017426951 0.15100001 1.4843139e-38
0.017635562 0.018399086 0.15100001 1.5671819e-38
0.018243145 0.018399086 0.15100001 1.5395234e-38
0.017635562 0.027634345 0.15100001 1.6408664e-38
0.019159049 -0.015545567 0.15200001 1.3090695e-38
-0.016130669 -0.01401655 0.15200001 1.3157642e-38
0.019097887 -0.014995121 0.15200001 1.3919737e-38
-0.016130669 -0.013771907 0.15200001 1.3061493e-38
0.0196361 -0.013135837 0.15200001 1.5393425e-38
0.020321101 -0.01303798 0.15200001 1.5393066e-38
0.018608602 -0.012548694 0.15200001 1.5669653e-38
0.019464852 -0.012385599 0.152 1.5577457e-38
0.020418959 -0.012450838 0.15200001 1.5485262e-38
-0.021757454 -0.011570124 0.15200001 1.3877239e-38
-0.023225309 -0.010591553 0.15200001 1.4981429e-38
0.018527053 -0.0082266731 0.15200001 1.6222827e-38
0.019412428 -0.0082499729 0.15200002 1.6130631e-38
0.018527055 -0.0075742924 0.15200001 1.649977e-38
0.019307582 -0.0074810949 0.15200002 1.6407574e-38
0.020810386 -0.0071665547 0.15200001 1.649977e-38
0.020810386 -0.0065141744 0.15200001 1.6499412e-38
0.021250743 -0.0064326264 0.15200001 1.6315021e-38
0.020749226 -0.0055152159 0.15200001 1.6039154e-38
0.021218123 -0.0058617932 0.15200001 1.6222827e-38
0.018412888 -0.004524413 0.15200001 1.5578176e-38
0.019097887 -0.004230842 0.15200001 1.5485981e-38
0.020516817 -0.0048669125 0.15200001 1.5485981e-38
0.018503755 -0.0036367096 0.15200002 1.5485981e-38
0.019320289 -0.0035191537 0.152 1.5393785e-38
0.018608602 -0.0025183426 0.15200001 1.6039154e-38
0.019159049 -0.0025795032 0.15200001 1.5946959e-38
0.017807582 -0.015524714 0.15300001 1.4011211e-38
0.018484775 -0.015463152 0.15300001 1.3827179e-38
0.017781198 -0.014355018 0.15300001 1.5209394e-38
0.018648943 -0.014355017 0.15300001 1.5025002e-38
0.019305617 -0.014190848 0.15300001 1.5117198e-38
0.017781198 -0.013405188 0.15300001 1.5669653e-38
0.018648943 -0.013452092 0.15300001 1.5485262e-38
0.019469785 -0.013739387 0.15300001 1.5209034e-38
0.01774602 -0.012631252 0.15300001 1.5854044e-38
0.018238522 -0.012467084 0.15300001 1.5854044e-38
-0.023378108 -0.011153738 0.15300001 1.5165101e-38
-0.022516225 -0.011153738 0.15300001 1.5260534e-38
-0.023624361 -0.010825402 0.15300001 1.497999e-38
0.018731026 -0.0086912159 0.15300001 1.6130631e-38
0.019223532 -0.0086912159 0.15300001 1.6130631e-38
0.017869145 -0.0041355505 0.15300001 1.5670372e-38
0.01774602 -0.0036676708 0.15300001 1.5670372e-38
0.018238522 -0.0030274151 0.15300001 1.5946959e-38
0.018731028 -0.001796154 0.15300001 1.6499414e-38
-0.016573774 -0.02801411 0.155 1.4471463e-38
-0.015825361 -0.02801411 0.155 1.4655854e-38
0.014474561 -0.015564218 0.15400003 1.5024644e-38
0.015383388 -0.015564218 0.15400003 1.4840251e-38
0.016374834 -0.015522907 0.15400003 1.447147e-38
0.017273335 -0.015502253 0.15400003 1.4471829e-38
0.014887664 -0.014696701 0.15400001 1.5670372e-38
