# .PCD v0.7 - Point Cloud Data file format
VERSION 0.7
FIELDS x y z rgb
SIZE 4 4 4 4
TYPE F F F F
COUNT 1 1 1 1
WIDTH 993
HEIGHT 1
VIEWPOINT 0 0 0 1 0 0 0
POINTS 993
DATA ascii
0.057607114 0.010282978 0.126 1.7048889e-38
0.058373231 0.010463242 0.126 1.6864511e-38
0.059026685 0.010080183 0.126 1.5297922e-38
0.048663817 0.011560594 0.12600002 1.3824183e-38
0.04941728 0.011484155 0.12600002 1.4837261e-38
0.050103664 0.011094163 0.126 1.557555e-38
0.058823891 0.011094163 0.126 1.6865948e-38
0.05936468 0.011803948 0.126 1.6587561e-38
0.047579978 0.012603866 0.126 1.4284799e-38
0.048481297 0.012564434 0.12600002 1.6313837e-38
0.049130242 0.012635413 0.126 1.7051766e-38
0.047872912 0.01373051 0.126 1.7511665e-38
0.048481293 0.013578416 0.12600002 1.741983e-38
0.049384657 0.013546151 0.12600002 1.6497128e-38
0.055781949 0.013933306 0.126 1.7047077e-38
0.056390338 0.013933306 0.126 1.7047798e-38
0.047872908 0.014338898 0.126 1.8249233e-38
0.048481304 0.014599634 0.12600002 1.8342865e-38
0.049089685 0.014541693 0.126 1.8619459e-38
0.050712053 0.014744489 0.126 1.8620171e-38
0.048481293 0.015352878 0.126 1.6680799e-38
0.055173561 0.015352878 0.126 1.6588955e-38
0.052851979 0.0089337518 0.127 1.4747238e-38
0.053158585 0.0089337518 0.127 1.5484443e-38
0.055518541 0.008543524 0.12699999 1.3272101e-38
0.056491964 0.0085092178 0.12699999 1.2995519e-38
0.057314832 0.0088315494 0.12699999 1.4653965e-38
0.058064315 0.0089337518 0.127 1.4562857e-38
0.050910123 0.0099557787 0.127 1.5023095e-38
0.051584661 0.0095878495 0.12699999 1.4469927e-38
0.052572623 0.0095742224 0.12699999 1.446956e-38
0.053567391 0.0095980689 0.12699999 1.5759581e-38
0.054528099 0.0097922552 0.12699999 1.6958845e-38
0.055202644 0.0094788326 0.127 1.6220555e-38
0.057314832 0.0091381576 0.127 1.6403881e-38
0.049445216 0.010296456 0.12699999 1.3272813e-38
0.050460428 0.010405472 0.127 1.5115295e-38
0.052851982 0.01036459 0.127 1.6222356e-38
0.053431123 0.010160184 0.127 1.6407109e-38
0.047844041 0.011999833 0.127 1.4470272e-38
0.048252851 0.011678626 0.12699999 1.4193692e-38
0.059699561 0.011591023 0.127 1.6126586e-38
0.047230825 0.012544915 0.127 1.3547954e-38
0.058881938 0.012817455 0.127 1.8986448e-38
0.059571806 0.012587499 0.12699999 1.7695708e-38
0.05039911 0.013839482 0.127 1.575738e-38
0.049888097 0.014248293 0.127 1.7235792e-38
0.050501313 0.014503799 0.127 1.7235426e-38
0.05627577 0.014503799 0.127 1.8063762e-38
0.049547423 0.01527032 0.12699999 1.8066273e-38
0.050228771 0.015338455 0.127 1.7604926e-38
0.052495573 0.0085233944 0.12800001 1.299624e-38
0.053485591 0.0086378483 0.12800001 1.4471376e-38
0.054469883 0.0085233944 0.12800001 1.3917488e-38
0.058212489 0.0087980814 0.12800001 1.3640178e-38
0.051331591 0.0092719151 0.12800001 1.4101509e-38
0.052341063 0.0090040965 0.12800001 1.3917838e-38
0.053989183 0.0090040965 0.12800001 1.5668837e-38
0.054555722 0.0090555996 0.12800001 1.4929828e-38
0.055122271 0.0092787836 0.12800001 1.5022008e-38
0.050445728 0.010075374 0.12800001 1.3641238e-38
0.048220765 0.011476276 0.12800001 1.3733072e-38
0.059551589 0.013124395 0.12800001 1.8341079e-38
0.05033242 0.014746762 0.12800001 1.7974083e-38
0.050898962 0.015184544 0.12800001 1.815847e-38
0.047559366 0.012534847 0.12900001 1.3824911e-38
-0.046017993 -0.045046799 0.13000001 1.3277955e-38
0.048346512 0.011864826 0.13000001 1.3180612e-38
-0.045634028 -0.03543096 0.13100003 1.3184324e-38
0.067371219 0.028780226 0.13500001 1.4651108e-38
0.067390978 0.029525898 0.13500001 1.3544406e-38
0.064532183 0.028610358 0.13600001 1.7884856e-38
0.065170608 0.02864684 0.13600002 1.6410438e-38
0.063711345 0.029814258 0.13600001 1.8806807e-38
0.064368017 0.02948592 0.13600002 1.7884848e-38
0.06530612 0.029532829 0.13600002 1.5486308e-38
0.067286558 0.029850738 0.13600001 1.2993749e-38
0.063623786 0.030492822 0.13600001 1.8806807e-38
0.06436801 0.03043445 0.13600002 1.7884123e-38
0.065353028 0.030434452 0.13600002 1.4745494e-38
0.063429914 0.031502847 0.13600002 1.6962536e-38
0.064368017 0.031455941 0.13600002 1.4839874e-38
-0.018875334 0.0007436829 0.13700001 1.5024995e-38
-0.019169336 0.0012581837 0.13700001 1.6776356e-38
0.063628554 0.028820727 0.13700001 2.0281939e-38
0.064444408 0.028644327 0.13700001 1.8714976e-38
0.061864555 0.029482227 0.13700001 2.2770503e-38
0.062415805 0.029555729 0.13700001 2.2125134e-38
0.063430108 0.029452825 0.13699999 2.0558525e-38
0.064234935 0.029206604 0.13700001 1.8898648e-38
0.061691303 0.030490231 0.13700001 2.1664516e-38
0.062415812 0.030437728 0.13700001 2.0834755e-38
0.063377984 0.030404322 0.13699999 1.9913156e-38
0.061504405 0.031437334 0.13699999 1.9913882e-38
0.062415805 0.031411607 0.13699999 1.9360707e-38
0.063215122 0.031301357 0.13700001 1.8991564e-38
0.060596675 0.03240386 0.13700001 1.7055815e-38
0.061478674 0.032348733 0.13699999 1.7055096e-38
0.062415805 0.032348737 0.13700001 1.5946943e-38
0.063077308 0.032348733 0.13700001 1.4562923e-38
-0.019586895 0.00060103799 0.13800001 1.7237695e-38
-0.019445939 0.001557819 0.13800001 1.7052943e-38
-0.019442525 0.0022002289 0.13800001 1.7052942e-38
0.058577273 0.029623391 0.13800001 2.157304e-38
0.05951013 0.029386479 0.13800001 2.2033298e-38
0.060428187 0.029364264 0.13800001 2.3047807e-38
0.061367884 0.029406978 0.13800001 2.32322e-38
0.062205069 0.029253207 0.13800001 2.2770865e-38
0.058540255 0.030363755 0.13800001 2.0743641e-38
0.059484225 0.030363753 0.13800001 2.1296812e-38
0.060428184 0.030363759 0.13800001 2.2126211e-38
0.061361052 0.030341545 0.13800001 2.2770862e-38
0.058473628 0.031407677 0.13800001 1.9637654e-38
0.059484217 0.031363253 0.13800001 2.0006796e-38
0.060428187 0.031363253 0.13800001 2.0283382e-38
0.061168555 0.031289216 0.13800001 2.0836197e-38
0.0584292 0.032473803 0.13800001 1.5026786e-38
0.059484221 0.032473799 0.13800001 1.7331681e-38
0.060407992 0.032443512 0.13800001 1.7977772e-38
0.061094519 0.032140635 0.13800001 1.9177039e-38
-0.012829236 -0.0013055464 0.14 1.3918646e-38
-0.020232197 0.00071725296 0.13900001 1.7606476e-38
-0.021166403 0.0018490572 0.14 1.7790508e-38
-0.020344056 0.0015002708 0.13900001 1.7882704e-38
-0.021166403 0.0024123793 0.14 1.6960745e-38
-0.020403244 0.0026267257 0.13940001 1.7606114e-38
-0.019337319 0.0026747971 0.13900001 1.6130981e-38
-0.020535482 0.0036066223 0.14 1.5485255e-38
-0.019404788 0.0034697615 0.13914289 1.5485613e-38
0.0148033 0.027318576 0.13975 1.3728769e-38
0.015787529 0.028325194 0.14 1.3267783e-38
0.055487853 0.029637123 0.13960001 1.6133846e-38
0.056391682 0.029632978 0.13900001 1.9452541e-38
0.05755502 0.029644161 0.13900001 2.1112062e-38
0.058405161 0.029599417 0.13900001 2.1757071e-38
0.059076317 0.029465185 0.13900001 2.1756713e-38
0.056466252 0.030471921 0.13900003 1.7793737e-38
0.057454351 0.030471927 0.13900003 1.9820963e-38
0.058293298 0.030471923 0.13900001 2.0650725e-38
0.057454351 0.031590521 0.13900003 1.7331317e-38
0.058256011 0.031515948 0.13900001 1.9268151e-38
0.058181439 0.032373536 0.13900001 1.5763274e-38
-0.013299103 -0.0031682013 0.14100002 1.3918649e-38
-0.012398915 -0.0031984597 0.14100002 1.3642421e-38
-0.011445774 -0.0030169091 0.141 1.3365834e-38
-0.014282503 -0.0022226251 0.141 1.3549138e-38
-0.013488219 -0.0023360944 0.14100002 1.4378906e-38
-0.012353529 -0.0023360942 0.14100002 1.410268e-38
-0.011332304 -0.0023360944 0.14100002 1.3918289e-38
-0.010878428 -0.0022226251 0.141 1.3826093e-38
-0.01348822 -0.0016552792 0.141 1.3272914e-38
-0.012353527 -0.0014283407 0.14100002 1.4010485e-38
-0.011332305 -0.0014283407 0.14100002 1.3918289e-38
-0.010878428 -0.0014283409 0.141 1.3826093e-38
-0.021317592 0.00072757318 0.141 1.7699032e-38
-0.021468885 0.0014462111 0.141 1.7974898e-38
-0.021803886 0.0026241292 0.14100002 1.6776352e-38
-0.021468885 0.0031860715 0.141 1.6131343e-38
-0.013488219 0.01370088 0.14100002 1.3137158e-38
-0.01337475 0.015592033 0.14100002 1.2953494e-38
-0.017270526 0.016764548 0.14100002 1.7659432e-38
-0.016551888 0.016840193 0.14100002 1.6272178e-38
-0.015530664 0.016878018 0.14100002 1.5069674e-38
-0.014509443 0.016499786 0.14100002 1.3873654e-38
-0.013488219 0.016499786 0.14100002 1.3506312e-38
-0.012618289 0.016386317 0.14100002 1.3140047e-38
-0.019229759 0.017634477 0.141 1.5528841e-38
-0.018764537 0.017634477 0.141 1.5434849e-38
-0.017436948 0.017589092 0.14100002 1.6180701e-38
-0.016551889 0.017558832 0.14100002 1.6366177e-38
-0.015530664 0.01755883 0.14100002 1.47009e-38
-0.014509441 0.017558834 0.14100002 1.3322999e-38
-0.013488219 0.017558832 0.14100002 1.3139327e-38
-0.019558819 0.018542228 0.14100002 1.5803641e-38
-0.018594332 0.01854223 0.14100002 1.5621049e-38
-0.017516375 0.01854223 0.14100002 1.5073995e-38
-0.016551888 0.018542232 0.14100002 1.4887448e-38
-0.015530664 0.018542232 0.14100002 1.4238843e-38
-0.014509443 0.01854223 0.14100002 1.3414476e-38
-0.013488219 0.01854223 0.14100002 1.3696102e-38
-0.0201829 0.019903861 0.141 1.5619984e-38
-0.019558821 0.01952563 0.14100002 1.6082037e-38
-0.018594332 0.019525629 0.14100002 1.67328e-38
-0.017516376 0.019525629 0.14100002 1.5255875e-38
-0.016551888 0.01952563 0.14100002 1.4425032e-38
-0.015530664 0.019525632 0.14100002 1.3785052e-38
-0.014509443 0.01952563 0.14100002 1.3970168e-38
-0.013488218 0.01952563 0.14100002 1.3881214e-38
-0.0201829 0.020244269 0.141 1.5804734e-38
-0.019558819 0.020433385 0.14100002 1.5808328e-38
-0.018594332 0.020433385 0.14100002 1.5905199e-38
-0.017516375 0.020433387 0.14100002 1.5162959e-38
-0.016551889 0.020433385 0.14100002 1.4517588e-38
-0.015530664 0.020433387 0.14100002 1.332947e-38
-0.014509441 0.020433385 0.14100002 1.3234762e-38
-0.0201829 0.021946305 0.141 1.5726572e-38
-0.019502087 0.02147622 0.14100002 1.5446743e-38
-0.018594332 0.021435695 0.14100002 1.4703061e-38
-0.017516375 0.021435697 0.14100002 1.4609779e-38
-0.016551888 0.021435695 0.14100002 1.3876526e-38
-0.015530664 0.021435698 0.14100002 1.3231881e-38
-0.014554828 0.021129329 0.141 1.3047133e-38
-0.0201829 0.022173245 0.141 1.5633658e-38
-0.019592863 0.022218633 0.141 1.5631138e-38
-0.017436946 0.022377487 0.14100002 1.4707369e-38
-0.016551889 0.022400182 0.14100002 1.3143274e-38
-0.015530665 0.02240018 0.14100002 1.2954215e-38
-0.018480863 0.023080997 0.141 1.4419996e-38
-0.01745964 0.023178255 0.14100002 1.4055169e-38
-0.016551888 0.023307938 0.14100002 1.3780022e-38
-0.015553357 0.023398709 0.14100002 1.3413034e-38
0.01468996 0.026863301 0.141 1.3730214e-38
0.015219483 0.028300578 0.141 1.326778e-38
-0.023411438 -0.0053237835 0.142 1.3182888e-38
-0.022725794 -0.0053237835 0.142 1.3090692e-38
-0.02359101 -0.0047360887 0.142 1.2998852e-38
-0.02265723 -0.0047295592 0.142 1.3183244e-38
-0.013069647 -0.0043524555 0.142 1.3182526e-38
-0.012783962 -0.0042953184 0.142 1.3182526e-38
-0.013317241 -0.0036477663 0.142 1.3734618e-38
-0.012479232 -0.0036477663 0.142 1.3365836e-38
-0.011755498 -0.0032668535 0.142 1.3273639e-38
-0.01095558 -0.0030383056 0.142 1.345803e-38
-0.01078417 -0.0024097993 0.142 1.3641702e-38
-0.023297163 -0.0012099232 0.142 1.5762923e-38
-0.02265723 -0.0013013423 0.142 1.603951e-38
-0.010635613 -0.0013927614 0.142 1.3733898e-38
-0.023500316 -0.00037191447 0.142 1.6591964e-38
-0.022497246 -0.00046714276 0.14199999 1.7052942e-38
-0.021697329 -0.00041000574 0.142 1.7053303e-38
-0.023411438 0.00054227677 0.142 1.732953e-38
-0.022497246 0.00054227671 0.14199999 1.751428e-38
-0.023297163 0.001075555 0.142 1.7882704e-38
-0.022497248 0.0015326507 0.14199999 1.7974898e-38
-0.01415525 0.012960042 0.142 1.3875435e-38
-0.014475217 0.013691396 0.142 1.414771e-38
-0.019183302 0.014788424 0.142 1.7183682e-38
-0.018429095 0.014559877 0.14199999 1.6814899e-38
-0.01752633 0.014731286 0.142 1.5707836e-38
-0.015183714 0.014483693 0.142 1.4606886e-38
-0.014536162 0.014483694 0.142 1.3873281e-38
-0.020173676 0.015854981 0.142 1.6170257e-38
-0.019361062 0.015601037 0.142 1.6539031e-38
-0.018440522 0.015474067 0.14199999 1.6168454e-38
-0.017431101 0.015474069 0.14199999 1.5249021e-38
-0.016555004 0.015565487 0.14199999 1.4790922e-38
-0.015526537 0.015474068 0.14199999 1.5068947e-38
-0.014570791 0.015432515 0.14199999 1.3781808e-38
-0.013926703 0.015321702 0.142 1.2954211e-38
-0.020409148 0.016575253 0.14199999 1.5806142e-38
-0.019411851 0.016540624 0.142 1.5532421e-38
-0.018440522 0.016540624 0.14199999 1.719089e-38
-0.017446339 0.016342549 0.142 1.6826072e-38
-0.016516911 0.016388258 0.142 1.4977839e-38
-0.015689787 0.016453559 0.142 1.5438813e-38
-0.021240233 0.017188177 0.142 1.4972797e-38
-0.020440316 0.017530996 0.14199999 1.497567e-38
-0.019468987 0.017131038 0.142 1.5072527e-38
-0.01846909 0.017416723 0.142 1.6080945e-38
-0.020554589 0.01852137 0.142 1.4791287e-38
-0.021354508 0.019473653 0.142 1.5809046e-38
-0.020668864 0.01935938 0.142 1.5900161e-38
-0.021285942 0.020547828 0.142 1.6178557e-38
-0.020737428 0.020547828 0.142 1.6175676e-38
-0.02140348 0.021416308 0.142 1.5347357e-38
-0.020583158 0.021387743 0.142 1.5718652e-38
-0.021316415 0.022178136 0.142 1.5536783e-38
-0.020526022 0.02255905 0.142 1.5078685e-38
-0.019411849 0.022673322 0.142 1.5442428e-38
-0.018611932 0.022587618 0.142 1.5159362e-38
-0.020154631 0.023416104 0.142 1.6924753e-38
-0.019411851 0.02347324 0.142 1.4699824e-38
-0.018497659 0.02360384 0.142 1.3868983e-38
-0.017583467 0.023701789 0.142 1.3963337e-38
-0.019297577 0.024158884 0.142 1.3960097e-38
-0.01836434 0.024406476 0.14199999 1.3504877e-38
-0.017431101 0.024501706 0.14199999 1.3965492e-38
-0.016544614 0.024532871 0.14199999 1.3873291e-38
-0.015477561 0.02455068 0.14199999 1.3508104e-38
-0.017202554 0.025377804 0.142 1.3963331e-38
-0.016469296 0.025501605 0.142 1.4154191e-38
-0.015793176 0.02545399 0.142 1.3513136e-38
0.013956135 0.026444362 0.142 1.3548002e-38
0.014478529 0.026607612 0.142 1.3271405e-38
-0.023403689 -0.0043255673 0.14300001 1.3091049e-38
-0.022770755 -0.0043255673 0.14300001 1.3275082e-38
-0.013564463 -0.0044406462 0.14300001 1.3274364e-38
-0.014024777 -0.0037501741 0.14300001 1.4011206e-38
-0.012413676 -0.0037501741 0.14300001 1.3365837e-38
-0.011493047 -0.0032898595 0.14300001 1.3273639e-38
-0.023115993 -0.0021390729 0.14300001 1.4288872e-38
-0.024458578 -0.0013335223 0.14300001 1.5025357e-38
-0.023559868 -0.0015472398 0.14300001 1.5209389e-38
-0.02236798 -0.001448601 0.14300001 1.5855119e-38
-0.01034226 -0.0012184437 0.14300001 1.3365834e-38
-0.024458578 -0.00075812911 0.14300001 1.5763281e-38
-0.023921542 -0.00098828645 0.14300001 1.5947312e-38
-0.022080284 -0.00098828645 0.14300001 1.668488e-38
-0.013334305 0.011900523 0.14300001 1.296786e-38
-0.020162307 0.012744433 0.14300001 1.8049408e-38
-0.019663632 0.012821152 0.14300001 1.823308e-38
-0.014139855 0.012475916 0.14300001 1.3417689e-38
-0.020123946 0.013454084 0.14300001 1.7949301e-38
-0.019506706 0.013574394 0.14300001 1.7944266e-38
-0.018627923 0.013971939 0.14300001 1.7190872e-38
-0.017505908 0.013828091 0.14300001 1.6816694e-38
-0.016556509 0.013856861 0.14300001 1.5985497e-38
-0.015578339 0.013799321 0.14300001 1.5065705e-38
-0.014715249 0.013281466 0.14300001 1.4702316e-38
-0.020123947 0.01466241 0.14300001 1.7559305e-38
-0.019586911 0.014470612 0.14300001 1.7374191e-38
-0.017542897 0.014399373 0.14300001 1.617061e-38
-0.016556509 0.014585691 0.14300001 1.543197e-38
-0.015866036 0.014585692 0.14300001 1.5248298e-38
-0.022367982 0.015698118 0.14300001 1.690783e-38
-0.021543249 0.015813196 0.14300001 1.7372763e-38
-0.020545902 0.015378456 0.14300001 1.7096534e-38
-0.01977871 0.015122725 0.14300001 1.6816344e-38
-0.016671587 0.015122725 0.14300001 1.506499e-38
-0.022259297 0.016554816 0.14300001 1.6078424e-38
-0.021619968 0.016434621 0.14300001 1.6078787e-38
-0.020929497 0.016043354 0.14300001 1.6170621e-38
-0.023000913 0.017654456 0.14300001 1.5070378e-38
-0.02238716 0.017501017 0.14300001 1.5250101e-38
-0.021792587 0.017596915 0.14300001 1.4972798e-38
-0.023092976 0.018390957 0.14300001 1.5618165e-38
-0.02238716 0.018344929 0.14300001 1.5156471e-38
-0.0215912 0.018373698 0.14300001 1.4513261e-38
-0.023000913 0.019265557 0.14300001 1.691144e-38
-0.022387162 0.019438175 0.14300001 1.636402e-38
-0.021658329 0.019265557 0.14300001 1.4977126e-38
-0.022339212 0.020387573 0.14300001 1.7107346e-38
-0.021850126 0.020416342 0.14300001 1.7013354e-38
-0.022281673 0.021452051 0.14300001 1.6552736e-38
-0.022272082 0.022411041 0.14300001 1.5626457e-38
-0.021658329 0.022794636 0.14300001 1.553678e-38
-0.021543249 0.023638545 0.14300001 1.5722605e-38
-0.020837435 0.023684578 0.14300001 1.7110576e-38
-0.020446168 0.024536159 0.14300001 1.4885292e-38
-0.019548554 0.02469727 0.14300001 1.3961535e-38
-0.020469181 0.025203615 0.14300001 1.3596351e-38
-0.019433474 0.025019489 0.14300001 1.3688186e-38
-0.018648846 0.025584422 0.14300001 1.3967291e-38
-0.017707294 0.025808601 0.14300001 1.3871138e-38
-0.019203316 0.02663059 0.14300001 1.3782181e-38
-0.018627923 0.026553869 0.14300001 1.3412681e-38
-0.017592216 0.026553869 0.14300001 1.3135012e-38
-0.016556509 0.026553869 0.14300001 1.3413033e-38
-0.013891086 -0.0047034663 0.14400001 1.3274364e-38
-0.012732252 -0.0042399326 0.14400001 1.3090329e-38
-0.025131775 -0.0034866906 0.14400001 1.308961e-38
-0.02469142 -0.0035446319 0.14400001 1.3182165e-38
-0.023857059 -0.003776399 0.14400001 1.3367635e-38
-0.025402168 -0.0025016814 0.14400002 1.3365834e-38
-0.024573432 -0.0024700772 0.14400002 1.3550947e-38
-0.023779804 -0.0023085426 0.14400001 1.4104481e-38
-0.02524766 -0.0016904979 0.14400001 1.4011205e-38
-0.024668243 -0.0016904979 0.14400001 1.4563661e-38
-0.022234691 -0.0016904979 0.14400001 1.5670728e-38
-0.019917022 0.0098978421 0.14400001 1.5293944e-38
-0.02014879 0.010593142 0.14400001 1.593608e-38
-0.019569373 0.010622114 0.14400001 1.639706e-38
-0.020226045 0.011906487 0.14400001 1.7221437e-38
-0.019530745 0.011578151 0.14400002 1.7593098e-38
-0.018526422 0.011713349 0.14400002 1.7594545e-38
-0.017483473 0.011780948 0.14400001 1.6855185e-38
-0.016595032 0.011983742 0.14400001 1.611114e-38
-0.015513454 0.011983743 0.14400001 1.5088711e-38
-0.014412561 0.011925801 0.14400001 1.3982366e-38
-0.021249684 0.012852869 0.14400001 1.8045089e-38
-0.020438498 0.012505218 0.14400001 1.7773539e-38
-0.01948246 0.012650073 0.14400001 1.8142323e-38
-0.018468479 0.012679043 0.14400002 1.7586269e-38
-0.017444842 0.012679044 0.14400001 1.69337e-38
-0.01659503 0.012679044 0.14400001 1.6280779e-38
-0.015513455 0.012679043 0.14400002 1.4982494e-38
-0.014760211 0.012621103 0.14400001 1.4337845e-38
-0.022408517 0.013779935 0.14400001 1.7646459e-38
-0.021423509 0.013528856 0.14400002 1.8219409e-38
-0.020535069 0.013683367 0.14400001 1.8039697e-38
-0.019337606 0.013606111 0.14400001 1.7943544e-38
-0.018505352 0.013500762 0.14400002 1.7383895e-38
-0.017460296 0.013327991 0.14400001 1.7009712e-38
-0.01659503 0.013374344 0.14400001 1.6175637e-38
-0.015571395 0.013258461 0.14400001 1.5161134e-38
-0.024413301 0.014764945 0.14400001 1.6172408e-38
-0.023625292 0.014687689 0.14400001 1.617133e-38
-0.022582341 0.014533178 0.14400002 1.6907102e-38
-0.021423506 0.014533177 0.14400002 1.7746575e-38
-0.020612324 0.014378667 0.14400001 1.7844164e-38
-0.024413301 0.015552953 0.14400001 1.681275e-38
-0.023625292 0.015614758 0.14400001 1.6721999e-38
-0.022565788 0.015427135 0.14400001 1.6723799e-38
-0.021585744 0.015413892 0.14400001 1.8021011e-38
-0.023559073 0.016420422 0.14400001 1.654012e-38
-0.022929991 0.016464569 0.14400001 1.6079146e-38
-0.023586666 0.01731438 0.14400001 1.5998433e-38
-0.023779802 0.018280074 0.14400001 1.589726e-38
-0.023741176 0.019400282 0.14400001 1.6263193e-38
-0.023578938 0.020396881 0.14400002 1.6822846e-38
-0.022929993 0.020790882 0.14400001 1.6277585e-38
-0.023393525 0.021602066 0.14400001 1.5444946e-38
-0.022929991 0.021563439 0.14400001 1.5907725e-38
-0.023393525 0.022645017 0.14400001 1.6088874e-38
-0.022852739 0.022799527 0.14400001 1.5627177e-38
-0.022632007 0.023538973 0.14400001 1.5254074e-38
-0.022437487 0.02449915 0.14400001 1.4799929e-38
-0.02153939 0.02469229 0.14400001 1.5355622e-38
-0.021365566 0.025657985 0.14400001 1.3509551e-38
-0.020334203 0.025797043 0.14400001 1.3877258e-38
-0.019685257 0.025773868 0.14400001 1.3785062e-38
-0.021191742 0.026121518 0.14400001 1.3783624e-38
-0.020351585 0.026382254 0.14400001 1.406417e-38
-0.01980114 0.026353287 0.14400001 1.3789024e-38
-0.020206731 0.027280349 0.14400001 1.3509553e-38
0.016702136 0.02959802 0.14400001 1.3084114e-38
-0.024289448 -0.0035025687 0.145 1.327508e-38
-0.023555985 -0.0035692474 0.145 1.3459472e-38
-0.024209436 -0.0027757683 0.14500001 1.3643503e-38
-0.023462633 -0.0025423919 0.14500001 1.4104482e-38
-0.022855852 -0.00216899 0.14500001 1.484169e-38
-0.020366503 0.0098109925 0.14500001 1.5386142e-38
-0.019588584 0.0096165119 0.145 1.4096471e-38
-0.020522088 0.010433329 0.14500001 1.6122272e-38
-0.019355206 0.010433329 0.14500001 1.6306298e-38
-0.018684251 0.010695877 0.145 1.6675459e-38
-0.017604886 0.010666706 0.145 1.566131e-38
-0.016438004 0.010900081 0.14500001 1.4923027e-38
-0.020599879 0.011522419 0.14500001 1.6484948e-38
-0.018655078 0.011133458 0.14500001 1.7319756e-38
-0.017534871 0.011226809 0.14500001 1.639744e-38
-0.016438002 0.011522419 0.145 1.5563364e-38
-0.015416982 0.011571039 0.145 1.4544894e-38
-0.014512648 0.011541866 0.14500001 1.3623296e-38
-0.022272412 0.012767092 0.14500001 1.8219409e-38
-0.021455593 0.012650404 0.14500001 1.77703e-38
-0.020988841 0.012066963 0.14500001 1.7128521e-38
-0.023205917 0.013642253 0.14500001 1.7276239e-38
-0.022529125 0.013233845 0.14500001 1.8115349e-38
-0.024139423 0.014167351 0.14500001 1.6263883e-38
-0.023789357 0.014167351 0.14500001 1.6170969e-38
-0.024396135 0.01664114 0.14500001 1.6904954e-38
-0.024333902 0.017279034 0.14500001 1.7280915e-38
-0.024022734 0.021635391 0.14500001 1.6735328e-38
-0.022155723 0.025136035 0.14500001 1.3789372e-38
-0.021844557 0.025447203 0.14500001 1.387905e-38
-0.021572281 0.026419604 0.14500001 1.4522984e-38
0.016818123 0.030270312 0.14500001 1.3452174e-38
-0.017348172 0.031390518 0.14500001 1.2958893e-38
-0.023718435 -0.0028889058 0.14600001 1.392009e-38
-0.022778492 -0.0014789911 0.14600001 1.5947315e-38
0.04707104 0.0053943433 0.14600001 1.3459009e-38
-0.021041747 0.0096308561 0.147 1.5017354e-38
-0.020428633 0.0095653404 0.14600001 1.4742204e-38
-0.021436073 0.010734968 0.147 1.6768013e-38
-0.020663619 0.010975255 0.14600001 1.6120121e-38
-0.01847042 0.010191969 0.14600001 1.446419e-38
-0.017138833 0.010622776 0.14600001 1.4832269e-38
-0.016498245 0.010434592 0.14611113 1.3634445e-38
-0.015570553 0.010663778 0.14657143 1.3079836e-38
-0.022500752 0.011839078 0.147 1.8327068e-38
-0.021627782 0.011578435 0.1468 1.7316872e-38
-0.015293784 0.011313627 0.14633334 1.3813085e-38
-0.014788975 0.011445226 0.14600001 1.35347e-38
-0.024196351 0.012627729 0.147 1.8487729e-38
-0.023475351 0.012633197 0.14650001 1.8489165e-38
-0.022620035 0.012405393 0.14680001 1.8410631e-38
-0.021721058 0.012385169 0.14600001 1.7863572e-38
-0.024496038 0.01341638 0.147 1.8014527e-38
-0.023624441 0.013278115 0.14600001 1.7831931e-38
-0.024590677 0.014126167 0.147 1.6999651e-38
-0.023953421 0.01403007 0.14600001 1.6630868e-38
-0.021535663 0.027487138 0.14633335 1.3505595e-38
0.016464138 0.030479075 0.14600001 1.3819517e-38
0.059936516 0.030714061 0.14600001 2.074328e-38
0.0601715 0.030831553 0.14600001 2.0835475e-38
0.030414488 0.038444106 0.14626667 1.3738594e-38
0.034793235 -0.0011419442 0.148 1.2993746e-38
0.034793235 -0.00054643233 0.148 1.3638751e-38
0.035686504 0.00058504025 0.148 1.2993024e-38
0.013473909 0.0096963728 0.148 1.3367279e-38
0.014164704 0.009648731 0.148 1.3090692e-38
0.013593012 0.010410986 0.148 1.355167e-38
0.014069422 0.010410986 0.148 1.3551673e-38
-0.022614116 0.011284404 0.148 1.7872207e-38
0.016213264 0.014936877 0.148 1.3459477e-38
0.015677303 0.015413288 0.148 1.3459475e-38
0.016383413 0.015413286 0.148 1.3275086e-38
0.060439955 0.030737793 0.148 2.0651444e-38
0.016689675 0.031134801 0.148 1.3727319e-38
0.035108265 -0.00015043402 0.149 1.363911e-38
0.035238165 0.00067892368 0.149 1.3455806e-38
0.036227398 0.001848018 0.149 1.37313e-38
0.036467209 0.0024075846 0.149 1.3087378e-38
0.013924671 0.010841052 0.149 1.3275086e-38
0.014164485 0.010960959 0.149 1.2999578e-38
0.034056298 -0.0023644948 0.15000001 1.3178479e-38
0.034257483 -0.0014390369 0.14999999 1.3179574e-38
0.016432364 0.012000218 0.15000001 1.3088486e-38
0.015949516 0.03131412 0.15000001 1.4647843e-38
-0.0060601826 0.0038170898 0.15100001 1.3181443e-38
0.015569779 0.031522878 0.15100001 1.5571597e-38
0.016784946 0.032251976 0.15100001 1.3359252e-38
0.010854932 0.038376413 0.15100001 1.3830073e-38
0.01119518 0.038449325 0.15100001 1.3830073e-38
0.015569779 0.038327809 0.15100001 1.3091785e-38
0.01075772 0.03915412 0.15100001 1.3921906e-38
0.011438213 0.039178427 0.15100001 1.3461289e-38
0.015407756 0.039461963 0.15100001 1.3091789e-38
0.014516636 0.040677126 0.15100001 1.3553126e-38
0.015326747 0.040515099 0.15100001 1.3091786e-38
0.014354613 0.041547999 0.15100001 1.392155e-38
0.013503997 0.042732786 0.15100001 1.3737875e-38
0.014354613 0.042702403 0.15100001 1.3369454e-38
0.012896413 0.043917574 0.15100001 1.3369095e-38
0.013463492 0.043593526 0.15100001 1.2999592e-38
0.014354613 0.044484653 0.15100001 1.3092508e-38
0.0099800136 0.048413686 0.15100001 1.3185061e-38
0.011600236 0.048535198 0.15100001 1.3922269e-38
0.012572369 0.048535202 0.15100001 1.3369092e-38
0.010871135 0.049345315 0.15100001 1.4014464e-38
0.011600236 0.04938582 0.15100001 1.4844582e-38
0.014354613 0.050600987 0.15100001 1.3553481e-38
-0.017231563 -0.0056171506 0.15200001 1.2997776e-38
-0.016619954 -0.0056171506 0.15200001 1.2998135e-38
-0.017190788 -0.0048832223 0.15200001 1.3366559e-38
-0.016619954 -0.0048424485 0.15200001 1.3274364e-38
0.014694318 0.031813186 0.15200001 1.4742557e-38
0.015489407 0.031915121 0.15200001 1.4925868e-38
0.016162174 0.031976283 0.15200001 1.4096104e-38
0.014612771 0.032710209 0.15200001 1.2992656e-38
0.015591342 0.032710209 0.15200001 1.2991554e-38
0.013960388 0.033607233 0.15200001 1.3090323e-38
0.012981819 0.034911994 0.15200001 1.3644599e-38
0.013746327 0.034636773 0.15200001 1.3276175e-38
0.012883961 0.035548069 0.15200001 1.3552763e-38
0.013715747 0.035482828 0.15200001 1.3737154e-38
0.014612771 0.035482828 0.15200001 1.3368731e-38
0.015591342 0.035482831 0.15200001 1.2999585e-38
0.012709994 0.036434215 0.15200001 1.3921546e-38
0.013715747 0.036379851 0.15200001 1.3552765e-38
0.014612771 0.036379848 0.15200001 1.3276176e-38
0.015591342 0.036379848 0.15200001 1.3183981e-38
0.01158386 0.037393373 0.15200002 1.5119727e-38
0.012614854 0.037358426 0.152 1.3183981e-38
0.014612769 0.037358422 0.15200001 1.2998869e-38
0.015550567 0.037327845 0.15200001 1.3183979e-38
0.010168428 0.038703959 0.15200001 1.3738233e-38
0.01159551 0.038445722 0.15200001 1.3645682e-38
0.013715747 0.038459316 0.152 1.3460569e-38
0.014612772 0.038459316 0.152 1.4934976e-38
0.015281459 0.03838592 0.15200001 1.3460206e-38
0.010209202 0.03956021 0.15200001 1.3921547e-38
0.013785645 0.039595153 0.15200002 1.3276899e-38
0.014612771 0.039560206 0.15200001 1.3553126e-38
0.012709994 0.040538777 0.15200001 1.3185424e-38
0.014400746 0.040391989 0.15200001 1.3645322e-38
0.010596553 0.041700833 0.15200001 1.5304477e-38
0.011544542 0.041486766 0.15200001 1.4291047e-38
0.010535392 0.042495918 0.152 1.6318626e-38
0.011513963 0.042495921 0.152 1.4750583e-38
0.010535393 0.043556042 0.15200001 1.6779245e-38
0.011513963 0.043556042 0.15200001 1.3828268e-38
0.012492534 0.043556042 0.15200001 1.3460569e-38
0.010453844 0.044534609 0.15200001 1.585729e-38
0.011513963 0.044534609 0.15200001 1.5120088e-38
0.0094344988 0.045676276 0.15200001 1.3368732e-38
0.010443651 0.045523375 0.15200001 1.364496e-38
0.011452802 0.045370474 0.15200001 1.3368372e-38
0.0072327144 0.04689949 0.15200001 1.3552763e-38
0.0095568206 0.046165559 0.15200001 1.3737878e-38
0.0068657505 0.047633421 0.15200001 1.3552763e-38
0.0074365833 0.047633413 0.15200001 1.3921546e-38
0.008088964 0.047633417 0.15200001 1.3737154e-38
0.01044643 0.047655653 0.152 1.3000314e-38
0.0067678937 0.048660915 0.15200001 1.3738233e-38
0.0074365833 0.048611987 0.15200001 1.3553842e-38
0.0068045896 0.04940708 0.15200001 1.3553486e-38
0.0073142624 0.049386691 0.15200001 1.3737876e-38
0.011391642 0.050079845 0.15200001 1.5213364e-38
0.012328469 0.029724129 0.15300001 1.3362506e-38
0.010850956 0.030955389 0.15300001 1.4013378e-38
0.011589713 0.030807639 0.15300001 1.3182879e-38
0.013231394 0.030791221 0.15300001 1.4008231e-38
0.010534346 0.031729322 0.15300001 1.4105577e-38
0.011425545 0.031694148 0.15300001 1.3644593e-38
0.01232847 0.031694148 0.15300001 1.3274704e-38
0.013436603 0.031694144 0.15300001 1.3547623e-38
0.014298487 0.031694148 0.15300001 1.4375212e-38
0.010440536 0.032597072 0.15300001 1.3552403e-38
0.011425545 0.032597072 0.15300001 1.3828987e-38
0.01232847 0.032597076 0.15300001 1.3366926e-38
0.0098659471 0.03358208 0.15300001 1.3736794e-38
0.010440536 0.03358208 0.15300001 1.3644599e-38
0.011425545 0.033582076 0.15300001 1.3644959e-38
0.01232847 0.033582076 0.15300001 1.3459847e-38
0.0098659471 0.034485001 0.15300001 1.3921187e-38
0.010440536 0.034485005 0.15300001 1.382899e-38
0.011425545 0.034485001 0.15300001 1.3552763e-38
0.01232847 0.034485005 0.15300001 1.3275816e-38
0.013231394 0.03436188 0.15300001 1.3737154e-38
0.0097428206 0.035387933 0.15300001 1.3367656e-38
0.010440536 0.035387933 0.15300001 1.4382164e-38
0.011425545 0.03538793 0.15300001 1.4013741e-38
0.012297688 0.035357147 0.15300001 1.3460568e-38
0.0096548731 0.036408119 0.15300001 1.3552765e-38
0.011425545 0.036372934 0.15300001 1.4013381e-38
0.012180719 0.036323685 0.15300001 1.4382164e-38
0.0088809375 0.037357949 0.15300001 1.4659111e-38
0.0095376112 0.037357952 0.15300001 1.3461288e-38
0.010440535 0.037357949 0.15300001 1.3553123e-38
0.01129421 0.037259448 0.15300001 1.5672541e-38
0.0069109197 0.038712338 0.15300001 1.4935698e-38
0.0076804576 0.038619991 0.15300001 1.4383243e-38
0.0085731223 0.038773898 0.15300001 1.401482e-38
0.0093734423 0.038835462 0.15300001 1.3922625e-38
0.0065415413 0.03949213 0.15300001 1.5120089e-38
0.0076496759 0.039492134 0.15300001 1.4474719e-38
0.0086346855 0.03949213 0.15300001 1.3830429e-38
0.0094438 0.039539039 0.15300001 1.3553482e-38
0.0091271903 0.041790489 0.15300001 1.3000312e-38
0.0066646673 0.042282995 0.15300001 1.4290328e-38
0.0095376112 0.042324033 0.15300001 1.4383243e-38
0.0067877937 0.04302175 0.15300001 1.4659111e-38
0.0076496764 0.04302175 0.15300001 1.3552409e-38
0.0083884336 0.04302175 0.15300001 1.410666e-38
0.0096744169 0.043432165 0.15300001 1.6318629e-38
0.0095889131 0.044468485 0.15300001 1.6779607e-38
0.0045715235 0.046777092 0.15300001 1.4199212e-38
0.0054334062 0.046961784 0.15300001 1.4291049e-38
0.0045304815 0.047618456 0.15300001 1.548995e-38
0.0054334067 0.047618456 0.15300001 1.4566915e-38
0.0062706633 0.047700543 0.15300001 1.3737154e-38
0.0046536075 0.048480343 0.15300001 1.530448e-38
0.0054334067 0.048603464 0.15300001 1.4198493e-38
0.0062706633 0.048537798 0.15300001 1.4106657e-38
0.0054641878 0.049455091 0.15300001 1.4013741e-38
0.0062337262 0.049608998 0.15300001 1.3921549e-38
0.0051871543 0.05336434 0.15300001 1.32787e-38
0.0047560176 -0.011050068 0.155 1.3368361e-38
0.010493856 0.010903398 0.155 1.484206e-38
0.009911757 0.011734969 0.155 1.4473278e-38
0.01036912 0.011485497 0.15499999 1.484206e-38
0.012489626 0.011152869 0.155 1.3365055e-38
0.0098701781 0.012400225 0.15499999 1.4565473e-38
0.01052504 0.012431409 0.15499999 1.465767e-38
0.011491741 0.01252496 0.15499999 1.4104848e-38
0.012339944 0.012450119 0.155 1.3458715e-38
0.009887998 0.013505027 0.15499999 1.4749864e-38
0.010577013 0.013522846 0.15499999 1.465767e-38
0.011491741 0.013522845 0.15499999 1.4104494e-38
0.012489627 0.013522845 0.15499999 1.3366535e-38
0.015697112 0.013326832 0.15499999 1.2999221e-38
0.0098701781 0.014645468 0.15499999 1.4749863e-38
0.010577013 0.014645468 0.15499999 1.4749864e-38
0.011491741 0.014645468 0.15499999 1.4473278e-38
0.012489627 0.014645468 0.15499999 1.3827537e-38
0.0098701781 0.015643353 0.15499999 1.4934256e-38
0.010577013 0.015643351 0.15499999 1.484206e-38
0.011491741 0.015643351 0.15499999 1.419777e-38
0.012489627 0.015643351 0.15499999 1.3921179e-38
0.0089970287 0.016890708 0.155 1.5118647e-38
0.0096622854 0.016558081 0.15499999 1.4934256e-38
0.010577013 0.016558079 0.15499999 1.4749864e-38
0.011491741 0.016558079 0.15499999 1.4381441e-38
0.012489627 0.016558079 0.15499999 1.4105573e-38
0.0088972403 0.017489437 0.155 1.5026451e-38
0.0096622854 0.017472807 0.15499999 1.484206e-38
0.010577013 0.017472807 0.15499999 1.4657669e-38
0.011491741 0.017472807 0.15499999 1.4197051e-38
0.012489627 0.017472807 0.15499999 1.419777e-38
0.013416233 0.017425288 0.15499999 1.3366919e-38
0.0079991436 0.018886477 0.155 1.5302317e-38
0.0087119183 0.018565729 0.15499999 1.4933535e-38
0.0096622854 0.018470693 0.15499999 1.4565113e-38
0.010577013 0.018470692 0.15499999 1.4288528e-38
0.011441847 0.018237853 0.155 1.3921183e-38
0.012489627 0.018138064 0.155 1.4105574e-38
0.013362775 0.018138064 0.155 1.392118e-38
0.0078744078 0.01938542 0.15499999 1.5487069e-38
0.0086644003 0.01938542 0.15499999 1.5118647e-38
0.0095672486 0.01934978 0.15499999 1.4842059e-38
0.0065023159 0.020882247 0.155 1.5671099e-38
0.0079991436 0.02050804 0.155 1.5579622e-38
0.0086644003 0.020508042 0.15499999 1.5487068e-38
0.0094128139 0.02050804 0.15499999 1.502645e-38
0.0079991436 0.02163066 0.155 1.4932817e-38
0.0086644003 0.02163066 0.15499999 1.5210122e-38
0.0094128139 0.021464348 0.155 1.5025731e-38
0.0079991436 0.022379074 0.155 1.5210124e-38
0.0086644003 0.022379076 0.155 1.5394512e-38
0.007674831 0.028640801 0.15499999 1.299814e-38
0.0086644003 0.028615853 0.15499999 1.3276158e-38
0.0067517878 0.029738473 0.155 1.419777e-38
0.0075625689 0.029613735 0.15499999 1.35524e-38
0.010550085 0.029670544 0.15400003 1.3276165e-38
0.011634479 0.029639561 0.15400003 1.3642379e-38
0.012161186 0.029670544 0.15400001 1.4284827e-38
0.0057539023 0.030736357 0.155 1.4935338e-38
0.0065023159 0.030528465 0.15499999 1.4473999e-38
0.0075625689 0.030528462 0.15499999 1.401266e-38
0.0085693644 0.030469069 0.15499999 1.3828623e-38
0.0094347065 0.030661991 0.15400003 1.4474358e-38
0.010550085 0.030661993 0.15400003 1.4289965e-38
0.011479566 0.030600024 0.15400001 1.3459469e-38
0.005575709 0.031502593 0.15499999 1.4105578e-38
0.0065023159 0.031443194 0.15499999 1.4658749e-38
0.0075625689 0.031443194 0.15499999 1.4013021e-38
0.0084735407 0.031573057 0.15455556 1.465839e-38
0.0094347065 0.031570818 0.15400003 1.4935336e-38
0.010240257 0.031467542 0.15400001 1.4382162e-38
0.0044753626 0.032576207 0.15499999 1.4013385e-38
0.0055044312 0.03244108 0.15499999 1.3829353e-38
0.0065023159 0.032441076 0.15499999 1.5120089e-38
0.0074753365 0.032459959 0.15450001 1.4382164e-38
0.0084432596 0.032479648 0.15400003 1.4750946e-38
0.0094347084 0.032479644 0.15400003 1.4382164e-38
0.0043818108 0.033355806 0.15499999 1.4198133e-38
0.0055044307 0.033355806 0.15499999 1.4290328e-38
0.0065681236 0.033386964 0.15479998 1.4750946e-38
0.0075344336 0.033471089 0.15400003 1.4474361e-38
0.0084432606 0.033471093 0.15400003 1.4382164e-38
0.0093638897 0.033423878 0.15400003 1.4382164e-38
0.0033839257 0.034478426 0.155 1.36446e-38
0.0044067581 0.034486737 0.15499999 1.5119729e-38
0.0055044307 0.034478422 0.15499999 1.4566555e-38
0.0065167826 0.034472004 0.15481818 1.373644e-38
0.0075344336 0.034379914 0.15400003 1.4105221e-38
0.0084432606 0.034379914 0.15400003 1.4105577e-38
0.0093107764 0.034379918 0.15400003 1.4474359e-38
0.0033839254 0.035601046 0.15499999 1.5211924e-38
0.0043818108 0.035601046 0.15499999 1.530412e-38
0.0055044312 0.03560105 0.15499999 1.4105221e-38
0.0066253794 0.035512649 0.15440002 1.4843503e-38
0.0075757429 0.035420936 0.15400003 1.4843502e-38
0.0084432606 0.035495292 0.15400003 1.4290328e-38
0.0092364177 0.035420936 0.15400001 1.3368013e-38
0.0033839254 0.036598932 0.15499999 1.5118291e-38
0.0043818108 0.036598936 0.15499999 1.4104858e-38
0.0055044307 0.036598928 0.15499999 1.4750946e-38
0.0065838811 0.036605638 0.15442859 1.4658751e-38
0.0075934483 0.036681484 0.15400003 1.4658751e-38
0.0084432596 0.03661067 0.15400003 1.4750946e-38
0.0091868453 0.036486741 0.15400001 1.3921546e-38
0.0033839254 0.037513658 0.15499999 1.5211922e-38
0.0043818108 0.037513662 0.15499999 1.4382162e-38
0.0055847312 0.037552614 0.15472727 1.4934977e-38
0.0065841782 0.037532493 0.15427274 1.4197772e-38
0.0074872221 0.037531305 0.15400003 1.4105577e-38
0.0083936881 0.037453406 0.15400001 1.4843142e-38
0.0033304673 0.038380869 0.15499999 1.4659108e-38
0.0043069692 0.038395118 0.15499999 1.4566912e-38
0.0056900354 0.038500354 0.15412502 1.4566915e-38
0.0065842965 0.038469635 0.15400003 1.4658751e-38
0.007203951 0.038345702 0.15400001 1.4198133e-38
0.0086911218 0.038841426 0.15400001 1.3922625e-38
0.0045996229 0.039269052 0.15457143 1.5212285e-38
0.0055397372 0.03937256 0.15400003 1.4935698e-38
0.0064603658 0.039089289 0.15400001 1.5027893e-38
0.0026598189 0.040659081 0.15400001 1.382935e-38
0.0035568425 0.040611867 0.15400003 1.4475078e-38
0.0049731955 0.040411219 0.15400001 1.4752385e-38
0.0055928505 0.040452529 0.15400003 1.3460207e-38
0.0025653953 0.041284632 0.15400003 1.3091425e-38
0.003609956 0.041320052 0.15400003 1.5027892e-38
0.0046261894 0.0412209 0.15400001 1.3829349e-38
0.0026598189 0.042146251 0.15400001 1.4658755e-38
0.0036099558 0.042382307 0.15400003 1.4936056e-38
0.0058820215 0.042352799 0.15400003 1.3368376e-38
0.0039817486 0.046773002 0.15400001 1.3922625e-38
0.0037338866 0.04733954 0.15400003 1.3830429e-38
0.003651266 0.048094932 0.15400001 1.4475443e-38
0.0047253338 0.049499482 0.15400001 1.4197417e-38
0.0026598189 0.051895481 0.15400001 1.3369451e-38
0.0017509925 0.052845612 0.15400001 1.4107378e-38
0.0025255606 0.052752666 0.15400003 1.3276901e-38
0.0036099562 0.052721683 0.15400003 1.2999952e-38
0.004477472 0.052969545 0.15400001 1.346237e-38
0.0024945778 0.053630512 0.15400003 1.3276178e-38
0.0026185086 0.054208852 0.15400001 1.3091425e-38
0.0036099558 0.054208852 0.15400001 1.3368733e-38
0.0047867014 -0.011372439 0.156 1.3183969e-38
0.0088039925 0.0036924025 0.156 1.3184332e-38
0.0075485893 0.0049478058 0.156 1.3921183e-38
0.0084616104 0.0045597721 0.156 1.3460563e-38
0.0094854981 0.004589119 0.156 1.3183604e-38
0.0074230488 0.0054499675 0.156 1.4013378e-38
0.0084273722 0.005449967 0.156 1.3644596e-38
0.009557236 0.0054499675 0.156 1.3183965e-38
0.0074230488 0.0065798298 0.156 1.4105574e-38
0.0084273713 0.0065798308 0.15599999 1.4105215e-38
0.0095572351 0.0065798298 0.156 1.3644592e-38
0.010447429 0.0066140681 0.156 1.2998824e-38
0.0075485893 0.0075841532 0.156 1.4381082e-38
0.0084273713 0.0077096932 0.156 1.4105215e-38
0.009557236 0.0077096936 0.156 1.4197408e-38
0.010477863 0.0077096936 0.156 1.364385e-38
0.011063719 0.007960774 0.156 1.3182128e-38
0.0075485893 0.0088395569 0.156 1.419777e-38
0.0084273722 0.0087140165 0.156 1.4105574e-38
0.009557236 0.0087140165 0.156 1.4750583e-38
0.010477864 0.0087140165 0.156 1.410484e-38
0.011386536 0.0087498855 0.156 1.3274318e-38
0.0075485893 0.0096346447 0.156 1.4749864e-38
0.0084273722 0.0096346447 0.156 1.4289245e-38
0.0095572351 0.0096346447 0.156 1.484242e-38
0.010477864 0.0096346447 0.156 1.4565105e-38
0.011482187 0.0096346447 0.156 1.3642387e-38
0.0075485893 0.010555275 0.156 1.4657669e-38
0.0084273713 0.010555275 0.156 1.4473278e-38
0.009557236 0.010555275 0.156 1.484206e-38
0.010467403 0.010502967 0.156 1.4842056e-38
0.011482187 0.010555274 0.156 1.3919348e-38
0.012068043 0.010973742 0.156 1.3458348e-38
0.0064605731 0.011810678 0.156 1.4933894e-38
0.0073288935 0.011601444 0.156 1.4381082e-38
0.0084273731 0.011559598 0.156 1.4012299e-38
0.0094735418 0.011434056 0.156 1.4288886e-38
0.010812637 0.011559598 0.156 1.4565472e-38
0.011482187 0.011559598 0.156 1.382789e-38
0.012068043 0.011559598 0.156 1.3550925e-38
0.0063245706 0.012448841 0.156 1.5302317e-38
0.0072975084 0.012480226 0.156 1.5210482e-38
0.0084273713 0.012480228 0.156 1.484206e-38
0.0093061542 0.012480226 0.156 1.4381082e-38
0.010812638 0.012229146 0.156 1.4565473e-38
0.011482187 0.012229147 0.156 1.4012651e-38
0.0064187259 0.01361009 0.156 1.5210122e-38
0.007297508 0.013610091 0.156 1.5302678e-38
0.0084273722 0.013610091 0.15599999 1.5118646e-38
0.0093563702 0.013635199 0.156 1.484206e-38
0.0062931855 0.014739956 0.156 1.4841338e-38
0.0072975084 0.014739956 0.156 1.4749146e-38
0.0084273713 0.014739954 0.156 1.484206e-38
0.0093061542 0.014739954 0.156 1.4842059e-38
0.0062931855 0.015744276 0.156 1.5025732e-38
0.0072975084 0.015744276 0.156 1.4657667e-38
0.0084273713 0.015744274 0.156 1.484206e-38
0.0093061542 0.015744276 0.156 1.5026451e-38
0.006364923 0.016605124 0.156 1.5117925e-38
0.0072975084 0.016664905 0.156 1.5394515e-38
0.0083931349 0.016634472 0.156 1.5302679e-38
0.006343402 0.017401408 0.156 1.5394512e-38
0.0072975084 0.017376302 0.156 1.5671818e-38
0.0082516158 0.017401408 0.156 1.5395232e-38
0.0062931855 0.018255083 0.156 1.5486708e-38
0.0072975084 0.018255083 0.156 1.5579264e-38
0.0082181385 0.018213237 0.156 1.5303035e-38
0.0062931855 0.019384949 0.156 1.5671099e-38
0.0072138142 0.0193431 0.156 1.5579264e-38
0.0054980963 0.020556657 0.156 1.5301598e-38
0.0062931855 0.02051481 0.156 1.5578543e-38
0.0072975084 0.02051481 0.156 1.5579622e-38
0.0095572351 0.020640351 0.156 1.5026449e-38
0.0056654844 0.021330822 0.156 1.5025011e-38
0.006257317 0.021554997 0.156 1.5209762e-38
0.0072975084 0.021435438 0.156 1.4841338e-38
0.0057910248 0.022439763 0.156 1.5117925e-38
0.0062931855 0.022439761 0.156 1.502573e-38
0.0072661233 0.022397913 0.156 1.4011219e-38
0.0057910243 0.023025617 0.156 1.521084e-38
0.0063245706 0.023308082 0.156 1.5302319e-38
0.007171968 0.023360392 0.156 1.5210482e-38
0.0063290545 0.024281019 0.156 1.5210484e-38
0.0072138146 0.024364712 0.156 1.4749146e-38
0.0054395115 0.02543599 0.156 1.3735352e-38
0.0062931855 0.025285341 0.156 1.4564754e-38
0.0072975084 0.025285341 0.156 1.4472916e-38
0.0037823785 0.026540747 0.156 1.3920107e-38
0.0044519273 0.026415206 0.156 1.3735715e-38
0.0053892946 0.026465425 0.156 1.3643154e-38
0.0062931865 0.026415208 0.156 1.2996699e-38
0.0037823785 0.027670609 0.156 1.4011945e-38
0.0044519273 0.027545068 0.156 1.4104138e-38
0.0053725559 0.027545068 0.156 1.3643154e-38
0.0062931855 0.027545065 0.156 1.4104854e-38
0.0072661233 0.027513683 0.156 1.4013378e-38
0.0036819461 0.028549392 0.156 1.4289251e-38
0.0044519273 0.028465698 0.156 1.4657673e-38
0.0053725559 0.028465696 0.156 1.4288889e-38
0.0062931855 0.028465698 0.156 1.4473279e-38
0.0071091978 0.028361082 0.156 1.3736426e-38
0.0036568381 0.029470021 0.156 1.3921186e-38
0.0044519273 0.029470023 0.156 1.4013021e-38
0.0053725559 0.029470023 0.156 1.4381443e-38
0.0062618004 0.029428173 0.156 1.4473996e-38
0.0025583599 0.030432498 0.156 1.3275819e-38
0.0034476044 0.03039065 0.156 1.382971e-38
0.0044519273 0.03039065 0.156 1.3829353e-38
0.0053202477 0.030338343 0.156 1.4566556e-38
0.0061676456 0.030055877 0.156 1.4935338e-38
0.0025269748 0.031311277 0.156 1.3736799e-38
0.0034476044 0.031311277 0.156 1.4289972e-38
0.0044519273 0.031311277 0.156 1.4197777e-38
0.0051005525 0.03124851 0.156 1.4474364e-38
0.0025269748 0.032315601 0.156 1.3829713e-38
0.0034476044 0.032315601 0.156 1.392083e-38
0.0043849726 0.032164954 0.156 1.392083e-38
0.0013971117 0.033445466 0.15599999 1.3183982e-38
0.0025269748 0.033445466 0.156 1.4013383e-38
0.0032802171 0.033445466 0.156 1.4013383e-38
0.0013971116 0.034575332 0.156 1.3921547e-38
0.002526975 0.034575328 0.156 1.4659111e-38
0.0030291365 0.034449786 0.156 1.4290328e-38
0.0014313498 0.035465524 0.156 1.4382524e-38
0.0025269748 0.035495955 0.156 1.4474359e-38
0.0014313498 0.036538322 0.156 1.4197772e-38
0.0025269748 0.036500283 0.156 1.4843142e-38
0.0015226519 0.037420914 0.156 1.4013381e-38
0.0025269748 0.03742091 0.156 1.4750946e-38
0.0015728681 0.038190886 0.156 1.382899e-38
0.0024955897 0.038341537 0.156 1.4659109e-38
0.0027780556 0.03909478 0.156 1.419813e-38
0.0032802173 0.03934586 0.156 1.4107016e-38
0.0046910406 -0.010939959 0.15700001 1.3644227e-38
0.0055754562 -0.010939959 0.15700001 1.3275811e-38
0.0065862169 0.0026210812 0.15700001 1.2999587e-38
0.0056070425 0.0035897268 0.15700001 1.3183978e-38
0.0065862169 0.0035476116 0.15700001 1.3275813e-38
0.0075127473 0.0035476116 0.15700001 1.3276174e-38
0.0083189495 0.0034994802 0.15699999 1.3276172e-38
0.0048173857 0.0047268323 0.15700001 1.3460205e-38
0.0055754562 0.0045583718 0.15700001 1.35524e-38
0.0065862169 0.0045583718 0.15700001 1.3644596e-38
0.0073864027 0.0044320272 0.15700001 1.3644596e-38
0.0048173857 0.0053585581 0.15700001 1.35524e-38
0.0055754562 0.0054849037 0.15700001 1.3828987e-38
0.0065862169 0.0054849037 0.15700001 1.3921183e-38
0.0056476532 0.0064595649 0.15699999 1.4013378e-38
0.0065862169 0.0064956639 0.15700001 1.4013378e-38
0.0058281464 0.0074221944 0.15700001 1.4013378e-38
0.0065862169 0.0074221948 0.15700001 1.4289246e-38
0.0070915972 0.0076327696 0.15700001 1.4473278e-38
0.0057649738 0.0085171852 0.15700001 1.4473998e-38
0.0065862169 0.0084329545 0.15700001 1.4658388e-38
0.0072937496 0.0083655715 0.15700001 1.4473996e-38
0.0055754562 0.0093594855 0.15700001 1.4382161e-38
0.0065862169 0.0093594864 0.15700001 1.4658029e-38
0.0070915972 0.0093594855 0.15700001 1.4934614e-38
0.0045646955 0.010538707 0.15700001 1.5026449e-38
0.0055754562 0.010286015 0.15700001 1.4472917e-38
0.0065862169 0.010286015 0.15700001 1.4657669e-38
0.0070915972 0.010286016 0.15700001 1.5026451e-38
0.0048173857 0.011296776 0.15700001 1.5210121e-38
0.0055754562 0.011296776 0.15700001 1.502609e-38
0.0065501183 0.011224578 0.15699999 1.4473278e-38
0.0070915972 0.011044087 0.15700001 1.4288886e-38
0.0048173857 0.012181193 0.15700001 1.5302317e-38
0.005524918 0.012155925 0.15700001 1.5302317e-38
0.0058281464 0.01382368 0.15700001 1.5025732e-38
0.0055754562 0.01458175 0.15700001 1.502573e-38
0.0046910406 0.015529338 0.15700001 1.548635e-38
0.0054743802 0.015440896 0.15700001 1.5210122e-38
0.004384202 0.020790711 0.15699999 1.5210122e-38
0.0033012442 0.021572849 0.15700001 1.4196328e-38
0.00443835 0.021572845 0.15700002 1.5394153e-38
0.005322766 0.021783421 0.15700001 1.4655868e-38
0.0033012442 0.022583608 0.15700001 1.4103415e-38
0.00443835 0.022583606 0.15700002 1.5209042e-38
0.005322766 0.022583606 0.15700001 1.4933175e-38
0.0033012442 0.023510138 0.15700001 1.3365132e-38
0.00443835 0.023510138 0.15700002 1.419561e-38
0.0054912264 0.023636481 0.15700001 1.4380722e-38
0.0033012442 0.024436668 0.15700001 1.3089624e-38
0.00443835 0.024436669 0.15700002 1.4195972e-38
0.0055032591 0.024436668 0.15699999 1.4565473e-38
0.0063335267 0.024436668 0.15700001 1.5486711e-38
0.0077233231 0.024563013 0.15700001 1.4841341e-38
0.0033012442 0.025447428 0.15700001 1.3274733e-38
0.0044038924 0.025424456 0.15700002 1.3643155e-38
0.0054491111 0.025194738 0.15700001 1.4288167e-38
0.0032507062 0.026559263 0.15700002 1.364352e-38
0.005322766 0.026331842 0.15700001 1.4012299e-38
0.0032290469 0.02768554 0.15699999 1.3735715e-38
0.0031117266 0.028669227 0.15700001 1.3828631e-38
0.0023747133 0.02965893 0.15700001 1.3091426e-38
0.0030485541 0.029658929 0.15700001 1.3644599e-38
0.0005216517 0.035681382 0.15700001 1.4014101e-38
-0.0004891092 0.036565792 0.15700001 1.3276176e-38
0.00044945444 0.036385302 0.15699999 1.4289968e-38
-0.00052069547 0.037292279 0.15700001 1.3921904e-38
-0.00074179942 0.038081937 0.15700001 1.5118647e-38
0.0063375388 -0.011191281 0.15800001 1.299958e-38
0.0055473936 -0.010628191 0.15800001 1.3368006e-38
0.0063738674 -0.010501041 0.15800001 1.3275809e-38
0.0057381182 -0.0095474171 0.15800001 1.3091419e-38
0.0063738674 -0.0096533755 0.15800001 1.3091419e-38
0.0044242358 0.0026377758 0.15800001 1.2999587e-38
0.005102369 0.0026377756 0.15800001 1.2999587e-38
0.003491804 0.0036549743 0.15800001 1.3091782e-38
0.0044242358 0.0036549743 0.15800001 1.3183978e-38
0.005102369 0.0032311417 0.15800001 1.3183978e-38
0.0034918042 0.0043754899 0.15800001 1.3183618e-38
