# .PCD v0.7 - Point Cloud Data file format
VERSION 0.7
FIELDS x y z rgb
SIZE 4 4 4 4
TYPE F F F F
COUNT 1 1 1 1
WIDTH 999
HEIGHT 1
VIEWPOINT 0 0 0 1 0 0 0
POINTS 999
DATA ascii
0.05673568 0.01302186 0.127 1.6310608e-38
0.045595575 0.014520834 0.127 1.7235433e-38
0.046055488 0.014708205 0.127 1.723543e-38
0.045391176 0.015525826 0.12699999 1.7974087e-38
0.046362106 0.015525826 0.12699999 1.778897e-38
0.047026418 0.015781336 0.127 1.7697141e-38
0.045432057 0.016251467 0.127 1.7788967e-38
0.046322357 0.016337771 0.12699999 1.8434705e-38
0.048279632 0.010402054 0.12800001 1.4009675e-38
0.05048693 0.010034171 0.12800001 1.5578081e-38
0.053989183 0.010034171 0.12800001 1.4469921e-38
0.047396705 0.011064245 0.12800001 1.3272092e-38
0.048152093 0.011235925 0.12800001 1.4747233e-38
0.045748584 0.012557854 0.12800001 1.3179899e-38
0.045851592 0.013381913 0.12800001 1.5114566e-38
0.045594074 0.014824018 0.12800001 1.7049968e-38
-0.04547945 -0.041632056 0.12900001 1.3554181e-38
0.054307159 0.0099049387 0.12900001 1.3363568e-38
0.054618597 0.010112563 0.12900001 1.3916029e-38
0.055033844 0.010320188 0.12900001 1.5298257e-38
0.045483124 0.012534848 0.12900001 1.3272812e-38
0.045566175 0.013476078 0.12900001 1.4654309e-38
0.045638841 0.014472676 0.12900001 1.4929092e-38
0.045275498 0.01509555 0.12900001 1.6035446e-38
-0.049403783 -0.045503307 0.13000001 1.3277236e-38
-0.049574967 -0.044471405 0.13000001 1.3001008e-38
-0.046854928 -0.042117521 0.13000001 1.3924406e-38
0.055251233 0.0099817216 0.13000001 1.3086631e-38
0.055251233 0.010190955 0.13000001 1.3731638e-38
0.045347497 0.013585195 0.13000001 1.3733067e-38
0.045574166 0.014375634 0.13000001 1.3085524e-38
-0.05309955 -0.046270959 0.132 1.4753813e-38
-0.05246219 -0.046483409 0.13199998 1.5122237e-38
-0.051268235 -0.04644753 0.13100003 1.4292475e-38
-0.050667912 -0.046289399 0.13100003 1.4291389e-38
-0.052541863 -0.045500815 0.13199998 1.3001729e-38
-0.0513268 -0.045472376 0.13100003 1.3554546e-38
-0.05071535 -0.045519818 0.13100001 1.3461987e-38
-0.048533123 -0.034376744 0.13100003 1.3183964e-38
-0.05309955 -0.026619064 0.132 1.3460914e-38
-0.052355964 -0.026619064 0.132 1.3829691e-38
-0.051357437 -0.026534084 0.132 1.3645298e-38
0.042291813 0.0090730218 0.132 1.3181685e-38
0.056101251 0.010772645 0.132 1.6035819e-38
0.04458588 0.014514326 0.13100003 1.3824548e-38
0.045429252 0.014697058 0.13100001 1.3086246e-38
0.044923227 0.015118745 0.13100001 1.4745784e-38
0.045450337 0.015118745 0.13100001 1.4193319e-38
-0.053715885 -0.046942588 0.133 1.5212633e-38
0.057166945 0.010450605 0.134 1.3547982e-38
0.064368017 0.030580377 0.13600002 1.4833693e-38
0.065097652 0.030653337 0.13600001 1.4464936e-38
0.059880052 0.030529605 0.13700001 1.9452538e-38
0.060431302 0.030437728 0.13700001 1.8714256e-38
0.061478678 0.03043773 0.13699999 1.6779222e-38
0.059720799 0.03146673 0.13700001 1.9360701e-38
0.060431302 0.031411607 0.13699999 1.8346189e-38
0.061478678 0.031411607 0.13699999 1.6501189e-38
0.059529256 0.032368775 0.13699999 1.9452181e-38
0.060431302 0.032348737 0.13700001 1.8345466e-38
0.061478674 0.03234873 0.13699999 1.5945845e-38
0.058667302 0.033451233 0.13700001 1.9175957e-38
0.059494168 0.033340983 0.13699999 1.8530226e-38
0.060431302 0.033340987 0.13699999 1.7424237e-38
0.058417398 0.034524333 0.13699999 1.419342e-38
-0.025084114 -0.0032858844 0.13800001 1.3276162e-38
-0.024787968 -0.0032488659 0.13800001 1.3276162e-38
0.057485234 0.030474812 0.13800001 2.1664517e-38
0.058281127 0.030511832 0.13800001 2.1572321e-38
0.059983969 0.030585866 0.13800001 2.0374134e-38
0.057485234 0.031363249 0.13800001 2.2309886e-38
0.058429196 0.031363249 0.13800001 2.1940744e-38
0.059317634 0.031363253 0.13800001 2.0835114e-38
0.056874432 0.032473799 0.13800001 2.2032939e-38
0.057485238 0.032473803 0.13800001 2.2309166e-38
0.0584292 0.032473799 0.13800001 2.1110623e-38
0.059169564 0.032399762 0.13800001 2.0741842e-38
0.056541268 0.033501055 0.13800001 2.0282304e-38
0.057485238 0.033473294 0.13800001 2.0190467e-38
0.058401439 0.03344553 0.13800001 1.9822044e-38
0.055819407 0.03455608 0.13800001 1.7147651e-38
0.05650425 0.03447279 0.13800001 1.7701185e-38
0.057485234 0.03447279 0.13800001 1.7608628e-38
0.058207091 0.03425068 0.13800001 1.8439471e-38
-0.058478042 -0.01755655 0.13900003 1.2998854e-38
-0.025042163 -0.0043164319 0.13900001 1.3182888e-38
-0.025472542 -0.0026296577 0.13942857 1.3367998e-38
-0.025560318 -0.0014182107 0.14 1.4104125e-38
-0.024996994 -0.0013055464 0.14 1.4565103e-38
-0.017335813 -0.0014182107 0.14 1.4656211e-38
-0.016563257 -0.001353831 0.14 1.456366e-38
-0.015645845 -0.0012679915 0.14 1.4471464e-38
-0.025560318 -0.00046056323 0.14 1.5026439e-38
-0.024846774 -0.00046682238 0.14 1.5487055e-38
-0.017335812 -0.00046056314 0.14 1.2996671e-38
-0.016509609 -0.00046056323 0.14 1.4471459e-38
-0.015533182 -0.00046056323 0.14 1.4471103e-38
-0.014481648 -0.00046056323 0.14 1.4378547e-38
-0.013669097 -0.00037350439 0.14 1.4194156e-38
-0.025560318 0.00053463905 0.14 1.6776715e-38
-0.02488433 0.00053463911 0.14 1.6961108e-38
-0.015533182 0.000534639 0.14 1.3549864e-38
-0.014481647 0.00053463905 0.14 1.3364755e-38
-0.013505223 0.00053463905 0.14 1.3180723e-38
-0.025447652 0.0011730707 0.14 1.7329527e-38
-0.024771664 0.0015110641 0.14 1.7513919e-38
-0.023207664 0.0038716954 0.13900001 1.7790508e-38
-0.022523677 0.0035212322 0.13933335 1.6684518e-38
-0.02432101 0.0045154486 0.14 1.603879e-38
-0.023252407 0.004483195 0.13900001 1.7237335e-38
-0.022432106 0.0044831946 0.13900001 1.6315734e-38
-0.022432104 0.0054712887 0.13900003 1.364278e-38
-0.01724568 0.014625202 0.14 1.4059111e-38
-0.017185593 0.015181012 0.14 1.3873642e-38
-0.018124465 0.017960068 0.14 1.562788e-38
-0.017290747 0.017869938 0.14 1.3595989e-38
-0.016734935 0.017884959 0.14 1.3689981e-38
-0.019331584 0.018668246 0.14 1.5437381e-38
-0.018349791 0.018560944 0.14 1.4794885e-38
-0.017335812 0.018560944 0.14 1.3413034e-38
-0.016547162 0.018607888 0.14 1.3507391e-38
-0.02003976 0.019537371 0.14 1.6921866e-38
-0.019363772 0.019537371 0.14 1.5162241e-38
-0.018349793 0.019537371 0.14 1.4240641e-38
-0.017335812 0.019537369 0.14 1.3046775e-38
-0.016509607 0.019537371 0.14 1.3233325e-38
-0.02003976 0.020513795 0.14 1.488745e-38
-0.01936377 0.020513795 0.14 1.4329957e-38
-0.018349791 0.020513793 0.14 1.3964048e-38
-0.017335812 0.020513795 0.14 1.3599948e-38
-0.016509607 0.020513793 0.14 1.4067404e-38
-0.020200709 0.021468762 0.14 1.4793456e-38
-0.019363774 0.021415109 0.14 1.415312e-38
-0.018349795 0.021415113 0.14 1.3513139e-38
-0.017335812 0.021415111 0.14 1.387797e-38
-0.016509607 0.021415109 0.14 1.3418793e-38
-0.020189978 0.022166207 0.14 1.4422514e-38
-0.019343289 0.022364223 0.14 1.3969088e-38
-0.017335812 0.022410313 0.14 1.3232241e-38
-0.019138444 0.023142632 0.14 1.3601385e-38
-0.018304726 0.023322895 0.14 1.2953498e-38
0.05176504 0.030728703 0.14 1.9822408e-38
0.052451756 0.030707242 0.14 2.0742924e-38
0.053588558 0.030805042 0.13966668 2.1295737e-38
0.054512441 0.030718014 0.13900001 2.1664873e-38
0.055440873 0.030639712 0.13900001 2.1756708e-38
0.056466255 0.030583782 0.13900001 2.2493556e-38
0.057062842 0.030583782 0.13900001 2.1756713e-38
0.051569752 0.031592466 0.14 1.6871774e-38
0.052533466 0.03154913 0.14 1.9361067e-38
0.053658444 0.031549726 0.13975 2.1019867e-38
0.054452781 0.031590518 0.13900003 2.1572321e-38
0.05544088 0.031590521 0.13900003 2.1480124e-38
0.056466252 0.031590521 0.13900003 2.1848907e-38
0.057062842 0.031590521 0.13900001 2.1572321e-38
0.052516133 0.032531328 0.14 1.7793014e-38
0.053637404 0.032532874 0.13953847 1.9913519e-38
0.054452784 0.032597259 0.13900001 2.0650365e-38
0.055440877 0.032597255 0.13900003 2.1019148e-38
0.056466255 0.032597259 0.13900001 2.1571961e-38
0.052516136 0.033564091 0.14 1.3090651e-38
0.053529471 0.033562437 0.13929413 1.7792295e-38
0.054452788 0.033604 0.13900003 1.9452182e-38
0.055440877 0.033603996 0.13900003 2.0097553e-38
0.05632776 0.033492137 0.13900001 2.0374497e-38
0.054452781 0.034610733 0.13900001 1.5302297e-38
0.055340201 0.034588359 0.13900003 1.7331681e-38
-0.026537172 -0.0030169091 0.141 1.2999575e-38
-0.026446396 -0.0022907066 0.141 1.3367279e-38
-0.016551888 -0.0021658903 0.141 1.4195598e-38
-0.015757602 -0.0021091558 0.141 1.3826815e-38
-0.026310235 -0.0014283409 0.141 1.3827897e-38
-0.016551888 -0.0016552792 0.141 1.4471463e-38
-0.015644133 -0.00154181 0.141 1.4287072e-38
-0.01473638 -0.0012014025 0.141 1.4378547e-38
-0.026578434 -0.0004174338 0.14100002 1.4565819e-38
-0.02661282 0.00053845794 0.14100002 1.6130986e-38
-0.026310235 0.0013232863 0.14100002 1.6960745e-38
-0.025705067 0.0019000877 0.141 1.769831e-38
-0.02547813 0.002580903 0.14100002 1.8067094e-38
-0.024835136 0.0026565487 0.141 1.8159289e-38
-0.02536466 0.0032995408 0.14100002 1.79749e-38
-0.024494734 0.0034054455 0.14100002 1.7790508e-38
-0.023813915 0.0032238946 0.141 1.79749e-38
-0.02485783 0.0043358924 0.141 1.5762203e-38
-0.017232701 0.013663057 0.141 1.3880823e-38
-0.016778825 0.013776527 0.141 1.3141464e-38
-0.018367393 0.014911219 0.141 1.5067864e-38
-0.017329961 0.014489762 0.14100002 1.3782882e-38
-0.016778825 0.014514077 0.141 1.3046037e-38
-0.018367393 0.015138157 0.141 1.4974952e-38
-0.01751007 0.015592032 0.14100002 1.3689251e-38
-0.016778825 0.015516388 0.141 1.3137518e-38
-0.0191995 0.016878018 0.141 1.5344096e-38
-0.018565964 0.016698359 0.14100002 1.5437369e-38
-0.017516376 0.016499786 0.14100002 1.3322989e-38
-0.020447662 0.017672302 0.14100002 1.5439895e-38
-0.019558821 0.01755883 0.14100002 1.469981e-38
-0.018594332 0.017558834 0.14100002 1.5623203e-38
-0.017560503 0.017457969 0.14100002 1.3688901e-38
-0.016703179 0.017785771 0.141 1.3782536e-38
-0.02526632 0.018769169 0.141 1.5433772e-38
-0.024551464 0.018825904 0.14100002 1.5064272e-38
-0.0211663 0.018920461 0.141 1.5806874e-38
-0.020561133 0.018542232 0.14100002 1.7935655e-38
-0.019653378 0.018164001 0.14100002 1.4884563e-38
-0.018821271 0.018088356 0.141 1.5532448e-38
-0.016324949 0.018201824 0.141 1.4061282e-38
-0.025232278 0.019449983 0.141 1.4973156e-38
-0.024532551 0.019336514 0.14100002 1.4605094e-38
-0.023360036 0.019790392 0.141 1.5250462e-38
-0.022603577 0.019676922 0.14100002 1.56196e-38
-0.021544531 0.019449985 0.141 1.5250462e-38
-0.020750245 0.01952563 0.14100002 1.52573e-38
-0.025175544 0.0201308 0.141 1.4512901e-38
-0.024426648 0.020471208 0.14100002 1.4700533e-38
-0.023435684 0.020433385 0.14100002 1.5435936e-38
-0.022603577 0.020433385 0.14100002 1.5896197e-38
-0.021629633 0.02055631 0.14100002 1.5623571e-38
-0.020750245 0.020433383 0.14100002 1.4336792e-38
-0.024247162 0.021389276 0.14100002 1.6363303e-38
-0.023435684 0.021435695 0.14100002 1.5898009e-38
-0.022603577 0.021435695 0.14100002 1.6361498e-38
-0.021544531 0.021435697 0.14100002 1.608959e-38
-0.020806979 0.021208758 0.141 1.4796332e-38
-0.024040852 0.022400182 0.141 1.6083839e-38
-0.023392458 0.022335345 0.14100002 1.5806892e-38
-0.022603579 0.022400182 0.14100002 1.5350944e-38
-0.021544531 0.022400184 0.14100002 1.5627178e-38
-0.02078807 0.022551475 0.141 1.4515068e-38
-0.024040854 0.023459228 0.141 1.5260195e-38
-0.023473509 0.023444099 0.14100002 1.6001356e-38
-0.022603577 0.023421401 0.14100002 1.4800653e-38
-0.021709574 0.023452349 0.14100002 1.4887091e-38
-0.020500615 0.023421405 0.14100002 1.4247464e-38
-0.019706329 0.023534875 0.14100002 1.3235467e-38
-0.018821271 0.023761813 0.141 1.3230085e-38
-0.023322215 0.024366982 0.14100002 1.5818046e-38
-0.022603577 0.024442626 0.14100002 1.5350228e-38
-0.021544529 0.024442626 0.14100002 1.5067882e-38
-0.020561131 0.024329158 0.14100002 1.4339665e-38
-0.019502087 0.024417412 0.14100002 1.3048205e-38
-0.022543062 0.025214219 0.141 1.4606908e-38
-0.021695822 0.025274737 0.14100002 1.3777502e-38
-0.019350791 0.025375597 0.14100002 1.3504148e-38
-0.018594332 0.025463849 0.14100002 1.3599945e-38
-0.018443041 0.026333779 0.141 1.3324073e-38
-0.016269317 -0.0032097164 0.142 1.3367278e-38
-0.015697947 -0.0030954427 0.142 1.3366917e-38
-0.018154837 -0.0021241144 0.142 1.4379988e-38
-0.017431103 -0.0022002971 0.142 1.4287793e-38
-0.016326454 -0.0024669361 0.142 1.3826815e-38
-0.015755083 -0.0024897908 0.142 1.373462e-38
-0.026953928 -0.0014384709 0.142 1.355167e-38
-0.015297989 -0.0014384709 0.142 1.4194876e-38
-0.014612345 -0.0012099232 0.142 1.4378547e-38
-0.026801564 0.0017611984 0.142 1.7052942e-38
-0.026496831 0.0024468419 0.142 1.7882703e-38
-0.024725586 0.0026182528 0.142 1.8159291e-38
-0.023639984 0.0029039374 0.142 1.8067095e-38
-0.026039738 0.0035895808 0.142 1.7974897e-38
-0.02581119 0.0038181287 0.142 1.7790508e-38
-0.026039738 0.0041609504 0.142 1.6316093e-38
-0.025696917 0.0042752246 0.142 1.5486332e-38
0.04115333 0.0049608676 0.142 1.3091653e-38
0.041381877 0.0051894155 0.142 1.2998386e-38
-0.017289622 0.012698844 0.142 1.307444e-38
-0.018040564 0.013759959 0.142 1.4618746e-38
-0.017431103 0.013417137 0.142 1.3982005e-38
-0.016669277 0.013645685 0.142 1.3239409e-38
-0.019183302 0.014788424 0.142 1.5713224e-38
-0.018497659 0.014527226 0.142 1.5070378e-38
-0.019297576 0.015474067 0.142 1.5708553e-38
-0.01880239 0.015588342 0.142 1.4881315e-38
-0.023297163 0.016845355 0.142 1.6817063e-38
-0.022763886 0.016616806 0.142 1.7185124e-38
-0.020211767 0.016845355 0.142 1.4974952e-38
-0.019411849 0.016502533 0.142 1.5340854e-38
-0.018726207 0.016159711 0.142 1.4880957e-38
-0.026344465 0.017657969 0.142 1.6537607e-38
-0.025605496 0.017622415 0.14199999 1.6446131e-38
-0.02466845 0.017683364 0.142 1.6910346e-38
-0.023620939 0.017664319 0.14199999 1.6264608e-38
-0.022546221 0.017579971 0.14199999 1.6171686e-38
-0.021468783 0.017694248 0.142 1.6724867e-38
-0.02050888 0.017119611 0.142 1.5158263e-38
-0.016440731 0.017462432 0.14199999 1.3047489e-38
-0.026420647 0.01852137 0.142 1.5902287e-38
-0.025639778 0.018273778 0.142 1.5801836e-38
-0.02466845 0.018330915 0.142 1.5893317e-38
-0.023639984 0.018521374 0.14199999 1.580722e-38
-0.022497246 0.018521372 0.14199999 1.5346958e-38
-0.021605909 0.018445188 0.142 1.8851134e-38
-0.01621218 0.018216642 0.142 1.360246e-38
-0.026420647 0.01935938 0.142 1.5348402e-38
-0.02581119 0.019587928 0.142 1.5525968e-38
-0.023685696 0.019313669 0.14199999 1.4883474e-38
-0.022546221 0.019228783 0.142 1.5437723e-38
-0.021697329 0.019473653 0.142 1.5249381e-38
-0.026405413 0.020319279 0.14199999 1.5986952e-38
-0.025735006 0.020540209 0.142 1.5344463e-38
-0.02466845 0.020045023 0.142 1.4422504e-38
-0.021605909 0.020227861 0.142 1.5993787e-38
-0.026154011 0.021416308 0.142 1.8487401e-38
-0.025582641 0.02141631 0.142 1.7292453e-38
-0.026039738 0.022444773 0.142 1.6459816e-38
-0.025582641 0.022444775 0.14199999 1.7109864e-38
-0.024754155 0.022501914 0.142 1.5994522e-38
-0.023868533 0.022787597 0.142 1.6177111e-38
-0.025582641 0.02347324 0.142 1.6274348e-38
-0.02473375 0.023473239 0.142 1.5533543e-38
-0.023639984 0.02347324 0.142 1.6461974e-38
-0.021468783 0.023587516 0.142 1.4793813e-38
-0.025445515 0.024341723 0.142 1.5442065e-38
-0.024689227 0.024532871 0.14199999 1.5078682e-38
-0.023906624 0.024768345 0.142 1.4340035e-38
-0.020668864 0.024844527 0.142 1.3966571e-38
-0.019640397 0.024615981 0.142 1.2956369e-38
-0.024516085 0.025377804 0.142 1.6279017e-38
-0.023639986 0.025644448 0.14199999 1.6461972e-38
-0.022546221 0.025889318 0.142 1.3960814e-38
-0.021411644 0.025758717 0.142 1.3320124e-38
-0.02048929 0.025677091 0.14199999 1.4149163e-38
-0.019640397 0.025987267 0.142 1.3594904e-38
-0.023411438 0.026444362 0.142 1.4146283e-38
-0.022497246 0.026558638 0.142 1.37793e-38
-0.021468781 0.026672911 0.142 1.3229367e-38
-0.020440316 0.026672909 0.14199999 1.4055887e-38
-0.019411851 0.026672911 0.142 1.3788281e-38
-0.01880239 0.026825273 0.142 1.3234035e-38
-0.021354508 0.027130006 0.142 1.3689265e-38
-0.02048929 0.027325904 0.142 1.3871497e-38
-0.0193792 0.027423855 0.142 1.360497e-38
0.011594474 0.0280442 0.142 1.3178134e-38
-0.01724698 -0.0031747809 0.14300001 1.3643862e-38
-0.016786665 -0.0034049382 0.14300001 1.3367635e-38
-0.01724698 -0.0025993874 0.14300001 1.4103402e-38
-0.015635878 -0.0022541515 0.14300001 1.373462e-38
-0.0155208 -0.0016787583 0.14300001 1.410268e-38
-0.014485092 -0.0012184437 0.14300001 1.4378547e-38
0.041788377 0.0056862752 0.14300001 1.3089854e-38
0.043054242 0.0061465898 0.14300001 1.3273578e-38
-0.017822374 0.012590995 0.14300001 1.3077678e-38
-0.019088238 0.013971939 0.14300001 1.5540701e-38
-0.018512845 0.013569163 0.14300001 1.4811048e-38
-0.025360027 0.014719949 0.14300001 1.7935631e-38
-0.024727093 0.01466241 0.14300001 1.8682906e-38
-0.023185039 0.014800506 0.14300001 1.7863938e-38
-0.022617318 0.014815848 0.14300001 1.7953252e-38
-0.020162307 0.014815848 0.14300001 1.6824959e-38
-0.019586913 0.014470612 0.14300001 1.6090994e-38
-0.018858081 0.014202096 0.14300001 1.5075407e-38
-0.026361208 0.01558304 0.14300001 1.6998573e-38
-0.025475105 0.015429601 0.14300001 1.7465306e-38
-0.024458576 0.015429601 0.14300001 1.8309091e-38
-0.023403687 0.015429601 0.14300001 1.8037536e-38
-0.02238716 0.015429601 0.14300001 1.7845235e-38
-0.021543251 0.015583038 0.14300001 1.7373105e-38
-0.020490106 0.0154575 0.14300001 1.6541186e-38
-0.026407242 0.016434621 0.14300001 1.653904e-38
-0.025475107 0.016503669 0.14300001 1.6816705e-38
-0.024458578 0.016503667 0.14300001 1.7837333e-38
-0.023503073 0.016419975 0.14300001 1.7283796e-38
-0.022352291 0.016461821 0.14300001 1.7184759e-38
-0.021543249 0.016503667 0.14300001 1.6446115e-38
-0.020603441 0.01636941 0.14300001 1.580111e-38
-0.025302486 0.017194141 0.14300001 1.7187652e-38
-0.024458574 0.017194141 0.14300001 1.8022811e-38
-0.023921542 0.017194141 0.14300001 1.6176738e-38
-0.022195362 0.017309219 0.14300001 1.6537235e-38
-0.021735048 0.017194141 0.14300001 1.6075176e-38
-0.027143743 0.020646499 0.14300001 1.6261025e-38
-0.027143743 0.021221895 0.14300001 1.6078451e-38
-0.026683429 0.021221895 0.14300001 1.7464255e-38
-0.025992958 0.024789331 0.14300001 1.5532463e-38
-0.025302486 0.025556521 0.14300001 1.5905557e-38
-0.024842171 0.025940118 0.14300001 1.7201331e-38
-0.024381857 0.026492495 0.14300001 1.5167269e-38
-0.023691386 0.026860746 0.14300001 1.3779659e-38
-0.023403689 0.027090903 0.14300001 1.3596707e-38
-0.022310439 0.027459156 0.14300001 1.3968009e-38
-0.021735048 0.027781375 0.14300001 1.4058048e-38
-0.021313094 0.028356768 0.14300001 1.3228287e-38
-0.020526722 0.028471848 0.14300001 1.3044254e-38
0.010717137 0.02824169 0.14300001 1.382423e-38
0.011752844 0.028817082 0.14300001 1.3822047e-38
-0.017367588 -0.0035446321 0.14400001 1.3367635e-38
-0.015204431 -0.0015359866 0.14400001 1.410268e-38
-0.014818153 -0.001458731 0.14400001 1.410268e-38
-0.025015892 0.0017860041 0.14400001 1.7237332e-38
-0.024668243 0.0017860041 0.14400001 1.7606114e-38
-0.025015892 0.0021336544 0.14400001 1.7790506e-38
-0.02455236 0.002326793 0.14400001 1.8067092e-38
-0.023857059 0.0024813046 0.14400001 1.7882701e-38
0.041037653 0.0047989725 0.14400001 1.318313e-38
0.041578442 0.0054170173 0.14400001 1.3274603e-38
0.042428255 0.0059578065 0.14400001 1.3089854e-38
-0.025015892 0.011983743 0.14400001 1.7229712e-38
-0.024610301 0.011925802 0.14400001 1.6860925e-38
-0.023625292 0.011983742 0.14400001 1.5938597e-38
-0.02281411 0.011983743 0.14400001 1.5937513e-38
-0.025201306 0.01263269 0.14400001 1.778145e-38
-0.02455236 0.012650073 0.14400001 1.7319751e-38
-0.023625292 0.012679042 0.14400001 1.6210876e-38
-0.022613946 0.012700113 0.14400002 1.7227193e-38
-0.021597331 0.012852868 0.14400001 1.7227561e-38
-0.020226046 0.012833554 0.14400001 1.5844629e-38
-0.019530747 0.012679043 0.14400001 1.5014868e-38
-0.01869197 0.012645935 0.14400001 1.4000353e-38
-0.025247658 0.013528855 0.14400001 1.85093e-38
-0.02459099 0.013644737 0.14400001 1.7682059e-38
-0.023625292 0.013528855 0.14400001 1.6945567e-38
-0.022582343 0.013528854 0.14400002 1.7962603e-38
-0.021423506 0.013528856 0.14400002 1.7409792e-38
-0.020380557 0.013528855 0.14400001 1.64846e-38
-0.019530747 0.013528856 0.14400001 1.5649442e-38
-0.018989956 0.013374344 0.14400001 1.5003711e-38
-0.025572132 0.014162351 0.14400001 1.8497431e-38
-0.024529185 0.014440471 0.14400002 1.7863216e-38
-0.0236584 0.014268301 0.14400001 1.7774259e-38
-0.0225244 0.014397982 0.14400002 1.7957928e-38
-0.021423506 0.014533176 0.14400002 1.7395404e-38
-0.020457812 0.014262783 0.14400001 1.6841147e-38
-0.019917022 0.014069645 0.14400001 1.6012106e-38
-0.02153939 0.015228477 0.14400001 1.7195186e-38
0.012530332 0.018357331 0.14400001 1.3090695e-38
-0.025942961 0.025889751 0.14400001 1.5345545e-38
-0.025479427 0.026492346 0.14400001 1.4434383e-38
-0.02524766 0.027048584 0.14400001 1.3052168e-38
-0.02455236 0.027357606 0.14400001 1.3507033e-38
-0.023578938 0.027836591 0.14400001 1.3789378e-38
-0.022852739 0.02782114 0.14400001 1.4154202e-38
-0.022492209 0.028439187 0.14400001 1.3691785e-38
-0.017954949 -0.0034525595 0.14500001 1.3552026e-38
-0.019355206 -0.0024023661 0.14500001 1.428779e-38
-0.018596735 -0.0024607102 0.14500001 1.4195596e-38
-0.017954949 -0.0027524307 0.14500001 1.3827534e-38
-0.015621185 -0.00216899 0.14500001 1.3826815e-38
0.04295627 0.0062325564 0.14500001 1.3366442e-38
0.043189645 0.0065826206 0.14500001 1.3827066e-38
0.043189645 0.0071660611 0.14500001 1.30895e-38
-0.02425611 0.011833587 0.14500001 1.6307745e-38
-0.023789357 0.011833587 0.14500001 1.593896e-38
-0.022466891 0.011716899 0.145 1.5108829e-38
-0.020522088 0.011833587 0.14500001 1.3726998e-38
-0.022272412 0.01230034 0.14500001 1.6675815e-38
-0.021622291 0.012467037 0.145 1.649143e-38
-0.020755464 0.012467037 0.145 1.5661314e-38
-0.024489487 0.013233845 0.14500001 1.7038488e-38
-0.021222217 0.013000468 0.14500001 1.6950974e-38
-0.020988841 0.013000468 0.14500001 1.6582191e-38
-0.025267407 0.027625382 0.14500001 1.3602822e-38
-0.024956238 0.02793655 0.14500001 1.4061649e-38
-0.024468273 0.028424518 0.145 1.3693945e-38
-0.023633773 0.028558888 0.14500001 1.3699702e-38
-0.024022734 0.029103432 0.14500001 1.3975208e-38
-0.023289265 0.029303467 0.145 1.3047496e-38
-0.022700267 0.0294146 0.14500001 1.2952782e-38
-0.020366503 0.032448489 0.14500001 1.2958534e-38
-0.018431256 -0.0045338064 0.14600001 1.3090692e-38
-0.019294824 -0.0035964192 0.14611112 1.3459472e-38
-0.018490002 -0.0036526094 0.14600001 1.3459473e-38
-0.019622175 -0.0027903952 0.147 1.4011206e-38
-0.018548748 -0.0028889058 0.14600001 1.3735699e-38
0.02936228 -0.002371809 0.14675 1.3271021e-38
0.032192193 0.0020598078 0.147 1.3543313e-38
0.039250623 0.0024935657 0.147 1.2998376e-38
0.040387176 0.0037509259 0.14683335 1.299838e-38
0.043017533 0.0066280179 0.14600001 1.3089857e-38
-0.025182165 0.011760213 0.147 1.6491781e-38
-0.02429832 0.011575817 0.14666666 1.5753484e-38
-0.023518657 0.01154026 0.14622223 1.5017351e-38
-0.02246381 0.011346526 0.14625001 1.3082319e-38
-0.02148607 0.012150183 0.14600001 1.5477993e-38
0.012588585 0.017506098 0.147 1.3550958e-38
0.012554787 0.018290244 0.147 1.336728e-38
-0.02461138 0.029492134 0.14600001 1.332444e-38
-0.023953421 0.029656626 0.14600001 1.3050731e-38
-0.02031114 0.032828931 0.14600001 1.3788659e-38
-0.019958662 0.032828931 0.14600001 1.3513874e-38
0.027594201 0.039593238 0.14625001 1.4382524e-38
0.027449721 0.040583462 0.14600001 1.3922267e-38
0.03693708 0.00064459146 0.148 1.2997301e-38
0.03749289 0.00080339465 0.148 1.2997657e-38
0.032292087 0.0025502297 0.148 1.4466337e-38
0.0328876 0.0030266391 0.148 1.3452912e-38
-0.023447834 0.010887396 0.148 1.3175231e-38
-0.025710778 0.011602011 0.148 1.6216283e-38
-0.024043346 0.011125601 0.148 1.4557445e-38
0.012878397 0.032802235 0.148 1.3911713e-38
-0.020128958 -0.010382509 0.149 1.3090692e-38
0.029272784 -0.0022288242 0.149 1.3456159e-38
0.030951483 0.00064894679 0.149 1.4376662e-38
0.031383149 0.00069690967 0.149 1.4283746e-38
0.031590987 0.0015282658 0.149 1.4007535e-38
0.031590987 0.0024075848 0.149 1.3087762e-38
0.032150555 0.0028072749 0.149 1.4285202e-38
0.032510277 0.003406811 0.149 1.3731677e-38
0.033349626 0.003574681 0.149 1.3084861e-38
0.03342957 0.0044260216 0.14900002 1.3362883e-38
0.034274627 0.0053767143 0.149 1.3546906e-38
0.0096080136 0.010401393 0.149 1.3828976e-38
0.010183567 0.010481331 0.149 1.3091418e-38
0.010327457 0.012399845 0.149 1.3458756e-38
-0.020746898 -0.01045219 0.15000001 1.3735699e-38
0.03043494 -0.0015195116 0.14999999 1.3546532e-38
0.030434938 -0.00043310467 0.14999999 1.3363601e-38
0.031159213 -0.00043310467 0.15000001 1.3729855e-38
0.010477242 0.011758794 0.15000001 1.4011932e-38
0.010577835 0.01227182 0.14999999 1.3735343e-38
0.0086263269 0.049300183 0.14999999 1.3369092e-38
0.0095920218 0.049300183 0.14999999 1.3092504e-38
0.034769405 0.0060043889 0.15100001 1.3272121e-38
0.0099800136 0.013052353 0.15100001 1.3181796e-38
0.01046608 0.013052353 0.15100001 1.3274364e-38
0.013747029 0.034743067 0.15100001 1.3451458e-38
0.012774896 0.037355673 0.15100001 1.3091782e-38
0.01192428 0.03857084 0.15100001 1.3091782e-38
0.012572368 0.038327809 0.15100001 1.3183978e-38
0.01083063 0.039299943 0.15100001 1.4290325e-38
0.011681247 0.039421458 0.15100001 1.3921544e-38
0.01257237 0.039421454 0.15100001 1.3091785e-38
0.0082787806 0.040515106 0.15100001 1.3277255e-38
0.011715965 0.040549822 0.15100001 1.3368372e-38
0.010733416 0.041657366 0.15100001 1.3368735e-38
0.011600236 0.041548003 0.15100001 1.3185062e-38
0.0085218139 0.042823922 0.15100001 1.3829349e-38
0.010709113 0.042702407 0.15100001 1.401482e-38
0.011600236 0.042702407 0.15100001 1.3092864e-38
0.0086433301 0.043593526 0.15100001 1.3368731e-38
0.010709113 0.04359353 0.15100001 1.3277978e-38
0.011600235 0.043593533 0.15100001 1.3093224e-38
0.0096559683 0.044160604 0.15100001 1.4751668e-38
0.010739492 0.044434018 0.15100001 1.3093587e-38
0.0076711979 0.046469424 0.15100001 1.5673261e-38
0.0098990025 0.046509925 0.15100001 1.419957e-38
0.0076711979 0.047441557 0.15100001 1.3369092e-38
0.0096289665 0.047455058 0.15100001 1.3092504e-38
0.0087648472 0.048292171 0.15100001 1.3186139e-38
0.0085218139 0.049993407 0.15100001 1.4106296e-38
0.0093724299 0.049993403 0.15100001 1.355276e-38
0.0084002968 0.050479468 0.15100001 1.5120088e-38
-0.0091991238 0.0053917724 0.15200001 1.3181442e-38
0.012737176 0.015340577 0.15200001 1.2999224e-38
0.010780035 0.032832533 0.15200001 1.4742913e-38
0.011350867 0.032873306 0.15200001 1.5019495e-38
0.010718875 0.033505298 0.15200001 1.4466691e-38
0.011483382 0.033658199 0.15200001 1.4557444e-38
0.012492534 0.033933423 0.15200001 1.3819519e-38
0.01061694 0.034708127 0.15200001 1.3271451e-38
0.013471104 0.034789674 0.15200001 1.3174512e-38
0.010535392 0.035482828 0.15200001 1.364387e-38
0.0095568206 0.036624495 0.15200001 1.382935e-38
0.01044643 0.036402088 0.152 1.3735713e-38
0.011513961 0.036379851 0.15200001 1.3182895e-38
0.0085170893 0.037541904 0.15200001 1.3922625e-38
0.009312178 0.037358422 0.15200001 1.3737875e-38
0.01041307 0.037358429 0.152 1.382971e-38
0.011513961 0.037358422 0.15200001 1.3460205e-38
0.012309051 0.03729726 0.15200001 1.3276174e-38
0.0085170884 0.038153507 0.15200001 1.5119729e-38
0.0093427589 0.038306411 0.15200001 1.4105577e-38
0.011491722 0.038425956 0.152 1.2999588e-38
0.012247891 0.038092349 0.15200001 1.3368369e-38
0.0075589051 0.039641753 0.15200001 1.4383963e-38
0.0082112849 0.039560203 0.15200001 1.447508e-38
0.01058432 0.039511275 0.15200001 1.3184338e-38
0.01126932 0.039315563 0.15200001 1.4105574e-38
0.0068045896 0.040477615 0.15200001 1.3830429e-38
0.0074365833 0.04045723 0.15200001 1.3738592e-38
0.0081705116 0.040212587 0.15200001 1.4107016e-38
0.010780034 0.04045723 0.15200001 1.4752388e-38
0.01126932 0.04045723 0.15200001 1.5213002e-38
0.0066211079 0.041517347 0.15200001 1.3276898e-38
0.0074365833 0.041028064 0.15200001 1.3739312e-38
0.010535392 0.041354254 0.15200001 1.3276899e-38
0.0062949173 0.042373598 0.15200001 1.2999592e-38
0.0049086083 0.043963775 0.15200001 1.3001391e-38
0.0056731165 0.043596812 0.15200001 1.327726e-38
0.0064987862 0.043596812 0.15200001 1.4751665e-38
0.007494831 0.043649238 0.15200002 1.585729e-38
0.008088964 0.043719135 0.15200001 1.5581063e-38
0.0049086083 0.044534609 0.15200001 1.4014823e-38
0.005642537 0.044534605 0.15200001 1.4844582e-38
0.0065395599 0.044534605 0.15200001 1.6226434e-38
0.0074365833 0.044534609 0.15200001 1.65023e-38
0.0081868209 0.044599846 0.15200001 1.4013018e-38
0.006784203 0.045268536 0.15200001 1.7055834e-38
0.0074365833 0.045309309 0.15200001 1.6317909e-38
0.0083336066 0.045284849 0.15200001 1.3459846e-38
0.006784203 0.04681794 0.15200001 1.3736433e-38
0.0071103931 0.046777166 0.15200001 1.4197772e-38
0.0068657505 0.047633421 0.15200001 1.3092864e-38
0.0071103931 0.047633421 0.15200001 1.299995e-38
0.0026252761 0.048775081 0.15200001 1.3645682e-38
0.0033184304 0.048856631 0.15200001 1.3369095e-38
0.0071103931 0.048489667 0.15200001 1.3554921e-38
0.0025845021 0.049101274 0.15200001 1.3829712e-38
0.0035630732 0.049509007 0.152 1.3737159e-38
0.0044193226 0.049509015 0.15200001 1.3830073e-38
0.0035630732 0.050079845 0.15200001 1.3737878e-38
-0.021490173 -0.010414982 0.15300001 1.3643857e-38
-0.020915585 -0.010414982 0.15300001 1.3459475e-38
0.0045304815 0.025784096 0.15300001 1.4748424e-38
0.0046946499 0.026030347 0.15300001 1.3366917e-38
0.0076848553 0.030779494 0.15300001 1.2997025e-38
0.0086346855 0.030832263 0.15300001 1.4468868e-38
0.0066954489 0.031694148 0.15300001 1.4290321e-38
0.0076496769 0.031694148 0.15300001 1.3645309e-38
0.0086346865 0.031694144 0.15300001 1.3088827e-38
0.0055565322 0.032925408 0.15300001 1.530412e-38
0.0065415413 0.032597069 0.15300001 1.4935336e-38
0.0076496769 0.032597069 0.15300001 1.4105574e-38
0.0095376112 0.032597072 0.15300001 1.4007162e-38
0.01031741 0.032679155 0.15300001 1.4097546e-38
0.0055975742 0.033335831 0.15300001 1.5211924e-38
0.0065751211 0.033552233 0.15300001 1.4565476e-38
0.0076496769 0.03358208 0.15300001 1.401266e-38
0.0086346855 0.03358208 0.15300001 1.3735707e-38
0.0095376112 0.033582076 0.15300001 1.3457262e-38
0.0102107 0.033565663 0.15300001 1.3086277e-38
0.0066338857 0.034341358 0.15300001 1.4197054e-38
0.0076496769 0.034485001 0.15300001 1.3643878e-38
0.0086346846 0.034485005 0.15300001 1.4289607e-38
0.0095376112 0.034485001 0.15300001 1.2998131e-38
0.0067877937 0.03538793 0.15300001 1.4013741e-38
0.0076496759 0.03538793 0.15300001 1.3644599e-38
0.0086346865 0.035387933 0.15300001 1.3920825e-38
0.0095376102 0.03538793 0.15300001 1.3183259e-38
0.0066154166 0.036397558 0.15300001 1.4013021e-38
0.0076496769 0.036372937 0.15300001 1.4105937e-38
0.0086346855 0.036372937 0.15300001 1.3368012e-38
0.0094965687 0.036342151 0.15300001 1.3921184e-38
0.0056180954 0.037665766 0.15300001 1.4382164e-38
0.0065415418 0.037481077 0.15300003 1.4013381e-38
0.0076272902 0.037447497 0.15300001 1.3644957e-38
0.0085526016 0.037275866 0.15300001 1.3737873e-38
0.0091271903 0.037111696 0.15300001 1.382935e-38
0.0029093209 0.038589209 0.15300001 1.4197772e-38
0.003568925 0.038659569 0.15300001 1.4382164e-38
0.0054334062 0.038466081 0.15300001 1.5027533e-38
0.0065415413 0.038466081 0.15300001 1.3183981e-38
0.0075265504 0.038342956 0.15300001 1.3460568e-38
0.0027656734 0.039615262 0.15300001 1.4566555e-38
0.0036275564 0.039492134 0.15300001 1.4198133e-38
0.0044835769 0.039539039 0.15300001 1.4474719e-38
0.0051871543 0.03982047 0.15300001 1.4658751e-38
0.0068288357 0.039738383 0.15300001 1.3368736e-38
0.0074034245 0.039574217 0.15300001 1.4291051e-38
0.0019858747 0.040477142 0.15300001 1.4936417e-38
0.0026425472 0.040477142 0.15300001 1.4751667e-38
0.0036275564 0.040477145 0.15300001 1.4935698e-38
0.0045304815 0.040477142 0.15300001 1.4659111e-38
0.0054026251 0.040528446 0.15300001 1.4198133e-38
0.0064184158 0.040477142 0.15300001 1.4106296e-38
0.0019858747 0.041380066 0.15300001 1.5304839e-38
0.0026425475 0.041380066 0.15300001 1.4751306e-38
0.0036275564 0.041380074 0.15300001 1.4566555e-38
0.0045304815 0.041380063 0.15300001 1.382899e-38
0.0054334062 0.041380063 0.15300001 1.3091425e-38
0.0062952894 0.041380066 0.15300001 1.3644959e-38
0.0098659471 0.042036738 0.15300001 1.410666e-38
0.0036275564 0.043391123 0.15300001 1.3000668e-38
0.0038738085 0.044335093 0.15300001 1.410666e-38
0.0043252711 0.044499263 0.15300001 1.3276899e-38
0.0063363314 0.047864709 0.15300001 1.3646038e-38
-0.00023039556 0.048931804 0.15300001 1.4290328e-38
0.0005904453 0.048726592 0.15300001 1.4106297e-38
0.0015549333 0.048808679 0.15300001 1.4752385e-38
0.0022321271 0.048931804 0.15300001 1.4383247e-38
0.0049409019 0.048931804 0.15300001 1.4108095e-38
0.0064676655 0.048537798 0.15300001 1.3646041e-38
0.00075461343 0.049178053 0.15300001 1.4936777e-38
0.0016411217 0.049227305 0.15300001 1.5397395e-38
0.0024783793 0.049916811 0.15300001 1.392083e-38
0.0048177759 0.049424306 0.15300001 1.401518e-38
0.005248717 0.049485866 0.15300001 1.3646038e-38
0.0027246315 0.050163064 0.15300001 1.4105581e-38
-0.021438463 -0.010052183 0.155 1.345983e-38
-0.022186877 -0.0098027112 0.155 1.3090679e-38
-0.021438463 -0.0098027112 0.155 1.3367633e-38
0.0091868453 0.0078587132 0.15400001 1.3736061e-38
0.0078744078 0.013897053 0.155 1.4657669e-38
0.0082486151 0.013897053 0.155 1.4381068e-38
0.0067517878 0.014894938 0.155 1.4750943e-38
0.0076135974 0.014668146 0.15499999 1.4566552e-38
0.0085396646 0.014728624 0.15499999 1.3827531e-38
0.006651999 0.015693245 0.155 1.4842059e-38
0.0075625689 0.015643349 0.15499999 1.4750583e-38
0.0086644003 0.015643351 0.15499999 1.4104851e-38
0.0092465002 0.015643351 0.155 1.391862e-38
0.0066270516 0.016558079 0.15499999 1.5118646e-38
0.0075625689 0.016558079 0.15499999 1.484242e-38
0.0086643994 0.016558079 0.15499999 1.4473278e-38
0.0096207066 0.016610052 0.15499999 1.3457286e-38
0.0065023159 0.017472807 0.15499999 1.5210841e-38
0.0075625689 0.017472805 0.15499999 1.4934254e-38
0.0086644003 0.017472807 0.15499999 1.456547e-38
0.0096622854 0.017472807 0.15499999 1.3550583e-38
0.0065023159 0.018470693 0.15499999 1.5118644e-38
0.0075625689 0.018470693 0.15499999 1.4934253e-38
0.0086644012 0.018470693 0.15499999 1.4657667e-38
0.0096622854 0.018470693 0.15499999 1.4013013e-38
0.010244385 0.018470692 0.155 1.327182e-38
0.0065334998 0.019354235 0.15499999 1.5118644e-38
0.0075625689 0.01938542 0.15499999 1.4565472e-38
0.0086228214 0.019354235 0.15499999 1.4381082e-38
0.0096622854 0.019135948 0.155 1.419777e-38
0.010244385 0.019135948 0.155 1.3734617e-38
0.0066448711 0.020454584 0.15499999 1.4657667e-38
0.0072923084 0.020300148 0.15499999 1.4565473e-38
0.0067517878 0.021505926 0.155 1.5302317e-38
0.0037452048 0.026285546 0.15450001 1.4749146e-38
0.0043300041 0.026562834 0.15466668 1.3827531e-38
0.0024394989 0.029649377 0.15499999 1.4288888e-38
0.003228006 0.02964492 0.15499999 1.4934259e-38
0.0045091682 0.029626215 0.1544167 1.2998498e-38
0.0023444621 0.030528465 0.15499999 1.4473278e-38
0.0032591897 0.030528463 0.15499999 1.4288162e-38
0.0043536341 0.030591875 0.15489998 1.3091055e-38
0.0083193295 0.030661991 0.15400001 1.4190853e-38
0.0014713128 0.031567927 0.15499999 1.4381445e-38
0.0023444621 0.03144319 0.15499999 1.5210485e-38
0.0032591897 0.031443194 0.15499999 1.4842059e-38
0.0044794725 0.031507622 0.15466666 1.3552036e-38
0.0062125041 0.0319013 0.15400001 1.3737152e-38
0.00063974207 0.032441076 0.15499999 1.4842782e-38
0.0013465772 0.032441076 0.15499999 1.465839e-38
0.0023444621 0.032441083 0.15499999 1.5210845e-38
0.0032591897 0.032441072 0.15499999 1.465803e-38
0.0045459014 0.032470006 0.15425001 1.4289608e-38
0.0055397372 0.032432433 0.15400003 1.4843139e-38
0.00070210989 0.033293437 0.155 1.3736074e-38
0.0013465772 0.033355802 0.15499999 1.4473638e-38
0.0023444621 0.033355806 0.15499999 1.4288528e-38
0.0034191741 0.033446591 0.15474999 1.4934257e-38
0.0045948368 0.033427447 0.15418184 1.4474359e-38
0.0052210572 0.033884194 0.15400001 1.4935338e-38
0.00076447771 0.034104221 0.155 1.4289612e-38
0.0014131028 0.034428529 0.15499999 1.4382165e-38
0.0023444623 0.034478422 0.15499999 1.4382164e-38
0.003411629 0.034369122 0.1544167 1.5211924e-38
0.0047253338 0.034379918 0.15400003 1.4935338e-38
0.00559285 0.034379914 0.15400003 1.4842782e-38
0.00076447771 0.035850517 0.155 1.5210845e-38
0.0013881557 0.03563223 0.15499999 1.511937e-38
0.0023444621 0.035601046 0.15499999 1.4658751e-38
0.0032879014 0.035500247 0.15471427 1.4105575e-38
0.0047478667 0.035529096 0.15400003 1.4565833e-38
0.0056341607 0.035495296 0.15400003 1.4566555e-38
0.006311649 0.035420936 0.15400001 1.4197772e-38
0.00076447771 0.036598932 0.155 1.530376e-38
0.0013465772 0.036598932 0.15499999 1.5396316e-38
0.0022256663 0.036563296 0.15499999 1.4658032e-38
0.0048492644 0.036610674 0.15400003 1.4382164e-38
0.00559285 0.036579687 0.15400003 1.4474359e-38
0.00070210989 0.037534446 0.155 1.5120089e-38
0.0013465772 0.037513658 0.15499999 1.5027533e-38
0.0023444621 0.037513658 0.15499999 1.4566555e-38
0.0030097186 0.037721552 0.155 1.5211924e-38
0.0048492644 0.037602123 0.15400003 1.5027893e-38
0.0053449883 0.037540153 0.15400001 1.4382524e-38
-0.0013144492 0.038677856 0.155 1.4658389e-38
-0.0004828785 0.038594704 0.15499999 1.5119007e-38
1.6063974e-05 0.038844172 0.155 1.5211922e-38
0.0013857103 0.038519032 0.1547 1.401338e-38
0.0023394201 0.038372386 0.15466666 1.5027892e-38
0.0030097186 0.038220495 0.155 1.5211923e-38
0.0048079542 0.038263083 0.15400001 1.530412e-38
-0.0013144492 0.039176803 0.155 1.4566552e-38
-0.00045169462 0.039374299 0.15499999 1.5211561e-38
0.00033514397 0.039303839 0.15442859 1.5304117e-38
0.0014086738 0.039394684 0.15407695 1.4474719e-38
0.0023458607 0.039337151 0.15400001 1.4659111e-38
0.004477472 0.039832875 0.15400001 1.4751306e-38
-0.00023340726 0.040216263 0.155 1.4842782e-38
0.00021497645 0.040338516 0.15480001 1.4474359e-38
0.0013378896 0.040328596 0.15400003 1.4843502e-38
0.0089970287 0.041837826 0.155 1.3554921e-38
0.0095372126 0.041575257 0.15433334 1.3738957e-38
-0.00023340726 0.042835712 0.155 1.3368009e-38
0.00043184939 0.042710979 0.15499999 1.4751305e-38
0.001207005 0.042366762 0.1542 1.5120448e-38
0.0095586376 0.042063631 0.15400001 1.4291051e-38
-0.00029577507 0.043521754 0.155 1.4843503e-38
0.00043184939 0.043584123 0.15499999 1.5304482e-38
-0.00023340726 0.044083066 0.155 1.6595216e-38
0.00043184939 0.044332538 0.15499999 1.4935338e-38
0.0040334594 -0.010117035 0.156 1.2999575e-38
0.023366675 -0.010870278 0.156 1.3090246e-38
0.0053725559 0.0035250159 0.156 1.3091041e-38
0.0053725559 0.0045293383 0.156 1.3275802e-38
0.0047030076 0.0056173541 0.156 1.3644596e-38
0.0053725559 0.0054499675 0.156 1.34602e-38
0.0037823785 0.0065798303 0.156 1.4105574e-38
0.0044519268 0.0065798298 0.156 1.4013378e-38
0.0053725559 0.0065798298 0.156 1.3828987e-38
0.0062931865 0.0065798298 0.156 1.3275792e-38
0.0070464276 0.0068309112 0.156 1.3090259e-38
0.0037823785 0.0077096932 0.156 1.4289965e-38
0.0044519273 0.0077096936 0.156 1.419777e-38
0.0053725559 0.0077096936 0.156 1.4105574e-38
0.0062931855 0.0077096936 0.156 1.3736426e-38
0.0071091978 0.0077724634 0.156 1.3089921e-38
0.0037823785 0.0087140165 0.156 1.4566193e-38
0.0044519273 0.0087140165 0.156 1.4381801e-38
0.0053725559 0.0087140165 0.156 1.419777e-38
0.0062931855 0.0087140165 0.156 1.4105574e-38
0.007171968 0.0087140165 0.156 1.3274687e-38
0.0037823785 0.0092161773 0.156 1.484206e-38
0.0044519273 0.0096346457 0.156 1.4473278e-38
0.0053725559 0.0096346447 0.156 1.4381801e-38
0.0062931855 0.0096346447 0.156 1.4474357e-38
0.0072975084 0.0096346447 0.156 1.3367255e-38
0.0044519273 0.010555276 0.156 1.4565114e-38
0.0053725559 0.010555275 0.156 1.4565475e-38
0.0062931855 0.010555275 0.156 1.5026453e-38
0.0072975084 0.010555276 0.156 1.4196317e-38
0.0080507509 0.010973742 0.156 1.3550544e-38
0.0037823785 0.011559598 0.156 1.5487069e-38
0.0044519273 0.011559597 0.156 1.484206e-38
0.0053725559 0.011559598 0.156 1.465767e-38
0.0062931855 0.011559598 0.156 1.5026451e-38
0.0072975084 0.011559597 0.156 1.4657665e-38
0.0081135212 0.011664215 0.156 1.3458e-38
0.0037196083 0.012542997 0.156 1.4380362e-38
0.0044519273 0.012480225 0.156 1.4472917e-38
0.0053725559 0.012480226 0.156 1.4657669e-38
0.0062931855 0.012480225 0.156 1.4934256e-38
0.0072975084 0.012480226 0.156 1.4934256e-38
0.0081762914 0.012480226 0.156 1.3734594e-38
0.0035312981 0.013635199 0.156 1.5210841e-38
0.0044519268 0.013610091 0.156 1.4842419e-38
0.0053725559 0.01361009 0.156 1.4289607e-38
0.0062931855 0.013610091 0.156 1.4289246e-38
0.0072746831 0.013575853 0.156 1.484206e-38
0.0082704462 0.013578705 0.156 1.3920091e-38
0.0036568381 0.014739954 0.156 1.5579265e-38
0.0044519273 0.014739956 0.156 1.5579624e-38
0.0053725559 0.014739954 0.156 1.521192e-38
0.0062618004 0.014708569 0.156 1.4843138e-38
0.0070464276 0.014488873 0.156 1.4843139e-38
0.0085529117 0.014488873 0.156 1.4013727e-38
0.0093061542 0.014991035 0.156 1.3550168e-38
0.0036568381 0.015744276 0.156 1.521084e-38
0.0044519273 0.015744276 0.156 1.521084e-38
0.0053725559 0.015744276 0.156 1.4933897e-38
0.0061048754 0.015681505 0.156 1.484134e-38
0.0037196083 0.0167486 0.156 1.5117565e-38
0.0044519273 0.016664905 0.156 1.502573e-38
0.0053725559 0.016664905 0.156 1.5118285e-38
0.0060421056 0.016664905 0.156 1.5118646e-38
0.0027780556 0.017501842 0.156 1.5578903e-38
0.0034476044 0.017376304 0.156 1.5210121e-38
0.0044519273 0.017376302 0.156 1.4841697e-38
0.0053725564 0.017376302 0.156 1.521084e-38
0.00051832909 0.018255083 0.156 1.567002e-38
0.0027780556 0.018129542 0.156 1.5486708e-38
0.0034476044 0.018255083 0.156 1.5394152e-38
0.0044519268 0.018255083 0.156 1.5763295e-38
0.0053725559 0.018255083 0.156 1.5487427e-38
0.003698685 0.019092018 0.156 1.6131718e-38
0.0044519268 0.019384945 0.156 1.5947327e-38
0.0053725559 0.019384949 0.156 1.5487067e-38
0.0060421051 0.019761568 0.156 1.5117925e-38
0.0037823785 0.020765889 0.156 1.585549e-38
0.0044519273 0.02051481 0.156 1.5763295e-38
0.0053725559 0.020514809 0.156 1.5118285e-38
0.0060421056 0.02051481 0.156 1.4749864e-38
0.0037196083 0.021519132 0.156 1.6130998e-38
0.0044519268 0.021435436 0.156 1.6039163e-38
0.0053725559 0.021435436 0.156 1.5578903e-38
0.0061676451 0.021435438 0.156 1.5394512e-38
0.0016900391 0.022690842 0.156 1.5762216e-38
0.002526975 0.022648996 0.156 1.567002e-38
0.0034476041 0.022439761 0.156 1.5946248e-38
0.0044519273 0.022439761 0.156 1.5854771e-38
0.0053725559 0.022439761 0.156 1.5763295e-38
0.0061425371 0.022372808 0.156 1.5394512e-38
0.0016481923 0.023360392 0.156 1.5393074e-38
0.0025269748 0.023360392 0.156 1.5209042e-38
0.0034476044 0.023360392 0.156 1.5025011e-38
0.0044519273 0.023360392 0.156 1.5024652e-38
0.0053725564 0.023151159 0.156 1.5578903e-38
0.0060421051 0.023025617 0.156 1.502573e-38
0.0016481923 0.024281019 0.156 1.5208323e-38
0.002526975 0.024281017 0.156 1.5854053e-38
0.0034476044 0.024281019 0.156 1.465623e-38
0.0042343242 0.024230804 0.156 1.5025732e-38
0.0017109625 0.025222572 0.156 1.3917944e-38
0.0024955897 0.025253959 0.156 1.5485632e-38
0.0033429875 0.025097033 0.156 1.5763298e-38
0.0017737327 0.026791828 0.156 1.4103773e-38
0.0025771912 0.026691396 0.156 1.4749146e-38
0.0031965235 0.026708134 0.156 1.5210124e-38
0.001522652 0.027670609 0.156 1.3827908e-38
0.0025269748 0.027545065 0.156 1.4012297e-38
0.0034476041 0.027545068 0.156 1.3826819e-38
-0.00048599383 0.028800473 0.156 1.3827911e-38
0.00030311703 0.028585261 0.156 1.4012299e-38
0.0013971116 0.028465701 0.156 1.4011936e-38
0.0025269748 0.028465698 0.156 1.2997773e-38
-0.00058642618 0.029553715 0.156 1.3734996e-38
0.00026724834 0.029470023 0.156 1.4381083e-38
0.0013971115 0.029470019 0.156 1.4380722e-38
0.002526975 0.029051552 0.156 1.3736068e-38
0.0034685277 0.029177096 0.156 1.4013381e-38
-0.00058642618 0.030306956 0.156 1.364388e-38
0.00026724837 0.03039065 0.156 1.4565476e-38
0.0012715711 0.03039065 0.156 1.5026453e-38
1.6167613e-05 0.031060198 0.156 1.4382164e-38
0.0012715713 0.031122969 0.156 1.4288528e-38
1.6167613e-05 0.032566682 0.156 1.4842063e-38
-0.0019924783 0.033822086 0.156 1.3183265e-38
-0.00048599383 0.033696547 0.156 1.4842423e-38
9.9861187e-05 0.033529159 0.156 1.4381085e-38
-0.0017100123 0.034606714 0.156 1.3460209e-38
-0.00067430438 0.034763642 0.156 1.465839e-38
0.00023586326 0.034606714 0.156 1.4382164e-38
0.0010204905 0.034826409 0.156 1.4289968e-38
-0.0016577037 0.035495955 0.156 1.3829351e-38
-0.00073707459 0.035495959 0.156 1.4566554e-38
0.00026724831 0.035495955 0.156 1.3737154e-38
0.0010204905 0.035328571 0.156 1.4658032e-38
-0.0024946397 0.036207356 0.156 1.3183981e-38
-0.0016577038 0.036500283 0.156 1.4566555e-38
-0.00073707459 0.036500283 0.156 1.5210845e-38
0.00014170796 0.036500283 0.156 1.3736794e-38
-0.0014401005 0.037337217 0.156 1.4381804e-38
-0.00073707453 0.037420914 0.156 1.5026814e-38
0.0001165999 0.037337217 0.156 1.5027533e-38
-0.001239236 0.038341537 0.156 1.5210845e-38
0.0088039925 0.041856669 0.156 1.3277255e-38
0.0093898475 0.04168928 0.156 1.3461648e-38
-0.0072651738 0.049891252 0.156 1.6133878e-38
-0.0067630126 0.049891252 0.156 1.6133878e-38
-0.0080184164 0.050895572 0.156 1.5304117e-38
-0.0073907138 0.050613109 0.156 1.5857291e-38
-0.0064805462 0.050613102 0.156 1.5765814e-38
-0.0073656058 0.051247083 0.156 1.56729e-38
-0.0066793188 0.051230345 0.156 1.56729e-38
0.02200032 -0.01169803 0.15700001 1.3089879e-38
0.0017851029 -0.00020062605 0.15700001 1.3092504e-38
0.0023747133 0.00068378961 0.15700001 1.3000307e-38
0.0033012442 0.00068378961 0.15700001 1.3091785e-38
0.00443835 0.00068378961 0.15700002 1.2999585e-38
0.0024168284 0.0035581405 0.15700001 1.3091782e-38
0.0033012442 0.0035476116 0.15700001 1.3183978e-38
0.0043120049 0.0035476116 0.15700001 1.2999587e-38
0.0017851029 0.0049795224 0.15700001 1.3460205e-38
0.0023747133 0.0045583718 0.15700001 1.3276174e-38
0.0033012442 0.0045583718 0.15700001 1.3276174e-38
0.0043120049 0.0045583718 0.15700001 1.3276174e-38
0.0015829507 0.0055354415 0.15700001 1.3460205e-38
0.0023747133 0.0054849037 0.15700001 1.3460205e-38
0.0033012442 0.0054849037 0.15700001 1.35524e-38
0.0042277747 0.005400673 0.15700001 1.3736792e-38
0.0013639523 0.0064956639 0.15700001 1.3644596e-38
0.0023747133 0.0064956644 0.15700001 1.3921183e-38
0.0031748991 0.0064956644 0.15700001 1.3921183e-38
0.00077434193 0.0074221944 0.15700001 1.35524e-38
0.0013639524 0.0074221939 0.15700001 1.3921183e-38
0.0023747133 0.0074221948 0.15700001 1.4105574e-38
0.0031748991 0.0074221953 0.15700001 1.4105574e-38
0.00067326578 0.0085171852 0.15700001 1.3828984e-38
0.0013639525 0.0084329545 0.15700001 1.4013377e-38
0.0023747133 0.0084329545 0.15700001 1.4197768e-38
0.0031748991 0.0084329545 0.15700001 1.4289965e-38
0.00056376675 0.0092331404 0.15700001 1.4288523e-38
0.0013639523 0.0093594864 0.15700001 1.4381079e-38
0.0023747133 0.0093594864 0.15700001 1.4473278e-38
0.0032290469 0.0094196508 0.15699999 1.4749864e-38
0.0015324126 0.010033326 0.15700001 1.484206e-38
0.0023747133 0.010286015 0.15700001 1.4934256e-38
0.0033012442 0.010286015 0.15700001 1.5118647e-38
0.0024709762 0.011260679 0.15699999 1.4564754e-38
0.0032290469 0.011260679 0.15699999 1.5025732e-38
-0.00038081341 0.012560228 0.15699999 1.5578903e-38
0.00033213399 0.012560228 0.15700001 1.5578903e-38
0.0010270322 0.012686573 0.15700001 1.5578903e-38
0.0027958637 0.012433883 0.15700001 1.4749144e-38
0.0031568499 0.012379735 0.15699999 1.4564754e-38
-0.0012471798 0.013697335 0.15700001 1.5116846e-38
-0.0004891092 0.013570989 0.15700001 1.5486708e-38
0.00043742161 0.013570989 0.15700001 1.5578903e-38
0.0010902047 0.013634162 0.15700001 1.5671099e-38
0.0027958637 0.013570989 0.15700001 1.5579262e-38
0.0030485541 0.013570989 0.15700001 1.5394871e-38
-0.0012471798 0.014497519 0.15700001 1.4472196e-38
-0.0004891092 0.014497519 0.15700001 1.5026088e-38
0.00043742161 0.014497519 0.15700001 1.5487068e-38
0.0011533772 0.014497519 0.15700001 1.5579622e-38
0.0027958637 0.01407637 0.15700001 1.5671818e-38
0.0030485541 0.014708095 0.15700001 1.5578906e-38
-0.00045752292 0.015466165 0.15700001 1.4472556e-38
0.00043742161 0.015508281 0.15700001 1.5302317e-38
0.0011533772 0.01550828 0.15700001 1.5671459e-38
0.0030485541 0.015508282 0.15700001 1.5487428e-38
-0.0012471798 0.016855963 0.15700001 1.4380363e-38
