# .PCD v0.7 - Point Cloud Data file format
VERSION 0.7
FIELDS x y z rgb
SIZE 4 4 4 4
TYPE F F F F
COUNT 1 1 1 1
WIDTH 653
HEIGHT 1
VIEWPOINT 0 0 0 1 0 0 0
POINTS 653
DATA ascii
0.0068199961 -0.013078327 0.091000006 1.710157e-38
0.0070396918 -0.013151558 0.091000006 1.6917179e-38
0.0071373344 -0.012883042 0.090999998 1.6552712e-38
0.00733916 -0.016849838 0.092000008 1.967622e-38
0.0067468672 -0.013518191 0.092000008 1.6916098e-38
0.0071944096 -0.016958147 0.093000002 1.8660269e-38
0.01060082 -0.021694979 0.10000001 1.2995903e-38
0.033741362 0.051232614 0.12400001 1.7189063e-38
0.03419612 0.051391598 0.12475 1.7374537e-38
0.033677191 0.051856149 0.126 1.7194089e-38
0.034488376 0.051653352 0.126 1.7837679e-38
0.035096761 0.051856149 0.126 1.7096511e-38
0.034148876 0.052063301 0.127 1.7561449e-38
0.035375308 0.052267704 0.127 1.7096873e-38
0.034726784 0.051855203 0.12800001 1.885291e-38
0.035612646 0.051546179 0.12800001 1.8115691e-38
0.036271896 0.051511843 0.12800001 1.7838374e-38
0.034623779 0.052164227 0.12800001 1.8116066e-38
0.03558518 0.052198555 0.12800001 1.7652566e-38
0.036271896 0.052421745 0.12800001 1.7372374e-38
0.035849348 0.049602725 0.12900001 1.8306174e-38
0.036430694 0.049602725 0.12900001 1.8029215e-38
0.035793986 0.050483976 0.12900001 1.8118192e-38
0.036486063 0.050530113 0.12900001 1.7566085e-38
0.034825068 0.051775862 0.12900001 1.9038733e-38
0.035595007 0.051455766 0.12900001 1.8485911e-38
0.036584932 0.051370498 0.12900001 1.756249e-38
0.037178144 0.051326007 0.12900001 1.7559244e-38
0.034479029 0.052260317 0.12900001 1.8485201e-38
0.033544719 0.053298447 0.12900001 1.7101893e-38
0.03568786 0.047434591 0.13000001 1.3151176e-38
0.03568786 0.049840782 0.13000001 1.8766083e-38
0.036587566 0.04956878 0.13000001 1.8857542e-38
0.037326861 0.049875658 0.13000001 1.9135931e-38
0.035583243 0.050573099 0.13000001 1.8391902e-38
0.037396602 0.050642848 0.13000001 1.8210731e-38
0.034955543 0.051828504 0.13000001 1.9131286e-38
0.035583243 0.051410034 0.13000001 1.8853615e-38
0.037361734 0.051200803 0.13000001 1.8022383e-38
0.037361734 0.052037738 0.13000001 1.7099707e-38
0.033909373 0.053293139 0.13000001 1.7933818e-38
0.035918225 0.048589259 0.132 1.6735632e-38
0.036619183 0.048575182 0.13114287 1.6643422e-38
0.037481844 0.048355415 0.13111113 1.3883321e-38
0.038297702 0.048546769 0.132 1.2136659e-38
0.035856962 0.049907904 0.13100001 1.9227782e-38
0.036678158 0.049387738 0.13130002 1.8486612e-38
0.037628043 0.049458105 0.13100003 1.7935951e-38
0.038480848 0.049570933 0.13189998 1.5630341e-38
0.035502493 0.050583772 0.13125001 1.8484817e-38
0.037912682 0.050276883 0.13100001 1.9044104e-38
0.038387083 0.050118748 0.13100001 1.7936674e-38
0.035464294 0.051474512 0.13150001 1.8204281e-38
0.037754551 0.051805496 0.13100001 1.8020582e-38
0.038255207 0.051563602 0.132 1.8117455e-38
0.034723528 0.05269048 0.13150001 1.8854699e-38
0.035493318 0.052307185 0.132 1.9130207e-38
0.037543707 0.052121762 0.13100001 1.7376294e-38
0.038255207 0.052519634 0.132 1.7098984e-38
0.02975709 0.053581901 0.132 1.7186561e-38
0.03437794 0.053528786 0.132 1.8579909e-38
0.029650863 0.054431714 0.132 1.7280546e-38
0.033262562 0.054537944 0.132 1.8212197e-38
0.037649129 0.054124776 0.13100001 1.7001786e-38
0.038255207 0.054537944 0.132 1.7001786e-38
0.022062214 -0.031530097 0.133 1.2079756e-38
0.036511425 0.049706578 0.133 1.802456e-38
0.038973145 0.049385484 0.133 1.3974798e-38
0.033621583 0.050731014 0.133 1.7924827e-38
0.034513511 0.050812569 0.133 1.8391186e-38
0.035548147 0.050812561 0.133 1.894759e-38
0.036297362 0.050241731 0.133 1.8581694e-38
0.038759083 0.050776888 0.133 1.8489486e-38
0.033621583 0.051579624 0.133 1.8108497e-38
0.034584861 0.051579628 0.133 1.8480869e-38
0.035334084 0.051579624 0.133 1.8480861e-38
0.038716268 0.051568918 0.133 1.8579879e-38
0.033728614 0.052168295 0.133 1.8201774e-38
0.03466811 0.052453712 0.133 1.8944373e-38
0.035334084 0.052525062 0.133 1.9221321e-38
0.038759083 0.052168295 0.133 1.7929468e-38
0.030282211 0.053666729 0.133 1.7278397e-38
0.032604787 0.053827278 0.133 1.8298281e-38
0.033514552 0.053602509 0.133 1.8759627e-38
0.034435023 0.053238608 0.133 1.9130567e-38
0.030460043 0.054654714 0.133 1.7370221e-38
0.031507723 0.054763801 0.133 1.8383649e-38
0.032444239 0.054576498 0.133 1.8852893e-38
0.03348536 0.054484058 0.133 1.8211841e-38
0.035599753 0.04910979 0.134 1.5445637e-38
0.036246769 0.049864642 0.134 1.7931291e-38
0.032796018 0.050835162 0.134 1.6821726e-38
0.033443034 0.050511654 0.134 1.7003958e-38
0.034305725 0.05061949 0.134 1.7652915e-38
0.035743535 0.050691381 0.134 1.9131984e-38
0.03631866 0.050260041 0.134 1.8486979e-38
0.039266177 0.050835162 0.134 1.7012196e-38
0.032796018 0.051050834 0.134 1.7188351e-38
0.033227362 0.051428258 0.134 1.7646805e-38
0.035384081 0.051050831 0.134 1.8669567e-38
0.039338067 0.051769745 0.134 1.8210381e-38
0.032796018 0.052632432 0.134 1.7645006e-38
0.033350598 0.052652966 0.134 1.8106343e-38
0.034197886 0.052991882 0.134 1.8941497e-38
0.039409954 0.052560542 0.134 1.7837633e-38
0.030380493 0.053552628 0.134 1.7188e-38
0.032796018 0.053207554 0.134 1.7827599e-38
0.033412222 0.053392418 0.134 1.838365e-38
0.034262586 0.053293824 0.134 1.9035133e-38
0.038834833 0.05385457 0.134 1.6823839e-38
0.039409962 0.053387281 0.134 1.6914233e-38
0.031262353 0.054501589 0.134 1.7274791e-38
0.032364674 0.054178078 0.134 1.7925186e-38
0.03416194 0.054357808 0.134 1.9039809e-38
0.039266177 0.054070242 0.134 1.6546178e-38
0.0355395 0.049367636 0.13500001 1.3701483e-38
0.036082704 0.049693558 0.13500001 1.6548019e-38
0.033366688 0.050562683 0.13500001 1.6178523e-38
0.034474824 0.050475769 0.13500001 1.6915717e-38
0.035485178 0.050617006 0.13500001 1.8022768e-38
0.036082704 0.050345402 0.13500001 1.8022411e-38
0.031085232 0.051649094 0.13500001 1.6090288e-38
0.032551881 0.051431812 0.13500001 1.6731336e-38
0.033040766 0.051649094 0.13500001 1.7371663e-38
0.035322219 0.051214531 0.13500001 1.8392978e-38
0.030596349 0.052572541 0.13500001 1.663986e-38
0.031085232 0.0527355 0.13500001 1.6915004e-38
0.032533776 0.052663073 0.13500001 1.7186186e-38
0.033040766 0.052300941 0.13500001 1.755497e-38
0.039667848 0.052083656 0.13500001 1.8210021e-38
0.040211052 0.052626859 0.13500001 1.7651801e-38
0.030563757 0.053343892 0.13500001 1.7098322e-38
0.031085232 0.053495988 0.13500001 1.7189078e-38
0.032533776 0.053423565 0.13500001 1.7552094e-38
0.033040766 0.05382191 0.13500001 1.7736483e-38
0.039776489 0.053170066 0.13500001 1.7651795e-38
0.040211052 0.053278707 0.13500001 1.7375566e-38
0.031563252 0.054430295 0.13500001 1.6998927e-38
0.032280281 0.054473754 0.13500001 1.7643931e-38
0.033040766 0.054256473 0.13500001 1.8108855e-38
0.039341927 0.055777442 0.13500001 1.7185454e-38
0.034489412 0.049842771 0.13600001 1.2783134e-38
0.03547442 0.049733326 0.13600001 1.3793323e-38
0.033066619 0.050937224 0.13600001 1.6181402e-38
0.034423746 0.050324332 0.13600001 1.5261249e-38
0.035401456 0.050937224 0.13600001 1.7653988e-38
0.031479664 0.051703345 0.13600002 1.5355962e-38
0.032366168 0.05155012 0.13600001 1.6089567e-38
0.03151875 0.052594543 0.13600002 1.6455107e-38
0.032366168 0.052535128 0.13600002 1.6728453e-38
0.04029002 0.052688353 0.13600001 1.7654326e-38
0.031753276 0.053490948 0.13600002 1.709688e-38
0.032191057 0.053490948 0.13600001 1.7554254e-38
0.031797055 0.05422058 0.13600001 1.7185841e-38
0.032347407 0.054345664 0.13600002 1.7644653e-38
0.039633349 0.055971712 0.13600001 1.7369846e-38
0.035514761 0.050760511 0.13700001 1.6914641e-38
0.04025552 0.050760511 0.13700001 1.2966765e-38
0.032538004 0.051532261 0.13700001 1.5264127e-38
0.033530258 0.051091261 0.13700001 1.5629672e-38
0.035735261 0.051091261 0.13700001 1.7560358e-38
0.04036577 0.051532261 0.13700001 1.489566e-38
0.04036577 0.052304015 0.13700001 1.7471733e-38
0.04058627 0.053296264 0.13700001 1.7746522e-38
0.040365767 0.056493524 0.13700001 1.7185451e-38
0.032664455 0.051686302 0.13800001 1.4988989e-38
0.033478856 0.051390156 0.13800001 1.5263411e-38
0.034219224 0.051019974 0.13800001 1.4435818e-38
0.035255738 0.05109401 0.13800001 1.6179601e-38
0.04110463 0.052463688 0.13800001 1.5263353e-38
0.04110463 0.05324107 0.13800001 1.7559607e-38
0.029777026 0.055906389 0.13800001 1.5992341e-38
0.029777026 0.056461662 0.13800001 1.5897264e-38
0.041215684 0.05679483 0.13800001 1.736984e-38
0.024250671 -0.033549093 0.13900001 1.2447458e-38
0.033796031 0.051501542 0.13900001 1.4620208e-38
0.04192568 0.052585598 0.14 1.2140586e-38
0.041794885 0.05340964 0.13975 1.5905123e-38
0.04192568 0.054012679 0.14 1.7098628e-38
0.029983249 0.056153301 0.14 1.6177814e-38
0.042151008 0.057505272 0.14 1.7094687e-38
0.045876876 0.057206389 0.13900001 1.2708863e-38
0.024689 -0.034499444 0.14100002 1.2539654e-38
0.03348802 0.05224257 0.141 1.2510511e-38
0.034055367 0.052129101 0.141 1.315372e-38
0.041998208 0.054625422 0.141 1.7651802e-38
0.042225149 0.054625422 0.141 1.7375215e-38
0.042225149 0.0550793 0.141 1.7467408e-38
0.029743537 0.056894805 0.141 1.5718278e-38
0.042524617 0.054327194 0.142 1.6457215e-38
0.042981714 0.055012837 0.142 1.6822042e-38
0.029497391 0.057869688 0.142 1.4983584e-38
0.029497391 0.058212508 0.142 1.507578e-38
0.042753167 0.058441058 0.142 1.7186523e-38
0.043100275 0.054571688 0.14300001 1.3518836e-38
0.04316932 0.055170096 0.14300001 1.6547253e-38
0.043818854 0.055440012 0.14400001 1.3059659e-38
0.029912846 0.057873566 0.14400001 1.4524414e-38
0.043818854 0.059264168 0.14400001 1.7095403e-38
0.04412315 0.056408457 0.14500001 1.6548332e-38
0.044356525 0.059675723 0.14500001 1.7096122e-38
0.044721179 0.056327507 0.14600001 1.2415371e-38
0.044779927 0.060322274 0.14600001 1.7003927e-38
0.016927879 -0.025081523 0.148 1.361537e-38
0.017330034 -0.025107104 0.149 1.3988466e-38
0.018081451 -0.025091117 0.149 1.2529145e-38
0.017401978 -0.024371674 0.149 1.2973597e-38
0.01644272 -0.023092663 0.149 1.3706826e-38
0.0046025976 -0.029041817 0.15000001 2.1436578e-38
0.0044818856 -0.028679682 0.15000001 2.1712443e-38
0.016854854 -0.024635835 0.15000001 1.4707336e-38
0.0047233095 -0.023126937 0.15000001 1.7745866e-38
0.016593313 -0.02381097 0.15000001 1.4706971e-38
0.0045623602 -0.022483138 0.14999999 1.8574908e-38
0.028450541 -0.038956761 0.15100001 1.2079034e-38
0.0048763147 -0.029478464 0.15100001 2.0243076e-38
0.0051193479 -0.029478464 0.15100001 2.0605735e-38
0.004754798 -0.028688606 0.15100001 2.1618088e-38
0.0051193479 -0.028870881 0.15100001 2.152301e-38
0.0046332814 -0.025468415 0.15100001 1.940252e-38
0.0051193479 -0.025346898 0.15100001 1.8852945e-38
0.016541913 -0.024374763 0.15100001 1.5438429e-38
0.0048763147 -0.023888698 0.15100001 1.7740834e-38
0.0051193479 -0.023281116 0.15100001 1.7746225e-38
0.0048763147 -0.022308983 0.15100001 1.8849694e-38
0.0052165613 -0.022576321 0.15100001 1.8391954e-38
0.005397894 -0.029510589 0.15200001 2.0604295e-38
0.004786287 -0.028205829 0.15200001 2.2167303e-38
0.005397894 -0.028613567 0.15200001 2.2074386e-38
0.0048474474 -0.027777705 0.15200001 2.2259859e-38
0.005397894 -0.027716542 0.15200001 2.2720114e-38
0.0048596794 -0.026444402 0.15200001 2.0882684e-38
0.005397894 -0.026554491 0.15200001 2.1434776e-38
0.0047128936 -0.025514761 0.15200001 1.894334e-38
0.0054590544 -0.025453597 0.15200001 1.8852582e-38
0.0047338638 -0.024466287 0.15200002 1.7925585e-38
0.0054468224 -0.024487261 0.15200001 1.7743711e-38
0.016162174 -0.024291545 0.15200001 1.5346952e-38
0.0039300374 -0.023435295 0.15200001 1.8854376e-38
0.0055202153 -0.023312973 0.15200001 1.8116086e-38
0.0049086083 -0.022089761 0.15200001 1.8845011e-38
0.0055202153 -0.022334402 0.15200001 1.8112488e-38
0.0042021452 -0.028391395 0.15300001 2.1337905e-38
0.0044483976 -0.027570553 0.15300001 2.1522655e-38
0.0044483976 -0.026790755 0.15300001 2.0880524e-38
0.0042021452 -0.025436366 0.15300001 1.773796e-38
0.0056796586 -0.025805745 0.15300001 2.0049685e-38
0.0039558928 -0.024205105 0.15300001 1.8022816e-38
0.0042021452 -0.024451358 0.15300001 1.7648638e-38
0.0056796581 -0.024451358 0.15300001 1.755752e-38
0.0037096406 -0.023220096 0.15300001 1.8575633e-38
0.0056796586 -0.023712602 0.15300001 1.7931336e-38
0.0038327668 -0.022604465 0.15300001 1.7740828e-38
0.0044483976 -0.022235088 0.15300001 1.7460281e-38
0.0056796586 -0.022235088 0.15300001 1.7740834e-38
0.0054334067 -0.021865711 0.15300001 1.7922337e-38
0.0049409019 -0.018048801 0.15300001 1.7010459e-38
0.0051871543 -0.018459221 0.15300001 1.6827146e-38
0.0049409019 -0.017802548 0.15300001 1.636401e-38
0.0051871543 -0.017556295 0.15300001 1.5810837e-38
0.02970314 -0.039988726 0.155 1.2171582e-38
0.0057167807 -0.030311989 0.15400001 2.0973795e-38
0.003493034 -0.029384008 0.15433334 2.0523622e-38
0.0057167807 -0.029444473 0.15400001 2.1522287e-38
0.0039817486 -0.028329095 0.15400001 2.0597103e-38
0.0040076035 -0.028138846 0.155 2.0228677e-38
0.0057167807 -0.028329095 0.15400001 2.3180369e-38
0.0040076035 -0.027390432 0.155 1.9584746e-38
0.0057167807 -0.027420269 0.15400001 2.2443528e-38
0.0062528448 -0.027016226 0.155 1.9953173e-38
0.003741432 -0.026154295 0.15433334 1.7001471e-38
0.0058407118 -0.026408169 0.15400001 2.0603217e-38
0.0062528448 -0.026392546 0.155 1.9586548e-38
0.011715035 -0.026197487 0.15400001 1.9038756e-38
0.012409047 -0.026222272 0.15400001 1.9589773e-38
0.0012634201 -0.025020454 0.155 1.5993789e-38
0.0036269329 -0.025291536 0.15475 1.7006503e-38
0.0059646424 -0.025519997 0.15400001 1.8572755e-38
0.0062427595 -0.025477432 0.15475 1.8386563e-38
0.011789394 -0.025519995 0.15400003 1.8851846e-38
0.012409047 -0.025519997 0.15400003 1.8570226e-38
0.0034986411 -0.024557052 0.15459999 1.8206485e-38
0.0059646424 -0.024611169 0.15400001 1.6912151e-38
0.0062528453 -0.024438353 0.155 1.7371691e-38
0.011913325 -0.024859032 0.15400001 1.7650783e-38
0.012409048 -0.024859032 0.15400001 1.7460994e-38
0.016126974 -0.024859032 0.15400001 1.5621385e-38
0.0034860249 -0.023619723 0.15400001 1.9312478e-38
0.0059646424 -0.023619724 0.15400001 1.7563272e-38
0.0063674953 -0.023423318 0.15475 1.6819956e-38
0.0037338866 -0.022463033 0.15400001 1.7095456e-38
0.0047253338 -0.022132553 0.15400001 1.7644665e-38
0.0059646424 -0.022504345 0.15400001 1.7834466e-38
0.0062785344 -0.022587264 0.15440002 1.7369532e-38
0.0048646065 -0.021332871 0.15450001 1.7088971e-38
0.0056459634 -0.021388968 0.15400003 1.7459557e-38
0.0062528448 -0.021777328 0.155 1.8017411e-38
0.0047398708 -0.020214677 0.15450001 1.5712519e-38
0.0054689194 -0.020480143 0.15400003 1.6352848e-38
0.0048565334 -0.019499544 0.15425001 1.5808314e-38
0.0054689185 -0.019488694 0.15400003 1.5807595e-38
0.0043672733 -0.018101014 0.15450001 1.5810474e-38
0.0056817355 -0.018362027 0.15440002 1.6274692e-38
0.0047253338 -0.017671043 0.15400001 1.534914e-38
0.005629167 -0.017661054 0.155 1.5256941e-38
0.0060421051 -0.03045457 0.156 2.1064188e-38
0.013323446 -0.03032903 0.156 1.8204679e-38
0.0060421056 -0.02970133 0.156 2.1798513e-38
0.012821284 -0.029826868 0.156 1.903444e-38
0.013323446 -0.02982687 0.156 1.7927369e-38
0.014076688 -0.029826868 0.156 1.7835169e-38
0.0035312979 -0.028697006 0.156 2.0045367e-38
0.0060421051 -0.028571466 0.156 2.2811588e-38
0.012653898 -0.028278539 0.156 1.9679093e-38
0.013323446 -0.028320387 0.156 2.0883031e-38
0.014076688 -0.028320385 0.156 1.7932405e-38
0.00043463553 -0.027608991 0.156 1.7297862e-38
0.0037823785 -0.027190521 0.156 1.8017421e-38
0.0060421051 -0.027567143 0.156 2.1337901e-38
0.012570203 -0.027692683 0.156 1.9125919e-38
0.013373663 -0.027592251 0.156 2.0883031e-38
0.014076688 -0.027567143 0.156 1.9409699e-38
0.0012715713 -0.0261862 0.156 1.6730282e-38
0.00051832909 -0.025516652 0.156 1.5904474e-38
0.0014085243 -0.025547085 0.156 1.6455128e-38
0.002526975 -0.025307417 0.156 1.793026e-38
0.0030291365 -0.025307417 0.156 1.7839143e-38
0.00051832909 -0.024930796 0.156 1.590196e-38
0.0014313498 -0.024634063 0.156 1.5993789e-38
0.0025269748 -0.024596022 0.156 1.7559318e-38
0.0027780556 -0.023926472 0.156 1.7278414e-38
0.0040334594 -0.022419989 0.156 1.6633395e-38
0.0047030076 -0.021666745 0.156 1.6812744e-38
0.0060421051 -0.021290125 0.156 1.7550312e-38
0.0045356206 -0.020662423 0.156 1.5712517e-38
0.0060421056 -0.020411342 0.156 1.626281e-38
0.0060421051 -0.019658102 0.156 1.608634e-38
0.0061257989 -0.018319003 0.156 1.5905189e-38
0.0060421051 -0.017774995 0.156 1.4888157e-38
0.0063335267 -0.030481333 0.15700001 2.1246782e-38
0.0063335267 -0.029554805 0.15700001 2.1798872e-38
0.012903472 -0.029639034 0.15700001 1.9403582e-38
0.013535198 -0.029639034 0.15700001 1.7741537e-38
0.0033012442 -0.028375583 0.15700001 1.9031212e-38
0.0063335267 -0.028628273 0.15700001 2.1981824e-38
0.011892712 -0.028501928 0.15700001 1.8476595e-38
0.00026896148 -0.027617512 0.15700001 1.7390414e-38
0.0033012442 -0.027870202 0.15700001 1.8385843e-38
0.0064851409 -0.02766805 0.15700001 2.0321591e-38
0.011892712 -0.027870202 0.15700001 1.8111046e-38
0.00062272779 -0.026556212 0.15700001 1.6366887e-38
0.0010270322 -0.026606752 0.15700001 1.6548404e-38
0.0023747133 -0.026101371 0.15700001 1.8022098e-38
0.0030485541 -0.026101369 0.15700001 1.737709e-38
0.0067125619 -0.026480407 0.15700001 1.8757864e-38
0.0065862169 -0.025343299 0.15700001 1.783159e-38
0.00062272779 -0.024332538 0.15700001 1.5717566e-38
0.0010270322 -0.024079848 0.15700001 1.5441335e-38
0.0022904833 -0.024079848 0.15700001 1.6542284e-38
0.0065862169 -0.024416769 0.15700001 1.737277e-38
-0.0060482938 -0.023069087 0.15700001 1.5922122e-38
0.0027958637 -0.023574468 0.15700001 1.6911069e-38
0.006838907 -0.023406008 0.15700001 1.6815277e-38
0.0035539344 -0.022563707 0.15700001 1.7095815e-38
0.0065862169 -0.022690052 0.15700001 1.6631606e-38
0.0043120049 -0.021300256 0.15700001 1.6170972e-38
0.0063335267 -0.021552945 0.15700001 1.7554273e-38
0.0040593147 -0.020542186 0.15700001 1.6270374e-38
0.0063335267 -0.020542186 0.15700001 1.6171333e-38
0.0040593147 -0.019784115 0.15700001 1.6086705e-38
0.0064598718 -0.018267974 0.15700001 1.5533165e-38
0.0043120049 -0.017762594 0.15700001 1.3873645e-38
0.0063335267 -0.017762594 0.15700001 1.4793798e-38
0.0028136717 -0.029064916 0.15800001 1.9403958e-38
0.0028136717 -0.028683467 0.15800001 1.9033735e-38
-0.00049222453 -0.027539119 0.15800001 1.684912e-38
0.00027067459 -0.027369587 0.15800001 1.719918e-38
0.0030679714 -0.027454352 0.15800001 1.7556805e-38
1.637489e-05 -0.02626762 0.15800001 1.5998472e-38
0.0014150233 -0.026649069 0.15800001 1.6914313e-38
0.0028136717 -0.026521919 0.15800001 1.8021742e-38
0.0066281673 -0.026649069 0.15800001 1.8849702e-38
0.0072639161 -0.026521919 0.15800001 1.8852935e-38
1.637489e-05 -0.025504721 0.15800001 1.599452e-38
0.0073910663 -0.025504723 0.15800001 1.8480915e-38
1.637489e-05 -0.024233222 0.15800001 1.5810483e-38
0.0015421732 -0.024233222 0.15800001 1.5809034e-38
0.0073910663 -0.02457229 0.15800001 1.8018138e-38
-0.0063411179 -0.023470324 0.15800001 1.7772516e-38
-0.0010008239 -0.023343174 0.15800001 1.5444216e-38
-0.00059394439 -0.023622904 0.15800001 1.5350581e-38
0.00020709966 -0.023851775 0.15800001 1.5902676e-38
0.0023050723 -0.023978923 0.15800001 1.6267133e-38
0.0073062996 -0.023682239 0.15800001 1.6907832e-38
-0.0010008239 -0.022961725 0.15800001 1.5075432e-38
-0.00066175772 -0.022453124 0.15800001 1.5071474e-38
0.00042325445 -0.022300545 0.15800001 1.5253703e-38
0.0038308704 -0.022198824 0.15800001 1.6450438e-38
0.0066281673 -0.022198824 0.15800001 1.8201802e-38
0.0071367668 -0.022961725 0.15800001 1.635322e-38
-0.00049222453 -0.021817375 0.15800001 1.4519019e-38
0.00021981467 -0.021842804 0.15800001 1.4977116e-38
0.0037672953 -0.021626649 0.15800001 1.6543357e-38
0.0040851701 -0.021817375 0.15800001 1.5897267e-38
0.0028136717 -0.020800177 0.15800001 1.6822116e-38
0.0033222709 -0.020673027 0.15800001 1.7099061e-38
0.0038308704 -0.01813003 0.15800001 1.4057318e-38
0.0066281673 -0.01813003 0.15800001 1.516258e-38
0.0063738674 -0.017367132 0.15800001 1.4241706e-38
0.03116809 -0.01151824 0.15800001 1.2078314e-38
0.030725583 -0.041276604 0.15900001 1.2171585e-38
0.0066701178 -0.031296145 0.15900001 2.1157467e-38
0.0066701178 -0.030400464 0.15900001 2.1522287e-38
0.0025755705 -0.029504782 0.15900001 1.8585716e-38
0.0066701178 -0.029376827 0.15900001 2.0876196e-38
0.0024049643 -0.028651752 0.15900001 1.8944778e-38
0.0066701178 -0.02886501 0.15900001 2.0690725e-38
0.00078420615 -0.027628114 0.15900001 1.7654399e-38
0.0069260271 -0.027969327 0.15900001 1.9676942e-38
-0.00023943068 -0.026817735 0.15900001 1.6461967e-38
0.0018078429 -0.026689781 0.15900001 1.7652594e-38
0.0025755705 -0.02694569 0.15900001 1.8576708e-38
0.0078217089 -0.026689781 0.15900002 1.876218e-38
-0.00023943068 -0.025154324 0.15900001 1.6086354e-38
0.0079496633 -0.025538187 0.15900001 1.8298325e-38
-0.001391022 -0.024258643 0.15900002 1.5353465e-38
-0.0004100368 -0.024557203 0.15900001 1.5627174e-38
0.00078420615 -0.024130689 0.15900001 1.5994509e-38
0.0011680699 -0.024130689 0.15900001 1.5626082e-38
0.0079496633 -0.024386598 0.15900001 1.7555722e-38
0.0082055731 -0.024386598 0.15900001 1.7279135e-38
-0.0016042799 -0.023533568 0.15900001 1.5444581e-38
-0.00032473376 -0.023192355 0.15900001 1.5440972e-38
0.00049630826 -0.023330975 0.15900002 1.636293e-38
0.0023196612 -0.023362959 0.15900001 1.6545874e-38
0.0078217089 -0.023362959 0.15900002 1.6815632e-38
0.0082908757 -0.023533568 0.15900001 1.6816352e-38
-0.001135113 -0.022531256 0.15900001 1.4613375e-38
-0.00036738528 -0.022851143 0.15900001 1.5348415e-38
0.00052829692 -0.022595234 0.15900001 1.5622487e-38
0.0010401154 -0.022424629 0.15900001 1.5713603e-38
0.0031897526 -0.022339324 0.15900001 1.6634476e-38
0.0068620499 -0.022339325 0.15900001 1.7464241e-38
0.0073866635 -0.022492867 0.15900001 1.6818873e-38
-0.0010071583 -0.021699551 0.15900001 1.387509e-38
-0.00036738528 -0.021315686 0.15900001 1.4242432e-38
0.00044299386 -0.021571597 0.15900002 1.4516498e-38
0.0014239792 -0.021699551 0.15900001 1.5435576e-38
0.0023708432 -0.02141805 0.15900001 1.6818513e-38
0.0031726919 -0.021742202 0.15900001 1.6729196e-38
0.0067980723 -0.021486295 0.15900002 1.7186212e-38
0.0071819359 -0.021827506 0.15900001 1.7651512e-38
-0.0004100368 -0.020718565 0.15900001 1.36907e-38
0.0024476158 -0.020675914 0.15900001 1.5434858e-38
0.0033432981 -0.020036142 0.15900001 1.6085984e-38
0.0066701178 -0.020803869 0.15900001 1.6078779e-38
0.0069260276 -0.018500688 0.15900001 1.5161866e-38
0.0071819359 -0.018756596 0.15900001 1.4609412e-38
0.0066701178 -0.017732959 0.15900001 1.4609768e-38
0.0023342504 -0.029432828 0.16000001 1.9224969e-38
0.0072271056 -0.029432828 0.16000001 2.0231548e-38
0.0015616943 -0.028917789 0.16000001 1.9413316e-38
0.0024630097 -0.028273992 0.16000001 1.8943696e-38
0.0072271056 -0.028488591 0.16000001 1.9492189e-38
-0.00075597392 -0.027372677 0.16000001 1.7576603e-38
0.0025059294 -0.027458519 0.16000001 1.8668188e-38
0.0085146995 -0.027115159 0.16000001 1.8758586e-38
-0.00075597392 -0.026085084 0.16000001 1.6548054e-38
0.0023342504 -0.026857641 0.16000001 1.8392317e-38
-0.00075597392 -0.025698807 0.16000001 1.5994161e-38
-0.0020435674 -0.024539972 0.16000001 1.5906645e-38
0.0015616943 -0.024282454 0.16000001 1.5810471e-38
0.0085790791 -0.024475591 0.16000001 1.7463166e-38
-0.0017860488 -0.023252379 0.16000001 1.5167991e-38
0.0013041756 -0.023767415 0.16000001 1.5718272e-38
-0.0012710113 -0.022222305 0.16000001 1.4244593e-38
0.0014586868 -0.022428319 0.16000001 1.5896916e-38
0.0025273894 -0.022479823 0.16000001 1.6911428e-38
0.0074846242 -0.022222305 0.16000001 1.7007225e-38
-0.001142252 -0.021578507 0.16000001 1.3874733e-38
0.00053161959 -0.02119223 0.16000001 1.3965122e-38
0.0014758548 -0.021664346 0.16000001 1.534338e-38
0.0023342504 -0.021964785 0.16000001 1.7372048e-38
0.0072271056 -0.021449748 0.16000001 1.7279131e-38
-0.0010134926 -0.020591354 0.16000001 1.295458e-38
-0.00062721455 -0.020162156 0.16000001 1.2678712e-38
0.00027410086 -0.02087033 0.16000001 1.3689977e-38
0.001626074 -0.02087033 0.16000001 1.4332107e-38
0.0025917692 -0.020419674 0.16000001 1.5251187e-38
0.0064545497 -0.020162156 0.16000001 1.6086337e-38
-0.00075597392 -0.019904636 0.16000001 1.2310649e-38
0.0031068064 -0.018745802 0.16000001 1.3504867e-38
0.0073129456 -0.018617043 0.16000001 1.4607612e-38
-0.031314861 0.037178669 0.16000001 1.2170905e-38
0.0071957251 -0.031443518 0.16160001 2.1799235e-38
0.0072012241 -0.030630117 0.16133334 2.1521565e-38
0.0018305832 -0.029746348 0.16100001 1.960671e-38
0.0020897114 -0.029875912 0.16100001 1.8688714e-38
0.0013939694 -0.028365111 0.16140001 1.8668911e-38
0.0020897114 -0.028321143 0.16100001 1.9774896e-38
-0.001443855 -0.027261073 0.16100001 1.7678521e-38
0.0014756121 -0.027628472 0.1618 1.7467487e-38
0.0084383525 -0.027025502 0.16100001 1.8299407e-38
-0.0014640467 -0.026544262 0.16100001 1.6650688e-38
0.0086408239 -0.026500355 0.16174999 1.783555e-38
-0.0023154677 -0.025729859 0.16100001 1.6744324e-38
-0.0014862576 -0.025703948 0.16100001 1.6092475e-38
0.0085465619 -0.025701256 0.16128573 1.7652238e-38
0.0091426084 -0.025759306 0.162 1.7189818e-38
-0.0023154677 -0.024952477 0.16100001 1.5908803e-38
-0.0015380833 -0.024952477 0.16100001 1.5355266e-38
0.0090861721 -0.024822913 0.16100001 1.8388361e-38
-0.0023250557 -0.023494055 0.16166668 1.4983601e-38
-0.0017972114 -0.023138579 0.16100001 1.4891404e-38
0.0013903166 -0.023534257 0.16142859 1.5993424e-38
0.0020897114 -0.023268145 0.16100001 1.6360406e-38
-0.0021560246 -0.022500083 0.162 1.4338226e-38
-0.0017972114 -0.022620324 0.16100001 1.4615173e-38
0.0018305832 -0.022620324 0.16100001 1.6450088e-38
0.0020897114 -0.022620324 0.16100001 1.681887e-38
-0.0032163579 -0.021457132 0.162 1.3601021e-38
-0.0023670979 -0.021419886 0.16200002 1.3415554e-38
-0.0016281804 -0.021454671 0.16133334 1.3231165e-38
0.0005349422 -0.021065554 0.16100001 1.3505583e-38
0.007165296 -0.021130975 0.16150001 1.5894034e-38
-0.0031120628 -0.020935658 0.162 1.3232603e-38
-0.0024566229 -0.020480053 0.16174999 1.2679431e-38
-0.0015380833 -0.020288169 0.16100001 1.2495041e-38
-0.00032881845 -0.020115418 0.16100001 1.2494679e-38
0.00047902518 -0.020357464 0.16155556 1.3046051e-38
0.0014049415 -0.020501474 0.16166668 1.3504508e-38
0.0023488395 -0.020288169 0.16100001 1.4329949e-38
0.0066997241 -0.02031927 0.16125001 1.5532802e-38
0.007165296 -0.020871043 0.16150001 1.534374e-38
-0.0021994808 -0.019892707 0.162 1.2495041e-38
-0.0013715212 -0.019504305 0.16166666 1.2219533e-38
0.00020303064 -0.019594723 0.16200002 1.2219171e-38
0.0075932327 -0.018512996 0.161625 1.4423938e-38
0.0082050273 -0.018791176 0.16150001 1.4146632e-38
0.007165296 -0.017751848 0.16150001 1.4702681e-38
0.0084358519 -0.033562154 0.163 2.0522183e-38
0.0078873085 -0.03208347 0.163 2.1429735e-38
0.0091990447 -0.027098875 0.163 1.8293652e-38
-0.0028689259 -0.026049487 0.163 1.7304338e-38
0.0093302187 -0.026443008 0.163 1.7557519e-38
-0.0028689259 -0.025349893 0.163 1.6187909e-38
-0.0028689259 -0.024475403 0.163 1.5352749e-38
-0.003131273 -0.02355719 0.163 1.4891044e-38
-0.0028689259 -0.023688361 0.163 1.4798851e-38
-0.0041806619 -0.022245452 0.163 1.4521898e-38
-0.0035772629 -0.0225078 0.163 1.4429703e-38
-0.0027564913 -0.022451583 0.163 1.4153476e-38
-0.0041806619 -0.021327237 0.163 1.4060922e-38
-0.0039183144 -0.021458412 0.163 1.3785412e-38
0.00080393458 -0.020015502 0.163 1.2954577e-38
0.0010662818 -0.020015502 0.163 1.2862381e-38
0.0023780174 -0.02027785 0.163 1.4054804e-38
0.0071877162 -0.020452747 0.163 1.5161867e-38
-0.0023442316 -0.019753156 0.163 1.2495041e-38
0.000672761 -0.01949081 0.163 1.2403561e-38
0.0010662818 -0.019753156 0.163 1.28631e-38
0.003165059 -0.018179072 0.163 1.2768384e-38
0.007777323 -0.031541221 0.164 2.1980744e-38
-0.0035024255 -0.02418563 0.164 1.5169794e-38
-0.0042722989 -0.023371767 0.164 1.5075792e-38
-0.0036783966 -0.023701712 0.164 1.5076154e-38
-0.0044702664 -0.022777863 0.164 1.5166549e-38
0.0076717404 -0.02224995 0.164 1.7377443e-38
-0.0047342232 -0.021326102 0.164 1.4059844e-38
0.0078037195 -0.02145808 0.16400002 1.6453691e-38
0.0016535281 -0.020243879 0.164 1.3228641e-38
0.0076717404 -0.020534232 0.164 1.5438098e-38
0.00133678 -0.019434413 0.16400002 1.2494678e-38
0.0023926066 -0.019610383 0.164 1.322864e-38
0.0026565634 -0.018818514 0.164 1.2952775e-38
0.007984085 -0.03141487 0.16500001 2.1888548e-38
0.0082496507 -0.031813219 0.16500001 2.1702361e-38
-0.0044975244 -0.023713451 0.16500001 1.5353458e-38
-0.0050286567 -0.022651186 0.16500001 1.5073993e-38
-0.00516144 -0.021588922 0.16500001 1.4428985e-38
0.0021416298 -0.020261092 0.16500001 1.3504507e-38
0.007984085 -0.020526657 0.16500001 1.5714325e-38
0.0018760635 -0.019331612 0.16500001 1.2677986e-38
0.0021416298 -0.019198827 0.16500001 1.258615e-38
0.0018760635 -0.018933261 0.16500001 1.2586869e-38
-0.0037232554 -0.026528923 0.16600001 1.5931846e-38
-0.0037232554 -0.025193047 0.16600001 1.5909522e-38
-0.0067957751 -0.024324726 0.16600001 1.6757643e-38
-0.0050591333 -0.024124345 0.16600001 1.5906998e-38
-0.0045247823 -0.024391519 0.16600001 1.5540013e-38
-0.0071965386 -0.023589993 0.16600001 1.7020188e-38
-0.0066621872 -0.023589993 0.16600001 1.6187548e-38
-0.0054866141 -0.023536559 0.16600001 1.5627173e-38
-0.0055934847 -0.021719765 0.16600001 1.4520824e-38
0.0025553727 -0.018380068 0.16600001 1.2494315e-38
0.013643163 -0.01833554 0.16600001 1.2586145e-38
-0.0042832545 -0.025344811 0.16700001 1.6374097e-38
-0.0067023211 -0.024538457 0.16700001 1.8134817e-38
-0.0055375858 -0.02426967 0.16700001 1.6276501e-38
-0.0045520398 -0.024807243 0.16700001 1.5634011e-38
-0.0075086765 -0.023194531 0.16700001 1.6737838e-38
-0.0067023207 -0.023194531 0.16700001 1.5997757e-38
-0.0057615731 -0.023194531 0.16700001 1.5257668e-38
0.0096167773 -0.023309724 0.16700003 1.6910344e-38
-0.0056271804 -0.022119392 0.16700001 1.4705571e-38
0.0086184321 -0.022925746 0.16700001 1.7193774e-38
0.0094919838 -0.022724157 0.16700003 1.6357892e-38
0.012739804 -0.018177209 0.16700001 1.2309562e-38
-0.0051200865 -0.026037367 0.16800001 1.8046582e-38
-0.0045792973 -0.026253682 0.16800001 1.7307579e-38
-0.0062016654 -0.025496578 0.16800001 1.7588124e-38
-0.0054580802 -0.025631774 0.16800001 1.7214659e-38
-0.0045792973 -0.025699373 0.16800001 1.6653924e-38
-0.0062917969 -0.024865657 0.16800003 1.7208902e-38
-0.0056608762 -0.024847632 0.16800001 1.6741799e-38
-0.0072832438 -0.023063026 0.16800003 1.6090666e-38
-0.0059312708 -0.023063026 0.16800001 1.5166193e-38
-0.0059312708 -0.022522237 0.16800001 1.4797411e-38
-0.0062016654 -0.021981448 0.16800001 1.4427549e-38
0.014077933 -0.019818291 0.16800001 1.2865246e-38
0.012996353 -0.018736713 0.16800001 1.3137519e-38
0.013537143 -0.018736713 0.16800001 1.2954207e-38
-0.0056945714 -0.025648342 0.16900001 1.7580919e-38
-0.0066658482 -0.023268946 0.16950001 1.5628253e-38
-0.0073265964 -0.022656297 0.16900001 1.553641e-38
-0.0066403127 -0.022699155 0.17 1.4889606e-38
0.013424685 -0.020054223 0.17 1.4337139e-38
0.013686786 -0.019685581 0.16985714 1.38758e-38
0.01451914 -0.01978061 0.17 1.2497183e-38
0.012257701 -0.018032229 0.16900001 1.2125891e-38
-0.0072756894 -0.022649197 0.171 1.4983956e-38
0.013028958 -0.01862916 0.17200001 1.2218084e-38
0.011413546 -0.018031185 0.177 1.2494674e-38
0.011349063 -0.017646043 0.17600001 1.2218087e-38
0.01119154 -0.018419545 0.178 1.277126e-38
0.010678216 -0.018234927 0.17900001 1.2861658e-38
0.010737871 -0.019205924 0.18000001 1.4522256e-38
0.0098687457 -0.018191945 0.18000001 1.3322629e-38
0.010564046 -0.018336799 0.18000001 1.295421e-38
0.049765639 -0.039463852 0.215 1.2076837e-38
0.050198186 -0.039550364 0.21499999 1.2353427e-38
0.05019819 -0.03885828 0.215 1.2076484e-38
0.050779324 -0.039386671 0.21600001 1.253782e-38
0.0015372774 -0.042473003 0.23500001 1.8779468e-38
0.0036991786 -0.032244198 0.28500003 1.2494318e-38
0.0036991786 -0.031785496 0.28500003 1.2310647e-38
0.0027915286 -0.033277966 0.28600001 1.221917e-38
0.073660411 0.11679938 0.29900002 1.7646802e-38
0.074622892 0.11631814 0.29900002 1.8015941e-38
0.073906764 0.11767285 0.30000001 1.7829755e-38
0.074872464 0.11719 0.30000001 1.8015585e-38
0.075355306 0.11767285 0.30000001 1.8198897e-38
0.073906764 0.11863855 0.30000001 1.7919795e-38
