# .PCD v0.7 - Point Cloud Data file format
VERSION 0.7
FIELDS x y z rgb
SIZE 4 4 4 4
TYPE F F F F
COUNT 1 1 1 1
WIDTH 969
HEIGHT 1
VIEWPOINT 0 0 0 1 0 0 0
POINTS 969
DATA ascii
-0.006498897 -0.025893087 0.142 1.6731704e-38
-0.0042134188 -0.025778811 0.142 1.5621046e-38
-0.00032810509 -0.025493128 0.142 1.5903387e-38
1.4716673e-05 -0.025778811 0.142 1.5537843e-38
-0.0012422965 -0.024674162 0.142 1.5160062e-38
-0.00051856163 -0.024445618 0.142 1.4793079e-38
1.4716673e-05 -0.024369434 0.142 1.4332818e-38
0.00047181238 -0.023493335 0.142 1.2952768e-38
-0.0084415535 -0.022921965 0.142 1.3044249e-38
-0.0042515099 -0.022617234 0.142 1.5349133e-38
-0.003413501 -0.022647709 0.142 1.5071827e-38
-0.0044191116 -0.02141355 0.142 1.3505219e-38
-0.003184953 -0.021550678 0.142 1.3778567e-38
-0.0043276926 -0.020636488 0.142 1.2955286e-38
-0.0036420492 -0.020750761 0.142 1.3138238e-38
0.0038699554 -0.040287647 0.14300001 1.474471e-38
0.0043417783 -0.040253121 0.14300001 1.391603e-38
0.0050782817 -0.040115029 0.14300001 1.2995517e-38
0.0038124165 -0.039539635 0.14300001 1.5757423e-38
0.0045028883 -0.039453328 0.14300001 1.4745069e-38
0.0050782817 -0.039654713 0.14300001 1.3271378e-38
-0.0033224612 -0.038043614 0.14300001 2.0875475e-38
-0.0023123261 -0.038452782 0.14300001 2.0600685e-38
-0.0013990033 -0.038208012 0.14300001 2.0877272e-38
-0.00044549437 -0.038158692 0.14300001 1.9954953e-38
0.0048481245 -0.038964242 0.14300001 1.4560316e-38
0.0050782817 -0.038503926 0.14300001 1.4927301e-38
-0.0080406861 -0.037122983 0.14300001 2.3366199e-38
-0.0043581692 -0.037238061 0.14300001 2.2906299e-38
-0.0035526184 -0.037439447 0.14300001 2.1521565e-38
1.4820312e-05 -0.037122983 0.14300001 2.1800666e-38
0.0017410002 -0.037583299 0.14300001 1.7008271e-38
0.0059989109 -0.037813455 0.14300001 1.3270654e-38
-0.007120057 -0.036202356 0.14300001 2.1517968e-38
-0.005508956 -0.036202356 0.14300001 1.875066e-38
-0.0045883264 -0.036816109 0.14300001 2.2261294e-38
-0.0038211353 -0.036816109 0.14300001 2.1247502e-38
-0.00021533702 -0.036662668 0.14300001 2.1432965e-38
1.4820312e-05 -0.036892828 0.14300001 2.2078335e-38
-0.0071200565 -0.035665318 0.14300001 2.1056628e-38
-0.0067518055 -0.035419822 0.14300001 2.0136473e-38
-0.0057391133 -0.035972197 0.14300001 1.9485348e-38
0.002719169 -0.035511881 0.14300001 1.7658324e-38
0.0031219441 -0.035857119 0.14300001 1.5904436e-38
0.0024698318 -0.034591254 0.14300001 1.9037672e-38
0.0031219441 -0.034706332 0.14300001 1.7931677e-38
-0.00044549437 -0.033440467 0.14300001 1.8106727e-38
-0.009191473 -0.032059524 0.14300001 1.8758216e-38
-0.00035343145 -0.032703962 0.14300001 1.7368797e-38
1.4820312e-05 -0.032059524 0.14300001 1.6538315e-38
0.0018560789 -0.032059524 0.14300001 1.515862e-38
0.0023739329 -0.032577377 0.14300001 1.4061975e-38
1.4820312e-05 -0.031714287 0.14300001 1.6446118e-38
0.0018560789 -0.031714287 0.14300001 1.4974947e-38
0.0020862361 -0.031369053 0.14300001 1.3333026e-38
-0.00044549437 -0.030218264 0.14300001 1.6640579e-38
0.025463644 -0.030612821 0.14300001 1.5763184e-38
-0.00036877525 -0.029335996 0.14300001 1.7289914e-38
1.4820312e-05 -0.029067479 0.14300001 1.6922932e-38
0.00047513499 -0.028377006 0.14300001 1.5259448e-38
-0.0089613162 -0.026535748 0.14300001 1.6730635e-38
0.00064775301 -0.026248049 0.14300001 1.3967633e-38
-0.00067565171 -0.025154803 0.14300001 1.5806871e-38
1.4820312e-05 -0.025269881 0.14300001 1.5161863e-38
-0.009191473 -0.024234176 0.14300001 1.4790921e-38
-0.00056057307 -0.024924645 0.14300001 1.5253697e-38
0.00047513499 -0.024004016 0.14300001 1.3779646e-38
-0.009191473 -0.023773858 0.14300001 1.4054441e-38
-0.0089613162 -0.023313545 0.14300001 1.3319397e-38
0.00070529227 -0.023773858 0.14300001 1.3136798e-38
-0.0037597599 -0.022392914 0.14300001 1.5071824e-38
-0.0037540062 -0.021587364 0.14300001 1.3688531e-38
-0.0026890223 -0.039391231 0.14400001 2.2350597e-38
-0.0016074438 -0.03929466 0.14400001 2.1153499e-38
-0.00091214332 -0.039236717 0.14400001 2.0508132e-38
0.005113794 -0.039700251 0.14400001 1.3271378e-38
-0.0041568787 -0.038077883 0.14400001 2.2627906e-38
-0.0035774619 -0.038425535 0.14400001 2.0967309e-38
-0.0029980447 -0.038773183 0.14400001 2.096911e-38
-0.0013756769 -0.038773183 0.14400001 2.069252e-38
-0.00068037654 -0.038773183 0.14400001 1.9770921e-38
0.00020033742 -0.038170591 0.14400001 1.8293629e-38
0.0011737581 -0.03819377 0.14400001 1.7650764e-38
-0.0076333815 -0.037150815 0.14400001 2.2441722e-38
-0.0051766532 -0.03733623 0.14400001 2.2347368e-38
-0.0046204124 -0.037537094 0.14400001 2.2628273e-38
0.00043210425 -0.037405759 0.14400002 2.0879784e-38
0.0015503791 -0.037353609 0.14400001 1.728342e-38
-0.007517498 -0.03691905 0.14400001 2.2256252e-38
-0.0062427805 -0.036223751 0.14400001 1.9764812e-38
-0.0055474797 -0.03691905 0.14400001 2.0966952e-38
0.00018047169 -0.036587954 0.14400001 2.19865e-38
0.0017531752 -0.036532771 0.14400001 1.6733489e-38
0.0023325922 -0.036339633 0.14400001 1.6272504e-38
0.0036073099 -0.036223751 0.14400001 1.5351265e-38
0.00013080738 -0.035470508 0.14400001 2.161556e-38
0.0018227051 -0.03538939 0.14400001 1.8853638e-38
0.0023905339 -0.035412565 0.14400001 1.8579928e-38
0.00010763069 -0.034508675 0.14400001 1.9677651e-38
0.0016372917 -0.034833148 0.14400001 1.8478736e-38
-0.0097192824 -0.03321078 0.14400001 1.7187297e-38
1.492395e-05 -0.033597063 0.14400001 1.7828698e-38
0.0024484755 -0.033442549 0.14400001 1.5256563e-38
-0.0097192824 -0.032979015 0.14400001 1.774191e-38
0.00035203935 -0.032473341 0.14400002 1.6537955e-38
0.0014055249 -0.03248651 0.14400001 1.5527402e-38
-0.0092557492 -0.031820182 0.14400001 1.9037686e-38
0.00028531862 -0.03162704 0.14400001 1.6077334e-38
0.0014055249 -0.031742927 0.14400001 1.4974945e-38
-0.0097192824 -0.030661346 0.14400001 1.8845741e-38
7.286566e-05 -0.030603405 0.14400001 1.5808658e-38
0.0015214083 -0.030545462 0.14400001 1.3621116e-38
-0.0097192824 -0.029966047 0.14400001 1.8015256e-38
0.00022093892 -0.029605517 0.14400001 1.6556306e-38
-0.0094875162 -0.028343679 0.14400001 1.6819221e-38
0.00047845757 -0.028729955 0.14400001 1.4803862e-38
0.00047845763 -0.026103266 0.14400001 1.4427891e-38
-0.0094875162 -0.025098944 0.14400001 1.5620685e-38
0.00024669079 -0.025330713 0.14400001 1.4978545e-38
0.00024669079 -0.024519525 0.14400001 1.424062e-38
0.0053826831 -0.040442701 0.14500001 1.2995161e-38
-0.003368929 -0.03945085 0.14500001 2.2626466e-38
-0.0012685421 -0.039742574 0.14500001 2.0969829e-38
-0.00021834872 -0.039275818 0.14500001 1.8479097e-38
0.00013171574 -0.039275818 0.14500001 1.8295064e-38
0.005336008 -0.03974257 0.14500001 1.3455051e-38
-0.0076397159 -0.038435664 0.14500001 2.3179642e-38
-0.006675093 -0.038497902 0.145 2.2991293e-38
-0.0053993026 -0.03838899 0.14500001 2.2989494e-38
-0.0046524988 -0.038342316 0.14500001 2.3454429e-38
-0.0037189934 -0.038809069 0.14500001 2.1057706e-38
-0.00021834872 -0.038809069 0.14500001 1.8847879e-38
0.00048178024 -0.038669039 0.14500001 1.7833003e-38
-0.0083865197 -0.037875563 0.14500001 2.3456594e-38
-0.0076530511 -0.03770886 0.145 2.2166214e-38
-0.0066361977 -0.037525497 0.145 2.0599609e-38
-0.0057610362 -0.03770053 0.14500001 2.1332496e-38
0.00089018873 -0.037350465 0.14500001 1.9590845e-38
0.0011819092 -0.037175436 0.14500001 1.894547e-38
-0.0067139887 -0.036630888 0.145 2.041126e-38
0.00083184475 -0.036475305 0.145 2.0974505e-38
0.0012402533 -0.036416963 0.14500001 1.9777763e-38
0.0007929487 -0.035425112 0.145 2.0325899e-38
0.0012402532 -0.035483457 0.14500001 1.9588691e-38
0.00059846841 -0.034374919 0.145 1.8382954e-38
0.0011819092 -0.034608293 0.14500001 1.7923408e-38
-0.011187036 -0.033908166 0.14500001 1.8114291e-38
-0.010953659 -0.033908166 0.14500001 1.8022095e-38
0.00057513075 -0.033441417 0.14500001 1.6906739e-38
0.0015553113 -0.033441413 0.14500001 1.6267123e-38
0.0021154145 -0.033908166 0.14500001 1.5808656e-38
-0.010020154 -0.03297466 0.14500001 1.8296882e-38
-0.0097867772 -0.032157846 0.14500001 1.95905e-38
0.00071515655 -0.03297466 0.14500001 1.6261728e-38
-0.010136842 -0.03122434 0.14500001 1.8940094e-38
-0.0097867772 -0.03180778 0.14500001 1.9775977e-38
0.00057513075 -0.031481054 0.14500001 1.5618155e-38
0.0011819092 -0.03180778 0.14500001 1.5065343e-38
0.026153175 -0.03122434 0.14500001 1.6961367e-38
-0.01025353 -0.030563107 0.14500001 1.7554636e-38
0.0006373644 -0.030563107 0.14500001 1.5357025e-38
0.026230967 -0.030718692 0.14500001 1.4010748e-38
0.00071515655 -0.02924064 0.14500001 1.4167478e-38
-0.010020154 -0.028462717 0.14500001 1.7097252e-38
-0.0097867772 -0.028073758 0.14500001 1.6547683e-38
-0.010020154 -0.027723696 0.14500001 1.7748024e-38
-0.0097867772 -0.027607007 0.14500001 1.7747664e-38
0.00083184469 -0.026206747 0.14500001 1.3415535e-38
0.00077350065 -0.025564961 0.14500001 1.4153819e-38
0.00083184469 -0.024573112 0.145 1.3873637e-38
0.0014152856 -0.024456427 0.14500001 1.3046037e-38
0.02521967 -0.013137676 0.14500001 1.2999575e-38
-0.0042434805 -0.04005415 0.147 2.2346647e-38
-0.00037751568 -0.040278245 0.14666666 1.8847166e-38
0.0057331193 -0.040094987 0.14600001 1.3271382e-38
0.0061667124 -0.04005415 0.147 1.3271378e-38
-0.0065622386 -0.039378624 0.14683335 2.3173888e-38
-0.0054264572 -0.039344367 0.147 2.3359354e-38
-0.0046378062 -0.039423231 0.147 2.2899816e-38
-0.0039796275 -0.0393117 0.14600001 2.1426491e-38
-0.0011597978 -0.039781671 0.14600001 2.0784719e-38
-0.00068982621 -0.039781671 0.14600001 2.0138624e-38
0.0058897766 -0.039781671 0.14600001 1.3271378e-38
-0.0060944995 -0.038841728 0.14600001 2.308205e-38
-0.0057420209 -0.038841728 0.14600001 2.2712548e-38
-0.0048020775 -0.038841728 0.14600001 2.3268596e-38
0.0063597481 -0.038841728 0.14600001 1.2995868e-38
0.00095507444 -0.035786916 0.14600001 2.0603204e-38
0.0014250461 -0.035786916 0.14600001 1.940538e-38
0.00078047055 -0.03431797 0.14625001 1.792125e-38
0.0011982113 -0.034375865 0.147 1.7464585e-38
-0.011104744 -0.033429485 0.147 1.8115011e-38
-0.01055923 -0.033202071 0.14600001 1.8485592e-38
0.00095507444 -0.033672042 0.14600001 1.7091489e-38
-0.011544869 -0.032455999 0.14657143 1.7371685e-38
-0.01055923 -0.032379616 0.14600001 1.9218838e-38
-0.0133524 -0.031063531 0.147 1.7007941e-38
-0.012355319 -0.031198727 0.147 1.673278e-38
-0.011578669 -0.031377178 0.14657143 1.6545148e-38
-0.010735469 -0.031380933 0.14600001 1.7739023e-38
0.00076970243 -0.031360678 0.1464 1.5808658e-38
0.0013116287 -0.031546943 0.14650001 1.4338922e-38
0.0268688 -0.031536724 0.147 1.5947574e-38
-0.013312967 -0.030511476 0.147 1.6727754e-38
-0.012324298 -0.03031815 0.14660001 1.6452243e-38
-0.011617796 -0.03059666 0.14675 1.6821017e-38
-0.010794216 -0.030460572 0.14600001 1.8018487e-38
0.00048510285 -0.030852214 0.14600001 1.5904089e-38
-0.012506145 -0.029666176 0.14633335 1.644901e-38
-0.010868149 -0.029407363 0.147 1.7185492e-38
-0.017256223 -0.028460983 0.147 1.4152397e-38
-0.016754085 -0.028235536 0.14675 1.4244593e-38
-0.012825309 -0.028664505 0.14683335 1.5158629e-38
-0.011104744 -0.028342687 0.147 1.7093295e-38
-0.01055923 -0.028502354 0.14600001 1.7742626e-38
-0.012524315 -0.027345607 0.147 1.4147361e-38
-0.011199382 -0.027419964 0.147 1.5525252e-38
-0.010402573 -0.027366588 0.14600001 1.681743e-38
-0.012524316 -0.026686519 0.147 1.3780019e-38
-0.011223041 -0.026509071 0.147 1.4421784e-38
-0.010457794 -0.02655958 0.14636365 1.53423e-38
-0.010613875 -0.025578262 0.14675 1.3962965e-38
0.00095507444 -0.025565032 0.14600001 1.4153461e-38
-0.010631554 -0.024675457 0.147 1.3412311e-38
-0.01034764 -0.023776395 0.147 1.2953134e-38
-0.00093748065 -0.040683933 0.148 2.013971e-38
-0.0049869623 -0.039850216 0.148 2.3360792e-38
0.0064468677 -0.039850216 0.148 1.308771e-38
-0.011180286 -0.034133304 0.148 1.8023534e-38
0.00096815766 -0.034847919 0.148 1.7922691e-38
-0.012133106 -0.033180483 0.148 1.7926301e-38
-0.011478042 -0.033835545 0.148 1.8207568e-38
-0.01237131 -0.032704074 0.148 1.691107e-38
-0.013443232 -0.03151305 0.148 1.7192332e-38
-0.012609515 -0.031751256 0.148 1.6362923e-38
0.027408889 -0.031632155 0.148 1.5210012e-38
-0.013562335 -0.030322026 0.148 1.5988031e-38
-0.012133106 -0.030083822 0.148 1.6449003e-38
-0.011513772 -0.030226743 0.148 1.7002534e-38
-0.017135406 -0.029131003 0.148 1.4427549e-38
-0.016897202 -0.029131003 0.148 1.4336788e-38
-0.012337281 -0.02930115 0.148 1.5894034e-38
-0.011513773 -0.029321566 0.148 1.7369165e-38
-0.016658997 -0.028654594 0.148 1.4428984e-38
-0.013324129 -0.02841639 0.148 1.4792725e-38
-0.012371311 -0.028416388 0.148 1.5066793e-38
-0.011656697 -0.02841639 0.148 1.6263534e-38
-0.012311759 -0.027820878 0.148 1.4423226e-38
-0.011656696 -0.027701775 0.148 1.5066073e-38
-0.01237131 -0.026325481 0.148 1.3504868e-38
-0.011597145 -0.026332095 0.148 1.3779294e-38
-0.011299388 -0.025796136 0.148 1.322864e-38
-0.011180286 -0.024605112 0.148 1.2953854e-38
-0.034762561 0.035660692 0.148 1.3094662e-38
-0.040241271 0.036851715 0.148 1.346417e-38
-0.039764863 0.036851715 0.148 1.3371972e-38
-0.03464346 0.0361371 0.148 1.3279413e-38
-0.0016332809 -0.041438453 0.149 2.0599249e-38
-0.00086387689 -0.0416383 0.149 1.9399263e-38
-0.0055002864 -0.040119477 0.149 2.3452629e-38
-0.012454901 -0.034124121 0.149 1.7928463e-38
-0.011855366 -0.034363937 0.149 1.8575633e-38
-0.013510084 -0.033500604 0.149 1.6176022e-38
-0.012694716 -0.033684459 0.149 1.7189098e-38
-0.014133601 -0.032445423 0.149 1.6270018e-38
-0.013494096 -0.032605298 0.149 1.6269299e-38
-0.012874575 -0.03262528 0.149 1.626786e-38
-0.014277488 -0.031582087 0.149 1.6360775e-38
-0.013494096 -0.031965792 0.149 1.6731355e-38
-0.013893786 -0.030287093 0.149 1.6540126e-38
-0.017491 -0.029487712 0.149 1.4611939e-38
-0.01669162 -0.029407775 0.149 1.4705572e-38
-0.013893786 -0.02956765 0.149 1.5529571e-38
-0.011975273 -0.029807463 0.149 1.7368086e-38
-0.016411837 -0.028728299 0.149 1.4060203e-38
-0.013653971 -0.028608393 0.149 1.5068954e-38
-0.013414157 -0.027409323 0.149 1.3505593e-38
-0.011575582 -0.025450835 0.149 1.2953854e-38
0.02247805 -0.014219536 0.149 1.3182116e-38
-0.0062614726 -0.040388733 0.15000001 2.335756e-38
-0.013745609 -0.034111716 0.15000001 1.5991991e-38
-0.013504185 -0.033628866 0.15000001 1.6176022e-38
-0.015435576 -0.032180328 0.15000001 1.5904114e-38
-0.014832016 -0.032301039 0.15000001 1.5902315e-38
0.028020702 -0.032301039 0.15000001 1.6593303e-38
-0.015539042 -0.031731967 0.14999999 1.5902316e-38
-0.014952728 -0.031617004 0.15000001 1.5624286e-38
-0.017125541 -0.030007513 0.15000001 1.4428984e-38
-0.016642693 -0.030200651 0.15000001 1.4798125e-38
-0.014590592 -0.030852497 0.15000001 1.598875e-38
-0.016280558 -0.029524665 0.15000001 1.4153476e-38
-0.016159847 -0.028800394 0.15000001 1.3874375e-38
-0.013745609 -0.028317546 0.15000001 1.4793448e-38
-0.017246254 -0.027713988 0.15000001 1.3692496e-38
-0.016696343 -0.027432324 0.14999999 1.3322998e-38
-0.017125541 -0.02662758 0.15000001 1.3139687e-38
0.022347245 -0.017453479 0.15000001 1.3273583e-38
0.022498135 -0.016397249 0.14999999 1.3182103e-38
0.022564527 -0.015328949 0.15000001 1.3090272e-38
-0.029599106 0.024634728 0.15000001 1.3187586e-38
-0.02967958 0.025278524 0.15000001 1.3279779e-38
-0.035473749 0.036866862 0.15000001 1.3463444e-38
0.0031750819 -0.042723775 0.15100001 1.5293933e-38
-0.016510611 -0.031388011 0.15100001 1.5349507e-38
-0.015599238 -0.031240456 0.15100001 1.5439536e-38
-0.017482745 -0.03061262 0.15100001 1.4703776e-38
-0.016462004 -0.030839453 0.15100001 1.5258024e-38
-0.015720753 -0.030693632 0.15100001 1.5071831e-38
-0.014566346 -0.030693632 0.15100001 1.5803639e-38
-0.018454878 -0.029964531 0.15100001 1.5164748e-38
-0.015781512 -0.029843014 0.15100001 1.470305e-38
-0.016510611 -0.028020265 0.15100001 1.3321557e-38
-0.016429601 -0.02761521 0.15100001 1.3046411e-38
-0.015781512 -0.027412683 0.15100001 1.2955296e-38
-0.031335644 0.021072449 0.15100001 1.3001391e-38
-0.030363509 0.024839465 0.15100001 1.327978e-38
-0.029553398 0.024717949 0.15100001 1.3187583e-38
-0.030432949 0.025690081 0.15100001 1.3371973e-38
-0.039396245 0.028444456 0.15100001 1.3001393e-38
-0.038140576 0.029457096 0.15100001 1.300211e-38
-0.037168443 0.037598707 0.15100001 1.3002466e-38
0.028638953 -0.032364756 0.15200001 1.4656481e-38
-0.017516978 -0.031386182 0.15200001 1.4887444e-38
-0.018332455 -0.030407613 0.15200001 1.5256947e-38
-0.015396741 -0.030896898 0.15200001 1.5161867e-38
-0.014907456 -0.030285291 0.15200001 1.5160069e-38
-0.016130669 -0.029306721 0.15200001 1.3690701e-38
-0.015559836 -0.029551364 0.15200001 1.4333547e-38
-0.014907456 -0.029918328 0.15200001 1.4792725e-38
-0.016293764 -0.028368922 0.15200001 1.3321919e-38
-0.014662813 -0.028939756 0.15200001 1.4425744e-38
-0.016252991 -0.027961185 0.15200001 1.3138245e-38
-0.033500306 0.0076343305 0.15200001 1.346417e-38
-0.03398959 0.008001294 0.15200001 1.3371975e-38
-0.02665031 0.021212002 0.15200001 1.32787e-38
-0.032358643 0.024637002 0.15200001 1.3278694e-38
-0.031461615 0.024637002 0.15200001 1.383223e-38
-0.029551074 0.024567101 0.15200002 1.3095388e-38
-0.031543165 0.025248608 0.15200001 1.318614e-38
-0.037781551 0.028551284 0.15200001 1.3002113e-38
-0.037903875 0.029040569 0.15200001 1.300211e-38
-0.036802985 0.037480742 0.15200001 1.3371249e-38
-0.038637806 0.038092349 0.15200001 1.3187581e-38
0.028581118 -0.03356269 0.15300001 1.8160303e-38
0.029073622 -0.032454558 0.15300001 1.3826363e-38
-0.018453063 -0.031223295 0.15300001 1.5534252e-38
-0.017960558 -0.031715799 0.15300001 1.5257305e-38
-0.01919182 -0.030361412 0.15300001 1.5073272e-38
-0.018945567 -0.030607665 0.15300001 1.5348422e-38
-0.016236793 -0.030484539 0.15300001 1.4338227e-38
-0.015621161 -0.030484539 0.15300001 1.4610133e-38
-0.016236793 -0.029130151 0.15300001 1.3781461e-38
-0.016236793 -0.028883899 0.15300001 1.3689265e-38
-0.015005532 -0.028637648 0.15300001 1.3782175e-38
-0.034410208 0.0075121797 0.15300001 1.364856e-38
-0.033966955 0.0073151779 0.15300001 1.383295e-38
-0.038399495 0.0086695645 0.15300001 1.4937134e-38
-0.038399495 0.0090389438 0.15300001 1.3830426e-38
-0.040738892 0.010762709 0.15300001 1.3003192e-38
-0.040738892 0.011008961 0.15300001 1.3095028e-38
-0.022269972 0.01199397 0.15300001 1.429213e-38
-0.021900594 0.01199397 0.15300001 1.4384326e-38
-0.022269972 0.012240223 0.15300001 1.4476522e-38
-0.026702512 0.014825871 0.15300001 1.3188302e-38
-0.036921982 0.017780898 0.15300001 1.3556366e-38
-0.037168235 0.018642779 0.15300001 1.3186144e-38
-0.036724977 0.018544279 0.15300001 1.3463091e-38
-0.034951963 0.018889032 0.15300001 1.32787e-38
-0.03384383 0.019135285 0.15300001 1.3186502e-38
-0.038300999 0.021253055 0.15300001 1.3003551e-38
-0.031381309 0.021105302 0.15300001 1.300175e-38
-0.02682564 0.021105302 0.15300001 1.3370896e-38
-0.037449665 0.022653176 0.15300001 1.3002831e-38
-0.030429877 0.022560427 0.15300001 1.300211e-38
-0.029318944 0.022552034 0.15300001 1.3094306e-38
-0.029534414 0.024060329 0.15300001 1.3095388e-38
-0.039630756 0.028739121 0.15300001 1.3002113e-38
-0.038645748 0.038342956 0.15300001 1.3279776e-38
-0.0082996441 -0.042317126 0.155 2.2898742e-38
-0.0074680732 -0.042358708 0.15499999 2.3173885e-38
-0.0068028159 -0.042317126 0.155 2.3081691e-38
0.029421426 -0.034078032 0.15450001 1.8345424e-38
0.029366489 -0.033366781 0.154375 1.6501115e-38
-0.018943751 -0.032005649 0.155 1.5349142e-38
-0.019411735 -0.031393521 0.15475 1.5348782e-38
-0.016095053 -0.029196613 0.15400001 1.3689622e-38
-0.01572326 -0.029196613 0.15400001 1.3781457e-38
-0.016095053 -0.028453026 0.15400001 1.3139324e-38
-0.015757026 -0.028390147 0.15433334 1.304713e-38
-0.040148806 -0.00019807029 0.155 1.3556725e-38
-0.039566707 -0.00032280589 0.155 1.3556725e-38
-0.040148806 0.00042560769 0.155 1.3648562e-38
-0.04385557 0.0068672663 0.15400001 1.3094306e-38
-0.043483775 0.0076108514 0.15400001 1.3279057e-38
-0.038901448 0.007909744 0.155 1.4569073e-38
-0.034179807 0.0076267887 0.15433334 1.346417e-38
-0.03840261 0.0084783677 0.15400001 1.4845657e-38
-0.035658322 0.0089076282 0.155 1.4108458e-38
-0.034585897 0.0084737604 0.15466668 1.3371612e-38
-0.038818289 0.0098223565 0.155 1.3001747e-38
-0.037466992 0.0096560419 0.155 1.3094305e-38
-0.036531467 0.009572885 0.15499999 1.3095025e-38
-0.03548013 0.0096204029 0.15499999 1.3463807e-38
-0.034494121 0.0099055134 0.155 1.3186502e-38
-0.038589619 0.010426846 0.154875 1.3094307e-38
-0.037654094 0.010487612 0.15499999 1.3647483e-38
-0.036531467 0.010487612 0.15499999 1.3279779e-38
-0.035408851 0.010487611 0.15499999 1.3187583e-38
-0.034660436 0.010466823 0.155 1.3095747e-38
-0.041314986 0.011514673 0.15400001 1.3003192e-38
-0.039228816 0.011494018 0.15400001 1.3095029e-38
-0.038464565 0.011368754 0.15412502 1.346309e-38
-0.037679378 0.011494611 0.15489998 1.3370894e-38
-0.036531467 0.011485497 0.15499999 1.3371973e-38
-0.035408854 0.011485498 0.15499999 1.3003552e-38
-0.028423658 0.011402341 0.155 1.3831874e-38
-0.027518218 0.01130831 0.15440002 1.3831874e-38
-0.02692683 0.011402341 0.155 1.3463091e-38
-0.022278659 0.011571848 0.15459999 1.3647844e-38
-0.021687934 0.011901283 0.155 1.4107742e-38
-0.038485236 0.012320224 0.15400003 1.3186863e-38
-0.037676539 0.012366758 0.15458333 1.3187222e-38
-0.036565486 0.012377546 0.15499999 1.3279776e-38
-0.023434233 0.012400225 0.155 1.4292849e-38
-0.022525299 0.012567328 0.15475 1.4753108e-38
-0.021741904 0.012111558 0.15450001 1.4384326e-38
-0.033662554 0.013897053 0.155 1.3371259e-38
-0.028298922 0.013647582 0.155 1.3555286e-38
-0.026427886 0.013797265 0.155 1.3464172e-38
-0.025679475 0.013797264 0.155 1.3924431e-38
-0.036597472 0.014522802 0.15418184 1.3096109e-38
-0.03353782 0.01467665 0.15499999 1.4201377e-38
-0.028174186 0.014770202 0.155 1.3648562e-38
-0.027454462 0.014557457 0.15459999 1.3372335e-38
-0.02647821 0.014590461 0.15474999 1.3464529e-38
-0.025845788 0.014479153 0.155 1.3556366e-38
-0.033496242 0.015643351 0.15499999 1.5214087e-38
-0.032914139 0.015643351 0.155 1.5121887e-38
-0.028340502 0.015726509 0.15499999 1.3556002e-38
-0.027568327 0.015714629 0.15499999 1.3279776e-38
-0.022240041 0.015717626 0.15450001 1.4107739e-38
-0.021438463 0.015643351 0.155 1.4107019e-38
-0.033496242 0.016558079 0.15499999 1.3646758e-38
-0.029449262 0.016641237 0.15499999 1.309323e-38
-0.02842366 0.016558079 0.15499999 1.3738958e-38
-0.027550509 0.016610052 0.15499999 1.3370536e-38
-0.029546278 0.017472807 0.15499999 1.3094307e-38
-0.028423658 0.017472807 0.15499999 1.3739674e-38
-0.027508929 0.017472807 0.15499999 1.3094306e-38
-0.026511045 0.017472807 0.15499999 1.3093949e-38
-0.025928944 0.017639121 0.155 1.3923709e-38
-0.034535434 0.018338325 0.15428574 1.3462731e-38
-0.029546278 0.018470692 0.15499999 1.3370891e-38
-0.028423658 0.018470693 0.15499999 1.3278336e-38
-0.027508929 0.018470695 0.15499999 1.3093947e-38
-0.026511045 0.018470693 0.15499999 1.3370896e-38
-0.02564829 0.018512271 0.15499999 1.4108101e-38
-0.024847902 0.018720163 0.155 1.3370894e-38
-0.034560751 0.01901249 0.15400001 1.3555286e-38
-0.031545103 0.019260352 0.15400003 1.3187942e-38
-0.030636277 0.019260354 0.15400003 1.3832231e-38
-0.029606346 0.019343624 0.15466666 1.364748e-38
-0.026511043 0.01938542 0.15499999 1.300211e-38
-0.025596315 0.01938542 0.15499999 1.3278699e-38
-0.023733599 0.019535102 0.155 1.3094669e-38
-0.022685818 0.019634891 0.155 1.3096108e-38
-0.028466752 0.020526461 0.15492307 1.3095389e-38
-0.027508928 0.020508038 0.15499999 1.3371975e-38
-0.026511045 0.02050804 0.15499999 1.3095388e-38
-0.02654718 0.021670232 0.15488888 1.3002113e-38
-0.030223172 0.022978278 0.15400001 1.3370893e-38
-0.038253892 0.037651692 0.15400001 1.3278699e-38
-0.03785665 0.037601382 0.1542 1.3371613e-38
-0.038278677 0.038097844 0.15400001 1.3555284e-38
-0.020321371 -0.031458892 0.156 1.580976e-38
-0.019819211 -0.031961054 0.156 1.5348422e-38
-0.039905667 -7.3807823e-05 0.156 1.3556366e-38
-0.049446736 0.00084682135 0.156 1.4292844e-38
-0.048657626 0.00075117161 0.156 1.3831865e-38
-0.046182688 0.00093051494 0.156 1.4569073e-38
-0.04065891 0.00080497458 0.156 1.3648562e-38
-0.038148105 0.0069564516 0.156 1.3371975e-38
-0.037358996 0.0067771077 0.156 1.3279059e-38
-0.036892701 0.0065798303 0.156 1.3463091e-38
-0.038148105 0.0074586128 0.156 1.3279779e-38
-0.037394863 0.0074586128 0.156 1.3278694e-38
-0.035888378 0.007960774 0.156 1.3279776e-38
-0.034130812 0.0077096932 0.156 1.3556365e-38
-0.033691417 0.0078980038 0.156 1.3556366e-38
-0.030364601 0.0077814306 0.156 1.3831874e-38
-0.029862439 0.007960774 0.156 1.3555287e-38
-0.038399186 0.0087140165 0.156 1.3831505e-38
-0.035637297 0.0087642325 0.156 1.3739675e-38
-0.034489498 0.0087857535 0.156 1.3370893e-38
-0.03362865 0.0087140165 0.156 1.3464169e-38
-0.032875407 0.0089650974 0.156 1.3371975e-38
-0.030364599 0.0087140165 0.156 1.3555647e-38
-0.029661575 0.0087642325 0.156 1.3555287e-38
-0.038430568 0.0095927985 0.156 1.318542e-38
-0.035135135 0.0094672581 0.156 1.3647121e-38
-0.034489498 0.0095389951 0.156 1.3370533e-38
-0.03362865 0.0096346457 0.156 1.3463807e-38
-0.032498788 0.0096346457 0.156 1.346381e-38
-0.031368926 0.0096346447 0.156 1.346417e-38
-0.030364603 0.0096346457 0.156 1.3740397e-38
-0.029454432 0.0095927985 0.156 1.392443e-38
-0.028523341 0.0098438794 0.156 1.3647483e-38
-0.027530978 0.0097542079 0.156 1.373968e-38
-0.033628646 0.010555276 0.156 1.318722e-38
-0.032498788 0.010555275 0.156 1.346273e-38
-0.031368922 0.010555275 0.156 1.346417e-38
-0.030552911 0.010471581 0.156 1.3740037e-38
-0.029109197 0.010973742 0.156 1.3739678e-38
-0.028523343 0.010555274 0.156 1.3463091e-38
-0.027519021 0.010555275 0.156 1.3555288e-38
-0.026849471 0.010973742 0.156 1.3463091e-38
-0.031368926 0.011559597 0.156 1.3001391e-38
-0.030490143 0.011559597 0.156 1.3463091e-38
-0.029192889 0.011392211 0.156 1.3647483e-38
-0.028732575 0.011224823 0.156 1.3831874e-38
-0.027519019 0.011224824 0.156 1.3647483e-38
-0.026849471 0.011559598 0.156 1.3370896e-38
-0.023208801 0.011726985 0.156 1.3741119e-38
-0.022330018 0.011287592 0.156 1.3280141e-38
-0.021451235 0.011507289 0.156 1.3648563e-38
-0.036265001 0.012731307 0.156 1.3187583e-38
-0.032498788 0.012480226 0.156 1.3094307e-38
-0.027519019 0.012731307 0.156 1.3555287e-38
-0.026849471 0.012731307 0.156 1.3648562e-38
-0.023585422 0.012480227 0.156 1.4292851e-38
-0.022162631 0.012647614 0.156 1.4936781e-38
-0.021702316 0.012354687 0.156 1.4568717e-38
-0.017308403 0.012731307 0.156 1.3923348e-38
-0.032498788 0.01361009 0.15599999 1.3279779e-38
-0.031368922 0.013610091 0.156 1.4108458e-38
-0.030472206 0.013735631 0.156 1.4016621e-38
-0.029209629 0.013785847 0.156 1.3370174e-38
-0.028391823 0.013699763 0.156 1.346345e-38
-0.027557062 0.013575853 0.156 1.3279422e-38
-0.026598392 0.01335901 0.156 1.3464173e-38
-0.025434287 0.013530203 0.156 1.4016265e-38
-0.024589743 0.013986711 0.156 1.4016265e-38
-0.023208801 0.01323347 0.156 1.5120812e-38
-0.022832179 0.01323347 0.156 1.4936421e-38
-0.01735862 0.013333902 0.156 1.3002113e-38
-0.033377569 0.014488873 0.156 1.3832956e-38
-0.032498788 0.014739954 0.156 1.512225e-38
-0.031368922 0.014739954 0.156 1.5029335e-38
-0.030364603 0.014739954 0.156 1.383043e-38
-0.029391663 0.01477134 0.156 1.3462365e-38
-0.028657252 0.014639522 0.156 1.364748e-38
-0.026347309 0.014991035 0.156 1.3280498e-38
-0.025434287 0.014762781 0.156 1.3187944e-38
-0.032498788 0.015744276 0.156 1.4475436e-38
-0.031368922 0.015744276 0.156 1.3368369e-38
-0.029485818 0.015712891 0.156 1.3093223e-38
-0.028858116 0.015493196 0.156 1.3739312e-38
-0.023365727 0.01577566 0.156 1.3278699e-38
-0.022330018 0.015694061 0.156 1.3830793e-38
-0.021433303 0.015744274 0.156 1.410738e-38
-0.020697992 0.015744278 0.156 1.3923708e-38
-0.024338663 0.016664905 0.156 1.3831872e-38
-0.023334341 0.016664905 0.156 1.4291049e-38
-0.02241371 0.016664905 0.156 1.40141e-38
-0.021493085 0.016664905 0.156 1.4475077e-38
-0.020723101 0.016648168 0.156 1.4290686e-38
-0.034130812 0.017376302 0.156 1.3463089e-38
-0.033879731 0.017501842 0.156 1.3093943e-38
-0.025468526 0.017376304 0.156 1.4384686e-38
-0.024338663 0.017376302 0.156 1.5029331e-38
-0.023334341 0.017376304 0.156 1.3461288e-38
-0.02241371 0.017376302 0.156 1.3000314e-38
-0.021493083 0.017376304 0.156 1.3092865e-38
-0.02048876 0.017376304 0.156 1.3369452e-38
-0.01956813 0.017376302 0.156 1.4291407e-38
-0.018689347 0.017501842 0.156 1.3461291e-38
-0.034130812 0.018255083 0.156 1.346309e-38
-0.033816963 0.018317852 0.156 1.3370893e-38
-0.025414722 0.018111607 0.156 1.4661272e-38
-0.024338663 0.018255085 0.156 1.3922626e-38
-0.023334341 0.018255083 0.156 1.3185784e-38
-0.02048876 0.018255083 0.156 1.3002112e-38
-0.01956813 0.018255083 0.156 1.3002473e-38
-0.033879731 0.019008325 0.156 1.3278697e-38
-0.024288446 0.019108757 0.156 1.3186504e-38
-0.023334341 0.019259406 0.156 1.3187225e-38
-0.015413884 0.019419182 0.156 1.346309e-38
-0.014510646 0.019582223 0.156 1.4200295e-38
-0.013793273 0.019761568 0.156 1.429213e-38
-0.01538345 0.020514809 0.156 1.3185061e-38
-0.014462822 0.020514809 0.156 1.3830068e-38
0.030339098 -0.034566492 0.15700001 1.8160661e-38
0.030339098 -0.033555735 0.15700001 1.4841232e-38
-0.050016392 -7.428095e-05 0.15700001 1.4016262e-38
-0.049763702 -7.428095e-05 0.15700001 1.3831871e-38
-0.039656095 -0.00032697115 0.15700001 1.346453e-38
-0.050142735 0.00062061707 0.15700001 1.4661627e-38
-0.049763702 0.00043109944 0.15700001 1.4477596e-38
-0.04622604 0.00093647983 0.15700001 1.4107739e-38
-0.040382579 0.00071537594 0.15700001 1.3556366e-38
-0.039740324 0.00051532948 0.15700001 1.3648562e-38
-0.046442628 0.0016584519 0.15699999 1.3462007e-38
-0.045720663 0.0016945504 0.15700001 1.3278696e-38
-0.040414162 0.0016945505 0.15700001 1.364856e-38
-0.046442632 0.0026692126 0.15699999 1.3556725e-38
-0.045720663 0.002621081 0.15700001 1.3556006e-38
-0.040464707 0.0024020828 0.15700001 1.4108098e-38
-0.04647873 0.0033117675 0.15700001 1.3187945e-38
-0.045804888 0.0032949212 0.15700001 1.3464172e-38
-0.031822696 0.0057375934 0.15700001 1.4108461e-38
-0.036792267 0.0066641239 0.15700001 1.3463451e-38
-0.032285962 0.0065798932 0.15700001 1.4201016e-38
-0.031570006 0.0065967394 0.15700001 1.4201016e-38
-0.030685591 0.0067483541 0.15700001 1.4200656e-38
-0.039547801 0.0075425231 0.15699999 1.3924068e-38
-0.038645335 0.0075569628 0.15700001 1.3279776e-38
-0.03738188 0.0075569628 0.15700001 1.3001747e-38
-0.036750153 0.0074221953 0.15700001 1.3094305e-38
-0.034181137 0.0071695042 0.15700001 1.346417e-38
-0.033338837 0.0074748378 0.15700001 1.3740397e-38
-0.032454424 0.0073800795 0.15700001 1.410954e-38
-0.031401545 0.0072537339 0.15700001 1.4385406e-38
-0.030306557 0.0072537349 0.15700001 1.4015905e-38
-0.029580072 0.0074748388 0.15700001 1.3555287e-38
-0.028664069 0.0077591147 0.15700001 1.4108101e-38
-0.039277062 0.0082644951 0.15700001 1.4661626e-38
-0.038476869 0.0080118049 0.15700001 1.3555281e-38
-0.0368765 0.0080118049 0.15700001 1.3001747e-38
-0.033212494 0.0084329545 0.15700001 1.3556365e-38
-0.032454424 0.0084855985 0.15700001 1.3740757e-38
-0.031822696 0.0087698754 0.15700001 1.3648562e-38
-0.029512387 0.0083366921 0.15699999 1.3647483e-38
-0.028537724 0.0084329545 0.15700001 1.3924069e-38
-0.027577501 0.0086687999 0.15700001 1.4200656e-38
-0.032412305 0.0090225656 0.15700001 1.346417e-38
-0.031570006 0.0090225656 0.15700001 1.3556366e-38
-0.029295795 0.0090225656 0.15700001 1.3831874e-38
-0.028537726 0.0091489106 0.15700001 1.3831874e-38
-0.02730586 0.0092120832 0.15700001 1.4016265e-38
-0.030222327 0.010454476 0.15700001 1.3831874e-38
-0.029700097 0.010336554 0.15700001 1.3831874e-38
-0.027021581 0.010286016 0.15700001 1.4016265e-38
-0.026299609 0.010358214 0.15699999 1.3554927e-38
-0.025505442 0.010538707 0.15700001 1.4199937e-38
-0.030222327 0.011128317 0.15700001 1.3739678e-38
-0.029801175 0.011170432 0.15700001 1.3555287e-38
-0.026263513 0.011296776 0.15700001 1.3094309e-38
-0.025336981 0.011296777 0.15700001 1.3371616e-38
-0.024578908 0.011465237 0.15700001 1.3003551e-38
-0.023736609 0.011423122 0.15700001 1.3372695e-38
-0.021462398 0.011044088 0.15700001 1.3280501e-38
-0.020451635 0.011296776 0.15700001 1.3372336e-38
-0.019777797 0.011128317 0.15700001 1.3280501e-38
-0.027021583 0.012433883 0.15700001 1.346417e-38
-0.026263513 0.012433883 0.15700002 1.3095388e-38
-0.025336983 0.012433883 0.15700002 1.3555647e-38
-0.02449468 0.012433883 0.15700001 1.3832234e-38
-0.023989299 0.012054848 0.15700001 1.346417e-38
-0.021462398 0.012560228 0.15699999 1.4568356e-38
-0.020704327 0.012054848 0.15700001 1.456872e-38
-0.018177425 0.012812918 0.15700001 1.3738957e-38
-0.017924735 0.012812918 0.15700001 1.3646761e-38
-0.030559245 0.013570989 0.15700001 1.4201009e-38
-0.029801175 0.013444644 0.15700001 1.3001752e-38
-0.025063232 0.013507817 0.15700001 1.4384687e-38
-0.02449468 0.013570989 0.15700001 1.456872e-38
-0.023772707 0.013643187 0.15699999 1.429213e-38
-0.022662675 0.013539403 0.15700001 1.3923348e-38
-0.021336053 0.013697335 0.15700001 1.3554565e-38
-0.020388465 0.013760507 0.15700001 1.3092868e-38
-0.019472461 0.013602576 0.15700001 1.3184704e-38
-0.018598579 0.013570989 0.15700001 1.3369455e-38
-0.01779839 0.01382368 0.15700001 1.300211e-38
-0.030053865 0.01432906 0.15700001 1.3739314e-38
-0.024241989 0.01432906 0.15700001 1.3371615e-38
-0.023736609 0.01449752 0.15700001 1.3002113e-38
-0.022697773 0.01458175 0.15700001 1.3001752e-38
-0.019525105 0.01407637 0.15700001 1.3093228e-38
-0.018809151 0.01407637 0.15700001 1.3277978e-38
-0.022725848 0.01508713 0.15700001 1.32787e-38
-0.020325292 0.01550828 0.15700001 1.327834e-38
-0.01965145 0.015634626 0.15700001 1.3831874e-38
-0.018598577 0.015845202 0.15700001 1.4107739e-38
-0.017587816 0.015845202 0.15700001 1.346237e-38
-0.016913975 0.015845202 0.15700001 1.3094309e-38
-0.013629001 0.015845202 0.15700001 1.32787e-38
-0.020379439 0.016494976 0.15699999 1.4660909e-38
-0.019525107 0.016434811 0.15700001 1.4292488e-38
-0.018598577 0.016434811 0.15700001 1.3645322e-38
-0.017587814 0.016434811 0.15700001 1.3093949e-38
-0.016661283 0.016434813 0.15700001 1.3002115e-38
-0.015650524 0.016603272 0.15700001 1.3186504e-38
-0.014478958 0.01646544 0.15700002 1.3739678e-38
-0.013407897 0.016476927 0.15700001 1.3463089e-38
-0.020325292 0.017108653 0.15700001 1.4843139e-38
-0.019440876 0.017171826 0.15700001 1.4568713e-38
-0.018538412 0.017289147 0.15699999 1.3276899e-38
-0.017587816 0.017361343 0.15700001 1.3001754e-38
-0.016661283 0.017361343 0.15700001 1.3187226e-38
-0.01337631 0.017361343 0.15700001 1.32787e-38
-0.01244978 0.017361341 0.15700001 1.3094309e-38
-0.014459269 0.01923847 0.15699999 1.32787e-38
-0.01337631 0.019509211 0.15700002 1.3001391e-38
0.030786639 -0.034574743 0.15800001 1.7699665e-38
0.030786639 -0.033642311 0.15800001 1.4102952e-38
-0.043418016 -0.0073477244 0.15800001 1.3740757e-38
-0.046011873 -0.0054150475 0.15800001 1.3094309e-38
-0.043610148 -0.0054998142 0.15800001 1.327978e-38
-0.048385337 -0.0042283158 0.15800001 1.3372335e-38
-0.048351429 -0.0037875294 0.15800001 1.346417e-38
-0.037365682 -0.0014734024 0.15800001 1.4754183e-38
-0.036475636 -0.0015496924 0.15800001 1.3923705e-38
-0.039569616 -0.00028667049 0.15800001 1.3464529e-38
-0.038600851 -0.00025639671 0.15800001 1.3648922e-38
-0.037596863 -0.00042152638 0.15800001 1.364856e-38
-0.036772314 -0.00075288658 0.15800001 1.3740033e-38
-0.040162981 0.0009424446 0.15800001 1.3556366e-38
-0.039509065 0.00076080195 0.15800001 1.3648203e-38
-0.03863718 0.00068814488 0.15800001 1.3279779e-38
-0.037619982 0.00068814494 0.15800001 1.3370893e-38
-0.033381652 0.00077291153 0.15800001 1.4108095e-38
-0.040162981 0.0017053435 0.15800001 1.3556006e-38
-0.039569613 0.0017053436 0.15800001 1.3924069e-38
-0.03863718 0.0017053436 0.15800001 1.3556366e-38
-0.037619982 0.0017053435 0.15800001 1.4383964e-38
-0.033042587 0.0019596433 0.15800001 1.4108095e-38
-0.032788288 0.0019596433 0.15800001 1.3831508e-38
-0.040162981 0.0022139431 0.15800001 1.3739675e-38
-0.039501805 0.0024173828 0.15800001 1.3647483e-38
-0.038637184 0.0026377761 0.15800001 1.3556365e-38
-0.03765177 0.0026907551 0.15800001 1.3739678e-38
-0.033260558 0.0026862137 0.15800001 1.4108094e-38
-0.032724716 0.0027225423 0.15800001 1.3923704e-38
-0.038467649 0.0034006748 0.15800001 1.3556365e-38
-0.03767084 0.0034345812 0.15800001 1.3279779e-38
-0.034059785 0.0032311417 0.15800001 1.4385401e-38
-0.033328671 0.003612591 0.15800001 1.401662e-38
-0.032570317 0.0037034124 0.15800001 1.4108096e-38
-0.03177109 0.0039940407 0.15800001 1.4475798e-38
-0.033169739 0.0043754904 0.15800001 1.447724e-38
-0.032449223 0.0043754899 0.15800001 1.4661272e-38
-0.03151679 0.0043754899 0.15800001 1.4844581e-38
-0.03075389 0.0045026401 0.15800001 1.5028972e-38
-0.027193695 0.0045026401 0.15800001 1.4936777e-38
-0.035585586 0.005265539 0.15800001 1.4385045e-38
-0.033169735 0.0053926883 0.15800001 1.4384686e-38
-0.032487754 0.005358011 0.15800001 1.447688e-38
-0.03151679 0.0053926888 0.15800001 1.4200293e-38
-0.03052271 0.0054273657 0.15800001 1.3739317e-38
-0.029518722 0.0055924961 0.15800001 1.3831514e-38
-0.02854996 0.0057741385 0.15800001 1.4108819e-38
-0.027193695 0.0051383893 0.15800001 1.429213e-38
-0.040608004 0.0067277621 0.15800001 1.3003192e-38
-0.034059785 0.0067913369 0.15800001 1.3371975e-38
-0.033369545 0.0065370379 0.15800001 1.392443e-38
-0.032788288 0.0062827379 0.15800001 1.3831874e-38
-0.03151679 0.0064098877 0.15800001 1.3924069e-38
-0.030467803 0.0065052505 0.15800001 1.4016265e-38
-0.029482391 0.0065370379 0.15800001 1.4016624e-38
-0.02854996 0.0065370379 0.15800001 1.4016984e-38
-0.027670506 0.0065688253 0.15800001 1.3740757e-38
-0.026939394 0.0067913369 0.15800001 1.3832953e-38
-0.017276006 0.0066641872 0.15800001 1.3463091e-38
-0.039781533 0.0072999364 0.15800001 1.3371972e-38
-0.033805486 0.0072999364 0.15800001 1.3648562e-38
-0.032025389 0.0078085358 0.15800001 1.3925148e-38
-0.03177109 0.0078085358 0.15800001 1.3832953e-38
-0.029312858 0.007384703 0.15800001 1.3831874e-38
-0.028496981 0.0075224489 0.15800001 1.4108461e-38
-0.027617525 0.0075542363 0.15800001 1.4107742e-38
-0.026837673 0.0076050959 0.15800001 1.4199936e-38
-0.025540747 0.0078085358 0.15800001 1.3647483e-38
-0.024523547 0.0078085358 0.15800001 1.4660914e-38
-0.020073302 0.0078085358 0.15800001 1.429213e-38
-0.019437551 0.0075860238 0.15800001 1.4199936e-38
-0.018579293 0.0075860238 0.15800001 1.3923351e-38
-0.017615071 0.0075966194 0.15800001 1.3738959e-38
-0.032025389 0.0083171353 0.15800001 1.3832953e-38
-0.03177109 0.0084866686 0.15800001 1.3648562e-38
-0.028210893 0.0080628358 0.15800001 1.4200656e-38
-0.027447995 0.0083171353 0.15800001 1.4108461e-38
-0.026600325 0.0084866686 0.15800001 1.3739678e-38
-0.025667898 0.0084866686 0.15800001 1.4200656e-38
-0.024523547 0.0084866686 0.15800001 1.4569079e-38
-0.023463966 0.0086138183 0.15800001 1.4660913e-38
-0.0221077 0.0088257343 0.15800001 1.4476522e-38
-0.021429569 0.0088257343 0.15800001 1.3831152e-38
-0.020327602 0.0086222943 0.15800001 1.3739318e-38
-0.019479938 0.0084866686 0.15800001 1.3831514e-38
-0.018547505 0.0084866686 0.15800001 1.3647124e-38
-0.017403156 0.0084866695 0.15800001 1.3831514e-38
-0.016411388 0.0085714348 0.15800001 1.309359e-38
-0.026600327 0.0094191004 0.15800001 1.3924069e-38
-0.025667896 0.0094191004 0.15800001 1.4569439e-38
-0.024523547 0.0094191013 0.15800001 1.456872e-38
-0.023379199 0.0094191004 0.15800001 1.3924069e-38
-0.022361999 0.0094191004 0.15800001 1.309467e-38
-0.016258806 0.0094191004 0.15800001 1.3002115e-38
-0.026176495 0.010097233 0.15800001 1.4016265e-38
-0.025631567 0.010315203 0.15800001 1.4384689e-38
-0.024523547 0.010436299 0.15800001 1.3186509e-38
-0.023633499 0.011114432 0.15800001 1.3096109e-38
-0.020073302 0.011623031 0.15800001 1.3925148e-38
-0.019419389 0.011441387 0.15800001 1.3740398e-38
-0.018547505 0.011368731 0.15800001 1.3739678e-38
-0.017403156 0.01136873 0.15800001 1.3555287e-38
-0.016258808 0.011368731 0.15800001 1.3187225e-38
-0.014521092 0.011453498 0.15800001 1.3002115e-38
-0.013715809 0.011368732 0.15800001 1.3186147e-38
-0.012868144 0.011538264 0.15800001 1.3279422e-38
-0.021154076 0.012703804 0.15800001 1.4752387e-38
-0.020466311 0.012547756 0.15800001 1.4752028e-38
-0.019479938 0.012513079 0.15800001 1.4567638e-38
-0.018572936 0.012436789 0.15800001 1.4291411e-38
-0.017366828 0.012458587 0.15800001 1.4107379e-38
-0.016258806 0.012513079 0.15800001 1.3738957e-38
-0.015368758 0.01251308 0.15800001 1.3554925e-38
-0.014648244 0.012513079 0.15800001 1.346273e-38
-0.01371581 0.01251308 0.15800001 1.3370894e-38
-0.012698612 0.01251308 0.15800001 1.3095388e-38
-0.022277234 0.013742196 0.15800001 1.3462368e-38
-0.021429569 0.013572663 0.15800001 1.4291409e-38
-0.020581903 0.013466705 0.15800001 1.4014103e-38
-0.016258806 0.01365743 0.15800001 1.3002113e-38
-0.020073302 0.014801778 0.15800001 1.3093587e-38
-0.019479936 0.014801778 0.15800001 1.3369814e-38
-0.018515717 0.014706415 0.15800001 1.3738596e-38
-0.017403156 0.014674626 0.15800001 1.3001753e-38
-0.019373979 0.015310377 0.15800001 1.3554567e-38
-0.018547505 0.015437526 0.15800001 1.4015183e-38
-0.017403156 0.015437526 0.15800001 1.327798e-38
-0.014648242 0.015607061 0.15800001 1.3185786e-38
-0.013679481 0.015510184 0.15800001 1.3277981e-38
-0.015368758 0.016200425 0.15800001 1.32787e-38
-0.044383772 -0.0080084112 0.15900001 1.4017344e-38
-0.043743998 -0.00826432 0.15900001 1.3648562e-38
-0.045279451 -0.0072406838 0.15900001 1.3925148e-38
-0.044543713 -0.0074965931 0.15900002 1.3832953e-38
-0.043488085 -0.0075605707 0.15900001 1.3832953e-38
-0.042848311 -0.0072406838 0.15900001 1.3371975e-38
-0.043232176 -0.005705229 0.15900001 1.3003914e-38
-0.037282288 -0.0022504553 0.15900001 1.3648199e-38
-0.036468863 -0.0024515267 0.15900002 1.4108458e-38
-0.035469603 -0.0025490157 0.15900002 1.4385045e-38
-0.03444596 -0.0025490159 0.15900002 1.4477239e-38
-0.033592928 -0.0024210615 0.15900002 1.4384682e-38
-0.040417176 -0.0013547731 0.15900001 1.3557088e-38
-0.039466653 -0.0014644483 0.15900002 1.3557088e-38
-0.038333345 -0.0015375653 0.15900002 1.3834032e-38
-0.037474222 -0.0018665914 0.15900001 1.4754183e-38
-0.036130697 -0.0016746596 0.15900001 1.4384326e-38
-0.035469599 -0.0016106822 0.15900002 1.4660911e-38
-0.03444596 -0.0017386368 0.15900002 1.4753464e-38
-0.033507623 -0.001610682 0.15900002 1.4200651e-38
-0.040417176 -0.00084295473 0.15900001 1.3557088e-38
-0.039466657 -0.00073327933 0.15900002 1.3464532e-38
-0.038497858 -0.00084295473 0.15900001 1.3741479e-38
-0.037346266 -0.00033113637 0.15900001 1.3556363e-38
-0.035682857 -0.00084295473 0.15900001 1.4108458e-38
-0.033507627 -0.00033113637 0.15900001 1.4107375e-38
-0.037346266 0.00056454568 0.15900001 1.3739675e-38
-0.034019444 0.00030863652 0.15900001 1.3923704e-38
-0.03347107 0.00036347419 0.15900002 1.3739312e-38
-0.025318533 0.00056454568 0.15900001 1.5306638e-38
-0.037346266 0.0017161369 0.15900001 1.5950208e-38
-0.032452002 0.0017481258 0.15900002 1.4476877e-38
-0.031588312 0.0017481255 0.15900002 1.4384323e-38
-0.030436717 0.0019080689 0.15900001 1.484566e-38
-0.029541034 0.0017481255 0.15900002 1.4845301e-38
-0.028613364 0.0017481258 0.15900002 1.48453e-38
-0.027749671 0.0019720462 0.15900001 1.5305559e-38
-0.037602175 0.0022279553 0.15900001 1.4659834e-38
-0.034019444 0.0024838643 0.15900001 1.419993e-38
-0.032452002 0.002611819 0.15900002 1.4200291e-38
-0.031545654 0.0026544707 0.15900002 1.4844943e-38
-0.030522022 0.0026544703 0.15900002 1.5305562e-38
-0.029583685 0.0026544705 0.15900002 1.5582146e-38
-0.02856005 0.0026544707 0.15900002 1.5397755e-38
-0.027621716 0.0026544705 0.15900002 1.5305559e-38
-0.02679001 0.0027397736 0.15900001 1.5121168e-38
-0.037346266 0.0036354556 0.15900001 1.3739678e-38
-0.032356039 0.0035075012 0.15900001 1.3739673e-38
-0.031545658 0.0035075012 0.15900002 1.4844225e-38
-0.030522019 0.0035075012 0.15900002 1.5213003e-38
-0.029583687 0.0035075012 0.15900002 1.5305559e-38
-0.02856005 0.0035075012 0.15900002 1.5213364e-38
-0.027621716 0.0035075012 0.15900002 1.5121168e-38
-0.026649261 0.003558683 0.15900001 1.5213364e-38
-0.022631485 0.0037634103 0.15900001 1.4384326e-38
-0.021735804 0.0037634103 0.15900001 1.4199935e-38
-0.038113993 0.0040193195 0.15900001 1.3464889e-38
-0.037397448 0.0041216835 0.15900001 1.3464532e-38
-0.031289749 0.0041046226 0.15900001 1.5120449e-38
-0.030468708 0.0042432402 0.15900002 1.4844222e-38
-0.029583685 0.0042752288 0.15900002 1.4752744e-38
-0.02856005 0.0042752288 0.15900002 1.4844943e-38
-0.027658274 0.0042021121 0.15900002 1.5121168e-38
-0.026470127 0.0042752288 0.15900002 1.4936779e-38
-0.025355091 0.0043483456 0.15900002 1.4200295e-38
-0.024294896 0.0044031832 0.15900002 1.3831512e-38
-0.023303248 0.0043072174 0.15900002 1.3647483e-38
-0.022631487 0.0042752288 0.15900002 1.3831514e-38
-0.021735804 0.0042752288 0.15900002 1.3831515e-38
-0.020744156 0.0043072174 0.15900002 1.3923709e-38
-0.030308763 0.0050429562 0.15900001 1.4015543e-38
-0.029455731 0.0052135619 0.15900002 1.4015543e-38
-0.028517401 0.0053500468 0.15900002 1.4108098e-38
-0.027685694 0.0055547748 0.15900002 1.4200295e-38
-0.026470127 0.0054268204 0.15900001 1.4108458e-38
-0.025318533 0.005426819 0.15900002 1.3647841e-38
-0.024294896 0.0054268199 0.15900002 1.3279779e-38
-0.023356562 0.0054268204 0.15900002 1.327978e-38
-0.022631485 0.0054268194 0.15900002 1.346417e-38
-0.021735802 0.0054268199 0.15900002 1.3648562e-38
-0.020584213 0.0054268199 0.15900001 1.3740757e-38
-0.01946461 0.0055867629 0.15900002 1.3832593e-38
-0.018494288 0.0056827292 0.15900002 1.3739318e-38
-0.017726561 0.0057253805 0.15900001 1.3554568e-38
-0.02749376 0.0063225022 0.15900001 1.4016983e-38
-0.026470125 0.0065784114 0.15900002 1.4015905e-38
-0.025318533 0.0065784114 0.15900002 1.3739678e-38
-0.024294896 0.0065784114 0.15900002 1.3739678e-38
-0.023356562 0.0065784114 0.15900002 1.3556006e-38
-0.022631487 0.0065784114 0.15900002 1.3279419e-38
-0.021735804 0.0065784114 0.15900002 1.3647841e-38
-0.020584213 0.0065784114 0.15900002 1.3739319e-38
-0.019432621 0.0065784114 0.15900002 1.3648201e-38
-0.018494288 0.0065784114 0.15900002 1.3647483e-38
-0.01747065 0.0063225017 0.15900001 1.3554568e-38
-0.016660271 0.0066637141 0.15900002 1.3369096e-38
-0.015849892 0.0068343203 0.15900001 1.3828634e-38
-0.02642747 0.0075451788 0.15900002 1.3831152e-38
-0.025318533 0.0074740932 0.15900002 1.3923711e-38
-0.024258336 0.0075289309 0.15900002 1.4660914e-38
-0.023356564 0.0076020476 0.15900002 1.49375e-38
-0.022631487 0.0076020476 0.15900002 1.5030051e-38
-0.021735804 0.0076020476 0.15900002 1.484566e-38
-0.020683734 0.0075451788 0.15900002 1.4476522e-38
-0.018408984 0.0073461388 0.15900001 1.3831155e-38
-0.017231802 0.0075508663 0.15900001 1.3554927e-38
-0.016532319 0.0076020476 0.15900002 1.32787e-38
-0.0156671 0.0076386062 0.15900002 1.327834e-38
-0.014826255 0.0078579569 0.15900001 1.3370896e-38
-0.023117715 0.008472139 0.15900001 1.4845304e-38
-0.022657078 0.008472139 0.15900001 1.4845663e-38
-0.021735802 0.0083697746 0.15900002 1.466127e-38
-0.020840121 0.0083697755 0.15900001 1.4384685e-38
-0.015593983 0.0083697746 0.15900002 1.3278341e-38
-0.014570346 0.008552568 0.15900002 1.3370538e-38
-0.01354671 0.0086256843 0.15900001 1.3278341e-38
-0.015593983 0.0096493214 0.15900002 1.3463091e-38
-0.014533787 0.0095762033 0.15900002 1.3462731e-38
-0.013418754 0.0094787162 0.15900002 1.3185786e-38
-0.013162846 0.011184776 0.15900001 1.3002116e-38
-0.012267163 0.011440685 0.15900002 1.3002116e-38
0.031433862 -0.034325678 0.16000001 1.5302567e-38
-0.045564227 -0.0075437413 0.16000001 1.410954e-38
-0.04324656 -0.0075437413 0.16000001 1.3648562e-38
-0.03539224 -0.0062561482 0.16000001 1.5120806e-38
-0.037237789 -0.0053119133 0.16000001 1.364712e-38
-0.036551077 -0.0053805849 0.16000001 1.4292132e-38
-0.035469495 -0.0055865999 0.16000001 1.4383966e-38
-0.034576762 -0.0056552715 0.16000001 1.4660909e-38
-0.037323628 -0.0047110361 0.16000001 1.3739317e-38
-0.036679834 -0.0047110361 0.16000001 1.429213e-38
-0.035263479 -0.0031659242 0.16000001 1.4016262e-38
-0.034490924 -0.0032946838 0.16000001 1.4753463e-38
-0.033718366 -0.0031659242 0.16000001 1.4844938e-38
-0.039346993 -0.002466945 0.16000001 1.3833313e-38
