# .PCD v0.7 - Point Cloud Data file format
VERSION 0.7
FIELDS x y z rgb
SIZE 4 4 4 4
TYPE F F F F
COUNT 1 1 1 1
WIDTH 981
HEIGHT 1
VIEWPOINT 0 0 0 1 0 0 0
POINTS 981
DATA ascii
0.012972272 -0.023620678 0.12200001 1.9910652e-38
0.018924484 -0.029029988 0.125 1.5027528e-38
0.019226264 -0.029029988 0.125 1.5212279e-38
0.018924484 -0.028627614 0.125 1.3828265e-38
0.019393919 -0.028627614 0.125 1.4197408e-38
0.018873084 -0.028146852 0.126 1.9544389e-38
0.019177277 -0.028146852 0.126 1.8806824e-38
0.017796438 -0.027041603 0.127 1.8990496e-38
0.018000843 -0.027041603 0.127 1.8806105e-38
0.014117139 -0.026632791 0.127 1.5301927e-38
0.017796438 -0.02653059 0.127 1.9544029e-38
0.018409653 -0.026428387 0.12699999 1.8898301e-38
0.019404428 -0.026346624 0.12699999 1.9359639e-38
0.0201471 -0.026428387 0.127 1.9360358e-38
0.014571656 -0.027254531 0.12800001 1.7330234e-38
0.015464388 -0.027254531 0.12800001 1.8530594e-38
0.016545966 -0.027254531 0.12800001 2.0189039e-38
0.017318521 -0.027254531 0.12800001 2.1017361e-38
0.014743336 -0.026842501 0.12800001 1.539338e-38
0.015464388 -0.026842501 0.12800001 1.8345118e-38
0.016563134 -0.026842499 0.12800001 2.0096844e-38
0.017387193 -0.026773831 0.12800001 2.0281594e-38
0.01256751 -0.025588043 0.13000001 2.0280153e-38
0.012242496 -0.025363188 0.13100001 2.0279434e-38
0.011609966 -0.0249415 0.13100001 2.0816767e-38
0.036343131 0.054537944 0.132 1.8297913e-38
0.012215341 -0.025536349 0.133 2.0460584e-38
0.036404394 0.054844078 0.133 1.8390114e-38
0.03559975 0.055234872 0.134 1.7830113e-38
0.036354605 0.055148602 0.134 1.8480157e-38
0.037540801 0.05536427 0.134 1.8389743e-38
0.038403489 0.055364273 0.134 1.8023481e-38
0.036571588 0.053767588 0.13500001 1.6360757e-38
0.037386391 0.053713266 0.13500001 1.7096874e-38
0.038364157 0.053170066 0.13500001 1.526124e-38
0.035474315 0.054821402 0.13500001 1.7280542e-38
0.036430351 0.054604128 0.13500001 1.7374173e-38
0.037342932 0.05462585 0.13500001 1.7933086e-38
0.035343945 0.055473249 0.13500001 1.7737925e-38
0.036408626 0.055342879 0.13500001 1.8202493e-38
0.037541591 0.055436004 0.13500001 1.8300067e-38
0.038581438 0.055451524 0.13500001 1.8948676e-38
0.039450567 0.055777442 0.13500001 1.8029955e-38
0.036787767 0.053782802 0.13600001 1.4619123e-38
0.037444439 0.053782802 0.13600001 1.6087054e-38
0.038276222 0.053607691 0.13600001 1.516905e-38
0.035605751 0.054658365 0.13600001 1.6179605e-38
0.036277018 0.054293547 0.13600001 1.6085614e-38
0.038353678 0.054473154 0.13600002 1.774618e-38
0.035146084 0.055533931 0.13600001 1.6913567e-38
0.038429447 0.05531504 0.13600002 1.8949388e-38
0.039560385 0.055752821 0.13600002 1.8766806e-38
0.035036638 0.05619061 0.13600001 1.7186196e-38
0.04029002 0.05619061 0.13600001 1.7387816e-38
0.022688987 -0.02648811 0.13700001 1.4013694e-38
0.037389014 0.053957768 0.13700001 1.3884801e-38
0.039373517 0.053957768 0.13700001 1.5079362e-38
0.036470264 0.054251771 0.13700001 1.4435814e-38
0.039042767 0.054472268 0.13700001 1.7194451e-38
0.035073761 0.055942271 0.13700001 1.7007199e-38
0.03942864 0.055280767 0.13700001 1.8672082e-38
0.04029227 0.055538017 0.13700001 1.8579881e-38
0.034853261 0.056603778 0.13700001 1.6636982e-38
0.035073761 0.056162771 0.13700001 1.7189793e-38
0.04047602 0.056273021 0.13700001 1.8306174e-38
0.023335839 -0.027273748 0.13800001 1.4013336e-38
0.022891618 -0.026274253 0.13800001 1.8346546e-38
0.023409875 -0.02649636 0.13800001 1.8162165e-38
0.039846007 0.054536711 0.13800001 1.5723646e-38
0.040438298 0.054462682 0.13800001 1.4160998e-38
0.04110463 0.054462671 0.13800001 1.3332679e-38
0.035329774 0.055573225 0.13800001 1.5539639e-38
0.03977197 0.055240061 0.13800001 1.7932365e-38
0.040349454 0.05537333 0.13800001 1.7933435e-38
0.041199822 0.055620819 0.13800001 1.8302934e-38
0.034707867 0.056617141 0.13800001 1.6455467e-38
0.041215684 0.056572717 0.13800001 1.84902e-38
0.023899367 -0.028007012 0.14 1.3461588e-38
0.024199806 -0.028157232 0.14 1.7056521e-38
0.023800761 -0.027562674 0.13975 1.5857612e-38
0.024124697 -0.027481245 0.14 1.8716063e-38
0.023583908 -0.026519841 0.14 1.6502632e-38
0.024124697 -0.026767705 0.14 1.7239853e-38
0.041775946 0.055334311 0.13950001 1.4803838e-38
0.042151008 0.055439759 0.14 1.388476e-38
0.03349774 0.056982666 0.13900001 1.5448164e-38
0.034401234 0.056969095 0.13933335 1.5998451e-38
0.035391141 0.056265965 0.14 1.452945e-38
0.041626208 0.056535229 0.13900001 1.9502557e-38
0.042151008 0.056434959 0.14 1.7751198e-38
0.03350557 0.057186838 0.13950001 1.5264493e-38
0.034301475 0.057182919 0.13960001 1.5998452e-38
0.042151008 0.05716728 0.14 1.9413246e-38
0.024750892 -0.028320532 0.141 1.8900097e-38
0.03496312 0.056894805 0.141 1.4163903e-38
0.035416998 0.056667868 0.141 1.4622004e-38
0.036097813 0.05621399 0.141 1.4162471e-38
0.0344336 0.057348683 0.141 1.4807109e-38
0.042452086 0.057802558 0.141 1.9228133e-38
0.042452086 0.058029499 0.141 1.8675315e-38
0.024697883 -0.028178565 0.142 1.9085203e-38
0.024697883 -0.027950017 0.142 1.9084487e-38
0.02401224 -0.026807277 0.142 1.5302643e-38
0.042981714 0.056536492 0.142 1.5079331e-38
0.043324534 0.056536492 0.142 1.3882598e-38
0.042981714 0.057526864 0.142 1.8120703e-38
0.043324534 0.057069767 0.142 1.5722534e-38
0.042981714 0.058441058 0.142 1.9320323e-38
0.025332127 -0.029067479 0.14300001 1.880825e-38
0.025332127 -0.028607164 0.14300001 1.9176685e-38
0.035228893 0.05747167 0.14300001 1.3337032e-38
0.043821435 0.057586748 0.14300001 1.5540312e-38
0.044205029 0.05747167 0.14300001 1.4802025e-38
0.025277508 -0.028575445 0.14400001 1.908485e-38
0.02295984 -0.026721312 0.14400001 1.2999184e-38
0.023423374 -0.026721312 0.14400001 1.7701893e-38
0.043818854 0.058684751 0.14400001 1.8860433e-38
0.044050623 0.058568865 0.14400001 1.7845201e-38
0.045209456 0.058800634 0.14400001 1.5173673e-38
0.043818854 0.059264168 0.14400001 1.8953707e-38
0.045209456 0.059264168 0.14400001 1.6734521e-38
0.025919799 -0.02924064 0.14500001 1.9176685e-38
0.02521967 -0.028073758 0.14500001 1.8531313e-38
0.02521967 -0.027723696 0.14500001 1.4842766e-38
0.024052788 -0.026906878 0.14500001 1.4472882e-38
0.044589903 0.058975596 0.14500001 1.7382052e-38
0.045290031 0.058975596 0.14500001 1.5540293e-38
0.04412315 0.059675723 0.14500001 1.9229933e-38
0.045056656 0.059792414 0.14500001 1.7563925e-38
0.026513908 -0.02964396 0.147 1.9176685e-38
0.025731215 -0.028550355 0.14625001 1.7609358e-38
0.026040718 -0.028934173 0.147 1.8992654e-38
0.023438171 -0.027041411 0.147 1.5028209e-38
0.044662435 0.059617311 0.14600001 1.8677483e-38
0.04565395 0.059495211 0.14666666 1.5541741e-38
0.044662435 0.060087282 0.14600001 1.9045542e-38
0.026773674 -0.030361727 0.148 1.8992651e-38
0.027408889 -0.030083822 0.148 1.9452918e-38
0.026694274 -0.029369209 0.148 1.8716067e-38
0.027408889 -0.02948831 0.148 1.7701558e-38
0.024074024 -0.027225364 0.148 1.8071041e-38
0.045274246 0.061148603 0.148 1.8767873e-38
0.027114455 -0.031006536 0.149 1.8807177e-38
0.02735427 -0.030646814 0.149 1.908449e-38
0.027234362 -0.029327836 0.149 1.5120075e-38
0.046059784 0.060242787 0.149 1.5629977e-38
0.027779279 -0.030852497 0.15000001 1.9175969e-38
0.028020702 -0.030409886 0.15000001 1.8899744e-38
0.011121039 -0.028800394 0.15000001 2.0272953e-38
0.016190939 -0.023247648 0.15000001 1.5627502e-38
0.017880905 -0.0227648 0.15000001 1.5166158e-38
0.018202804 -0.022201478 0.15000001 1.4706619e-38
0.02772144 -0.031422731 0.15100001 1.8899373e-38
0.01192428 -0.028992398 0.15100001 2.0543424e-38
0.017757079 -0.0224305 0.15100001 1.5625697e-38
0.017757079 -0.020000167 0.15100001 1.3537182e-38
0.018000113 -0.020000167 0.15100001 1.3444987e-38
0.027823478 -0.032201659 0.15200001 1.6410435e-38
0.028394312 -0.032120112 0.15200001 1.6963264e-38
0.028394312 -0.031508505 0.15200001 1.8530236e-38
0.011513962 -0.029429043 0.15200001 2.0092525e-38
0.018527053 -0.027553448 0.15200001 1.3272108e-38
0.01848628 -0.026860293 0.15200001 1.4283734e-38
0.017385388 -0.023068331 0.15200001 1.507576e-38
0.01836396 -0.020132618 0.15200001 1.2982558e-38
0.028416948 -0.032659765 0.15300001 1.6410447e-38
0.029196749 -0.032454558 0.15300001 1.8438043e-38
0.029270628 -0.031469546 0.15300001 1.705475e-38
0.017746018 -0.022481339 0.15300001 1.6544067e-38
0.03000723 -0.032047022 0.15400001 1.6133875e-38
0.010779203 -0.029466629 0.15433334 2.1375702e-38
0.016980108 -0.023024684 0.155 2.0144384e-38
0.005629167 -0.022276271 0.155 1.6542291e-38
0.0062528448 -0.022276271 0.155 1.7646843e-38
0.017297931 -0.022825677 0.15450001 1.7840211e-38
0.005629167 -0.021652592 0.155 1.8205771e-38
0.0062528448 -0.021777328 0.155 1.7740118e-38
0.011565881 -0.02970133 0.156 1.9984488e-38
0.0061257989 -0.024344942 0.156 2.0783297e-38
0.017591817 -0.024930796 0.156 1.5718976e-38
0.0057910243 -0.023173232 0.156 1.690352e-38
0.0061676451 -0.023591699 0.156 1.8660996e-38
0.015708713 -0.023926472 0.156 1.9961797e-38
0.016461955 -0.023800932 0.156 1.8763608e-38
0.019851545 -0.023173232 0.156 1.3531797e-38
0.020102626 -0.023173232 0.156 1.4177166e-38
0.0056236372 -0.022754764 0.156 1.6999672e-38
0.0062429695 -0.022721285 0.156 1.7367738e-38
0.019851545 -0.02279661 0.156 1.315978e-38
0.020165395 -0.022608299 0.156 1.3069744e-38
0.0055399435 -0.021415666 0.156 1.9129165e-38
0.0062429695 -0.02161653 0.156 1.8203615e-38
0.0057910243 -0.016142972 0.156 1.6177814e-38
0.005468206 -0.01564081 0.156 1.5531726e-38
0.0055399439 -0.014636487 0.156 1.3320476e-38
0.017704586 -0.028880963 0.15700001 1.7400086e-38
0.01757824 -0.027743857 0.15700001 1.8676079e-38
0.0058281464 -0.025090609 0.15700001 1.7551771e-38
0.0064598718 -0.025090609 0.15700001 2.1521578e-38
0.0055754562 -0.024079848 0.15700001 1.7553205e-38
0.0065230443 -0.024522057 0.15700001 2.1156754e-38
0.0054491111 -0.023448123 0.15700001 1.7553924e-38
0.0065862169 -0.023406008 0.15700001 1.986026e-38
0.019978799 -0.023827158 0.15700001 1.4088202e-38
0.0048173857 -0.022311017 0.15700001 1.7837704e-38
0.0067757345 -0.022563707 0.15700001 1.8294013e-38
0.0048173857 -0.021805637 0.15700001 1.7743711e-38
0.0058281464 -0.021300256 0.15700001 1.9130605e-38
0.0066704471 -0.021721408 0.15700001 1.7187664e-38
0.012600245 -0.021401335 0.15700001 1.7930966e-38
0.012777127 -0.020668531 0.15700001 1.7471434e-38
0.0048173857 -0.015488381 0.15700001 1.3504507e-38
0.0063335267 -0.015993763 0.15700001 1.7010815e-38
0.0048173857 -0.014983001 0.15700001 1.3412311e-38
0.0063335267 -0.014603966 0.15700001 1.3597062e-38
-0.0088278865 0.017487688 0.15700001 1.530448e-38
0.0066281673 -0.027539119 0.15800001 2.134654e-38
0.0062891007 -0.026437154 0.15800001 2.1153513e-38
0.0058652679 -0.025504721 0.15800001 1.8473727e-38
0.0063738674 -0.025631873 0.15800001 2.1058083e-38
0.0053566685 -0.024741821 0.15800001 1.847552e-38
0.0071367673 -0.024572289 0.15800001 2.1527334e-38
0.005102369 -0.023470324 0.15800001 1.7557166e-38
0.016291557 -0.023555091 0.15800001 1.8480906e-38
0.020487502 -0.023724623 0.15800001 1.3814489e-38
0.004848069 -0.022961725 0.15800001 1.7652238e-38
0.0071367673 -0.022622658 0.15800001 1.8295094e-38
0.017054455 -0.022961725 0.15800001 1.7095805e-38
0.004848069 -0.021563075 0.15800001 1.7557166e-38
0.0052295187 -0.021435926 0.15800001 1.9402876e-38
0.0063738674 -0.021435926 0.15800001 1.8483797e-38
0.0071367668 -0.021817375 0.15800001 1.7464248e-38
0.011968461 -0.021435926 0.15800001 1.7194124e-38
0.0046785357 -0.020757794 0.15800001 1.681779e-38
0.0051871357 -0.02084256 0.15800001 1.7832665e-38
0.0061195679 -0.020927327 0.15800001 1.8853295e-38
0.011968461 -0.020927327 0.15800001 1.8671781e-38
0.012477061 -0.020609451 0.15800001 1.8578503e-38
0.0063738674 -0.017176408 0.15800001 1.6728833e-38
0.004848069 -0.016095633 0.15800001 1.4147352e-38
0.0054414347 -0.016688997 0.15800001 1.5898713e-38
0.0063230074 -0.016655091 0.15800001 1.6546239e-38
0.0062467176 -0.015502267 0.15800001 1.5809753e-38
0.004848069 -0.014824134 0.15800001 1.3044968e-38
0.0066281673 -0.014824134 0.15800001 1.4242072e-38
-0.0092655644 0.017217625 0.15800001 1.4659834e-38
-0.0084602833 0.017683841 0.15800001 1.5120809e-38
0.00590239 -0.0272016 0.15900001 2.1713883e-38
0.0064781858 -0.027457509 0.15900001 2.1438018e-38
0.0057744356 -0.026689781 0.15900001 2.1061318e-38
0.0065421634 -0.026689781 0.15900001 2.1338263e-38
0.0055185263 -0.025666144 0.15900001 1.9304562e-38
0.0069260276 -0.025666142 0.15900001 2.1983272e-38
0.0071819359 -0.025410235 0.15900001 2.2444609e-38
0.0048787533 -0.024130689 0.15900001 1.7279856e-38
0.0069260271 -0.024130689 0.15900001 2.0330949e-38
0.0071819359 -0.024130689 0.15900001 2.0607536e-38
0.015498985 -0.024130689 0.15900001 2.0329143e-38
0.020745125 -0.024258643 0.15900001 1.3544362e-38
0.021086335 -0.024215991 0.15900001 1.326921e-38
0.004622844 -0.023362961 0.15900001 1.8295449e-38
0.0069260271 -0.023490915 0.15900001 1.9037336e-38
0.0071819359 -0.023362961 0.15900001 1.8667114e-38
0.015626939 -0.023618869 0.15900001 1.848055e-38
0.016266713 -0.023490915 0.15900001 1.7740461e-38
0.0076937545 -0.022339324 0.15900001 1.7741913e-38
0.0056464807 -0.021059778 0.15900001 1.9218841e-38
0.0068407245 -0.021230385 0.15900001 1.8023173e-38
0.011532392 -0.021571597 0.15900001 1.8299756e-38
0.004622844 -0.020420006 0.15900001 1.7373479e-38
0.0056976625 -0.020701503 0.15900001 1.8203244e-38
0.0064568599 -0.020590611 0.15900002 1.8482348e-38
0.011788302 -0.020675914 0.15900001 1.857635e-38
0.012364098 -0.020164097 0.15900001 1.7933137e-38
0.012556029 -0.019780232 0.15900001 1.7471437e-38
0.0064142086 -0.018244777 0.15900001 1.6079503e-38
0.0057744356 -0.017349094 0.15900001 1.6729197e-38
0.0067127696 -0.017690307 0.15900002 1.617134e-38
0.004622844 -0.016453413 0.15900001 1.3962608e-38
0.0067980727 -0.016517391 0.15900001 1.6823907e-38
0.006734095 -0.015493754 0.15900001 1.6363646e-38
-0.0081726164 0.017326597 0.15900001 1.4753108e-38
-0.0076607978 0.017454552 0.15900001 1.4845303e-38
0.0056819934 -0.027501438 0.16000001 2.1255788e-38
0.0073987846 -0.025570048 0.16000001 2.2720475e-38
0.0049094371 -0.024539972 0.16000001 1.7463887e-38
0.0074846242 -0.024539972 0.16000001 2.1342583e-38
0.0043943999 -0.023767415 0.16000001 1.8111061e-38
0.0074846237 -0.023509897 0.16000001 1.8574554e-38
0.01649778 -0.023252379 0.16000001 1.7279118e-38
0.0041368813 -0.022565663 0.16000001 1.8203611e-38
0.0076133837 -0.022608582 0.16000001 1.80185e-38
0.0041368813 -0.02119223 0.16000001 1.5438088e-38
0.0073129456 -0.021621427 0.16000001 1.7837341e-38
0.011347405 -0.02119223 0.16000001 1.8664585e-38
0.004523159 -0.020162156 0.16000001 1.6821387e-38
0.0054244753 -0.020290915 0.16000001 1.7186933e-38
0.0065833088 -0.020162156 0.16000001 1.7460281e-38
0.0072271056 -0.020805951 0.16000001 1.9130958e-38
0.011476165 -0.020484053 0.16000001 1.8388e-38
0.015467704 -0.020162156 0.16000001 1.5082241e-38
0.0049094371 -0.019775877 0.16000001 1.7277688e-38
0.0055103148 -0.019775877 0.16000001 1.7185492e-38
0.0064030462 -0.019801628 0.16000001 1.6814189e-38
0.011604924 -0.019904636 0.16000001 1.8481271e-38
0.012119961 -0.019775877 0.16000001 1.8207561e-38
0.005939512 -0.018102005 0.16000001 1.6912149e-38
0.0064545497 -0.018617043 0.16000001 1.5987303e-38
0.0072271056 -0.018102005 0.16000001 1.6352848e-38
0.0049094371 -0.017071931 0.16000001 1.5435936e-38
0.0052957153 -0.017458208 0.16000001 1.6912868e-38
0.0072271056 -0.017329449 0.16000001 1.5525612e-38
0.0072271056 -0.016556894 0.16000001 1.6365445e-38
-0.010026647 0.017693087 0.16000001 1.484566e-38
0.0049708057 -0.028236311 0.162 1.9721224e-38
0.0052315434 -0.028236311 0.162 1.8891464e-38
0.0073174448 -0.028236311 0.162 2.1341858e-38
0.0049708057 -0.027454099 0.162 1.9409361e-38
0.0054583778 -0.027543759 0.16100001 2.1163228e-38
0.0071652955 -0.027369365 0.16150001 2.1707402e-38
0.0049554636 -0.02659037 0.16150001 1.9307082e-38
0.0073518464 -0.026501734 0.16160001 2.2443888e-38
0.0048250947 -0.025808962 0.16150001 1.9123407e-38
0.0077905315 -0.025600297 0.16100001 2.281303e-38
0.0083603952 -0.02510746 0.162 2.023299e-38
0.0039278548 -0.024064511 0.162 1.8386929e-38
0.0044347933 -0.024769232 0.16150001 1.9495072e-38
0.0077905315 -0.024693349 0.16100001 2.1342581e-38
0.0082050273 -0.024596212 0.16150001 2.0509579e-38
0.015139575 -0.024064511 0.162 1.9403229e-38
0.0039278548 -0.023803772 0.162 1.7833755e-38
0.0041627367 -0.023397708 0.16100001 1.8018144e-38
0.0077905315 -0.0237864 0.16100001 1.8759306e-38
0.0082744984 -0.02349109 0.16144446 1.8385484e-38
0.014661557 -0.023456125 0.162 1.8293642e-38
0.015518396 -0.023492277 0.16187501 1.792342e-38
0.016530177 -0.023282297 0.162 1.709581e-38
0.0041627367 -0.022102067 0.16100001 1.6636281e-38
0.0077905315 -0.022102067 0.16100001 1.8204686e-38
0.0083002718 -0.02254043 0.16166668 1.7186937e-38
0.014748469 -0.022760822 0.162 1.7185855e-38
0.015400313 -0.022760822 0.162 1.6722718e-38
0.0036444806 -0.021065554 0.16100001 1.6639511e-38
0.0041627367 -0.02184294 0.16100001 1.6265701e-38
0.0077495412 -0.021390103 0.16150001 1.8671418e-38
0.0083603952 -0.021587502 0.162 1.7286328e-38
0.01090007 -0.021195117 0.16100001 1.7829071e-38
0.0036520262 -0.020416014 0.16133334 1.5901949e-38
0.0042923009 -0.020029042 0.16100001 1.6727751e-38
0.0074822148 -0.020364102 0.16159999 1.8200727e-38
0.0085838847 -0.020376934 0.16200002 1.7183338e-38
0.0091426084 -0.020153446 0.162 1.653581e-38
0.010599939 -0.020368017 0.16137502 1.727733e-38
0.0039278548 -0.019631971 0.162 1.6909984e-38
0.0045255166 -0.019614436 0.16100001 1.6725234e-38
0.0057175057 -0.019510785 0.16100001 1.700146e-38
0.0066676424 -0.01959716 0.16100001 1.6628355e-38
0.0075216787 -0.019541631 0.1619 1.7735066e-38
0.00853422 -0.019675426 0.162 1.7737948e-38
0.010510642 -0.019851776 0.16166668 1.6635558e-38
0.01154789 -0.019769914 0.16100001 1.8110685e-38
0.004670213 -0.018691184 0.16145454 1.7465678e-38
0.0056203329 -0.018701009 0.16100001 1.6636637e-38
0.0065812669 -0.018906152 0.16100001 1.6261009e-38
0.0074822144 -0.018594947 0.16159999 1.6627994e-38
0.0083603952 -0.018849758 0.162 1.7642507e-38
0.0045217057 -0.017578827 0.16150001 1.5160068e-38
0.0076433672 -0.017611254 0.162 1.5616364e-38
0.0041627367 -0.016142119 0.16100001 1.2952772e-38
0.0073357946 -0.016385194 0.16157143 1.710589e-38
0.0073518464 -0.015734237 0.16160001 1.6642035e-38
0.035626747 -0.0063147992 0.16150001 1.3183946e-38
-0.010412717 0.018435726 0.162 1.5305559e-38
0.017069459 -0.029591173 0.163 1.9221713e-38
0.0078873085 -0.028410612 0.163 2.0507426e-38
0.0078873085 -0.027492397 0.163 2.1889634e-38
0.004476795 -0.02618066 0.163 1.9309237e-38
0.0078873085 -0.026443008 0.163 2.3272569e-38
0.0081496555 -0.02618066 0.163 2.3088175e-38
0.0042144479 -0.025000097 0.163 2.0232637e-38
0.0082808286 -0.025787139 0.163 2.1705599e-38
0.0035585798 -0.024475403 0.163 1.7003632e-38
0.0034274061 -0.023688361 0.163 1.6541932e-38
0.0034274063 -0.022901321 0.163 1.6451537e-38
0.0086743496 -0.022638975 0.163 1.8199647e-38
0.015495376 -0.022638975 0.163 1.6538323e-38
0.016282417 -0.022901321 0.163 1.6265691e-38
0.0032525081 -0.021327237 0.163 1.5625008e-38
0.0084120026 -0.021327239 0.163 1.8388718e-38
0.0091990447 -0.021064891 0.163 1.6997867e-38
0.010379607 -0.021196064 0.163 1.7181901e-38
0.0032962328 -0.02027785 0.163 1.6084186e-38
0.0094613917 -0.020409023 0.163 1.6353216e-38
0.0036897534 -0.019228462 0.163 1.5894756e-38
0.0036897534 -0.018966114 0.163 1.5894756e-38
0.0042144479 -0.018179072 0.163 1.488312e-38
0.0081496555 -0.018703766 0.163 1.6720548e-38
0.0078873085 -0.017523205 0.163 1.5893673e-38
0.0036897534 -0.01660499 0.163 1.3136444e-38
0.0078873085 -0.016473819 0.163 1.7014057e-38
0.0078873085 -0.015555602 0.163 1.5810474e-38
-0.029540887 0.040499233 0.163 1.3276895e-38
0.010575264 -0.030960517 0.164 1.9881495e-38
0.0042403033 -0.028056994 0.164 1.954007e-38
0.0078037186 -0.027661059 0.164 2.2258055e-38
0.0039763465 -0.0262093 0.164 1.9589421e-38
0.0042403033 -0.026737211 0.164 1.8668551e-38
0.0085295998 -0.026407268 0.164 2.1797076e-38
0.0028325345 -0.025241459 0.164 1.7557526e-38
0.0036244045 -0.02541743 0.16400002 1.8663513e-38
0.0087275673 -0.025505416 0.164 1.9399991e-38
0.0028149372 -0.024519976 0.164 1.6456922e-38
0.0031844766 -0.024889516 0.164 1.728273e-38
0.0087275673 -0.024449587 0.164 1.8479838e-38
0.0029205203 -0.023481749 0.164 1.5531732e-38
0.0031844766 -0.022513906 0.164 1.5715767e-38
0.0087275673 -0.022381928 0.164 1.7648271e-38
0.016118353 -0.022777863 0.164 1.5986227e-38
0.0026565634 -0.021194123 0.164 1.6546965e-38
0.0086395815 -0.021634052 0.164 1.7560038e-38
0.010311307 -0.021722037 0.164 1.7091148e-38
0.00292052 -0.020402255 0.164 1.7097259e-38
0.0096074231 -0.020314269 0.164 1.6078068e-38
0.013742744 -0.020402255 0.164 1.7101212e-38
0.014501619 -0.02036926 0.16400002 1.6549472e-38
0.0031844766 -0.01987434 0.164 1.5710009e-38
0.008859545 -0.019610383 0.164 1.847839e-38
0.0095194373 -0.01987434 0.164 1.6266776e-38
0.014666592 -0.01987434 0.164 1.701333e-38
0.0037123903 -0.018378586 0.164 1.4792364e-38
0.0079356972 -0.0182906 0.164 1.6167377e-38
0.0037123901 -0.017762687 0.164 1.3780731e-38
-0.01054127 0.017607501 0.164 1.4753108e-38
-0.030162046 0.039691869 0.164 1.3003552e-38
-0.029282192 0.039647877 0.16400002 1.3187222e-38
-0.028490324 0.039647877 0.164 1.3463807e-38
-0.027698452 0.039647877 0.16400002 1.3463806e-38
-0.026642626 0.039647881 0.16400002 1.3370887e-38
-0.030338019 0.040043816 0.164 1.3739677e-38
-0.029282192 0.040043816 0.164 1.3738957e-38
-0.028402338 0.040219788 0.164 1.318542e-38
0.032719675 -0.037484948 0.16500001 1.4198802e-38
0.032681741 -0.036619965 0.16500001 1.8714623e-38
0.03321287 -0.036726192 0.16500001 2.0005367e-38
0.009577482 -0.031149304 0.16500001 2.1276666e-38
0.007984085 -0.030219819 0.16500001 2.0084968e-38
0.008382434 -0.030352606 0.16500001 1.9618229e-38
0.0092233932 -0.030264081 0.16500001 2.0334909e-38
0.017013336 -0.030352604 0.16500001 2.0607533e-38
0.0085152173 -0.029821472 0.16500001 2.0059048e-38
0.0094446987 -0.029821472 0.16500001 2.1156748e-38
0.01037418 -0.029821472 0.16500001 2.1058434e-38
0.0037350266 -0.027696943 0.16500001 1.8890022e-38
0.0042661591 -0.027696943 0.16500001 1.7862912e-38
0.0083381729 -0.027519898 0.16500001 2.3365478e-38
0.0090463497 -0.027431376 0.16500001 2.0045715e-38
0.0026063705 -0.026169939 0.16500001 1.7663764e-38
0.0034399526 -0.02651665 0.16500001 1.8952335e-38
0.0091601629 -0.026444986 0.16500001 1.976877e-38
0.0016104974 -0.025306849 0.16500001 1.7293897e-38
0.0022080212 -0.025373239 0.16500001 1.7196663e-38
0.0090463497 -0.025306849 0.16500001 1.8755342e-38
0.0018760635 -0.024377367 0.16500001 1.6367605e-38
0.0022301518 -0.024333104 0.16500001 1.6091016e-38
0.0090463497 -0.024377367 0.16500001 1.9033375e-38
0.0018760635 -0.023979018 0.16500001 1.6456206e-38
0.0023009693 -0.023713451 0.16500001 1.571936e-38
0.0090463497 -0.023624929 0.16500001 1.8014542e-38
0.0029383281 -0.022916753 0.16500001 1.5439899e-38
0.0090463497 -0.022651186 0.16500001 1.8385117e-38
0.0094446987 -0.021633184 0.16500001 1.7093304e-38
0.0026727619 -0.020526659 0.16500001 1.5805803e-38
0.0032038942 -0.019464394 0.16500001 1.4973879e-38
0.010506963 -0.019995525 0.16500001 1.6730635e-38
0.0083381729 -0.01849065 0.16500001 1.6629073e-38
0.0034694604 -0.017339863 0.16500001 1.3596342e-38
0.0082496507 -0.017516907 0.16500001 1.6270371e-38
0.0082496507 -0.016808731 0.16500001 1.6832184e-38
0.036134098 -0.0067172186 0.16500001 1.3369415e-38
-0.022423239 0.02886864 0.16500001 1.3186504e-38
0.0055939895 0.038694587 0.16500001 1.3280861e-38
0.0065677324 0.038694587 0.16500001 1.3372335e-38
0.033414159 -0.037616711 0.16600001 1.7793738e-38
0.03221187 -0.036815185 0.16600001 1.5581032e-38
0.0097691156 -0.030603351 0.16600001 2.1433697e-38
0.010303466 -0.030536557 0.16600001 2.1615208e-38
0.016475223 -0.030215949 0.16600001 1.9220639e-38
0.016493035 -0.029378796 0.16600001 1.8572382e-38
0.0010859066 -0.025460223 0.16600001 1.6300264e-38
0.0013530822 -0.024525108 0.16600001 1.7104821e-38
0.0093683517 -0.024257932 0.16600001 1.8112133e-38
0.0017538457 -0.023589993 0.16600001 1.6454054e-38
0.0024217849 -0.023055643 0.16600001 1.5808681e-38
0.0093683517 -0.023411876 0.16600001 1.7923786e-38
0.0096355267 -0.02265488 0.16600001 1.8203251e-38
0.0018874336 -0.021452589 0.16600001 1.5901593e-38
0.0025553727 -0.021853352 0.16600001 1.6270378e-38
0.0093683517 -0.021986939 0.16600001 1.7463884e-38
0.0018874336 -0.020918237 0.16600001 1.5807602e-38
0.0025553727 -0.020383887 0.16600001 1.543666e-38
-0.00024997164 -0.019048007 0.16600001 1.3875454e-38
0.0029561361 -0.019181594 0.16600001 1.4698371e-38
0.0088339997 -0.019315183 0.16600001 1.7460278e-38
0.0091011757 -0.019582359 0.16600001 1.9123758e-38
0.0029561361 -0.018380068 0.16600001 1.3780012e-38
0.0085668247 -0.018380068 0.16600001 1.6537598e-38
0.0085668247 -0.017623072 0.16600001 1.6547318e-38
0.036085919 -0.0070251049 0.16600001 1.3369068e-38
-0.0098682949 0.017822227 0.16600001 1.4383247e-38
-0.008265241 0.023432914 0.16600001 1.4014462e-38
-0.022425549 0.028776428 0.16600001 1.3370896e-38
-0.0045247823 0.037326045 0.16600001 1.3370896e-38
-0.0034560796 0.037326045 0.16600001 1.3647483e-38
-0.0023873767 0.037459631 0.16600001 1.32787e-38
0.034153022 -0.037171356 0.16700001 1.9912817e-38
0.031644359 -0.036812976 0.16700001 1.3093174e-38
0.032092337 -0.036723379 0.16700001 1.6318244e-38
0.00055487792 -0.025613597 0.16700001 1.898618e-38
0.009424787 -0.025613597 0.16700001 1.8942973e-38
0.00082366302 -0.024807243 0.16700001 1.7847425e-38
0.0010924481 -0.024000887 0.16700001 1.5994161e-38
0.0096039772 -0.024359265 0.16700001 1.8572034e-38
0.001764411 -0.023328923 0.16700001 1.6268942e-38
0.0098279649 -0.023328925 0.16700001 1.8571675e-38
1.7307637e-05 -0.022119392 0.16700001 1.5442786e-38
0.0023019812 -0.022656962 0.16700001 1.562465e-38
-0.0002514775 -0.021850606 0.16700001 1.5442786e-38
0.00046528285 -0.021492228 0.16700003 1.5351665e-38
0.001438029 -0.021543425 0.16700003 1.5442416e-38
0.00046528291 -0.02050668 0.16700003 1.4705575e-38
0.0015404234 -0.02050668 0.16700003 1.5070396e-38
0.0021675886 -0.020372286 0.16700001 1.5713965e-38
-0.00034107253 -0.019521134 0.16700001 1.4061285e-38
0.00046528285 -0.019431541 0.16700003 1.3875093e-38
0.0015404234 -0.019431541 0.16700003 1.4334267e-38
0.002301981 -0.019431541 0.16700001 1.4701968e-38
0.0094247879 -0.019610731 0.16700001 1.7744062e-38
-0.0002514775 -0.018625185 0.16700001 1.3321201e-38
0.00052127976 -0.018389996 0.16700003 1.3137529e-38
0.0015404234 -0.018356398 0.16700003 1.3322638e-38
0.0023979757 -0.018318001 0.16700003 1.3690336e-38
0.010768713 -0.014055838 0.16700001 1.5166902e-38
0.011440676 -0.014503814 0.16700001 1.4707725e-38
0.010768713 -0.013518268 0.16700001 1.3414106e-38
0.036034517 -0.0073362095 0.16700001 1.3920788e-38
-0.0096589578 0.017929589 0.16700001 1.4475443e-38
-0.008359829 0.023394888 0.16700001 1.4198853e-38
-0.0081806388 0.024111645 0.16700001 1.3646764e-38
-0.023098214 0.028949779 0.16700001 1.32787e-38
-0.023635784 0.029218564 0.16700001 1.3370896e-38
0.033681542 -0.038610712 0.16800001 1.3461959e-38
0.034492727 -0.037664331 0.16800001 1.926888e-38
0.031383187 -0.036505494 0.168 1.4199531e-38
0.0097516179 -0.027118944 0.16800001 1.9953882e-38
0.0097516179 -0.026488023 0.16800003 1.9308514e-38
0.00010754282 -0.025586709 0.16800003 1.8154978e-38
0.0097516179 -0.025631774 0.16800001 1.8944053e-38
0.00028780592 -0.024955789 0.16800001 1.6837959e-38
0.0097516179 -0.024820592 0.16800001 1.9498304e-38
0.010022013 -0.024279803 0.16800001 1.8851143e-38
0.00028780592 -0.023063026 0.16800001 1.5536779e-38
0.0013693844 -0.023063026 0.16800001 1.6086347e-38
0.010292407 -0.023603816 0.16800001 1.8941901e-38
0.00042300322 -0.022387041 0.16800001 1.5351666e-38
0.0014369831 -0.02231944 0.16800001 1.5719004e-38
0.0089404341 -0.019277502 0.16800001 1.7181526e-38
0.010022013 -0.019818291 0.16800001 1.7381039e-38
-0.00043324646 -0.018466318 0.16800003 1.3137891e-38
0.0089404341 -0.018466318 0.16800003 1.6080218e-38
0.0089404341 -0.017925529 0.16800001 1.5901949e-38
0.0092108287 -0.017925529 0.16800001 1.5164384e-38
0.0076425401 -0.015654216 0.16800001 1.507183e-38
0.0086024404 -0.015559576 0.16800001 1.4883122e-38
0.0094812233 -0.015491977 0.16800001 1.4607612e-38
0.010360006 -0.015559576 0.16800001 1.4055157e-38
0.011193722 -0.01558211 0.16800003 1.3871486e-38
0.0076425401 -0.014491516 0.168 1.3966201e-38
0.0086700395 -0.014545596 0.168 1.4058397e-38
0.0094812233 -0.014545597 0.168 1.4518654e-38
0.010267827 -0.014582469 0.168 1.479848e-38
0.011103591 -0.014815991 0.16800001 1.4708086e-38
0.007588461 -0.013464019 0.168 1.3045328e-38
0.0094812233 -0.013464019 0.16800001 1.3230075e-38
0.010112144 -0.013509084 0.16800003 1.3230074e-38
0.035979897 -0.0081913229 0.16800001 1.3368721e-38
-0.011068769 0.017766558 0.16800001 1.4752029e-38
-0.01052798 0.017766558 0.16800001 1.429177e-38
-0.0099871904 0.017766558 0.16800001 1.4107742e-38
-0.0072832438 0.017766558 0.16800001 1.4199937e-38
-0.0075874375 0.018341145 0.168 1.4936418e-38
-0.0094464011 0.023985634 0.16800001 1.3370896e-38
-0.0089056119 0.024256028 0.16800001 1.3646764e-38
-0.02053258 0.025743196 0.16800001 1.3001031e-38
-0.019991791 0.025878394 0.16800001 1.3276899e-38
-0.026346065 0.026959974 0.16800001 1.3001753e-38
-0.020442449 0.026509317 0.16800003 1.3185424e-38
-0.019755198 0.026723376 0.168 1.3277621e-38
-0.019667316 0.027446683 0.16800001 1.3370896e-38
-0.018910212 0.027771158 0.16800001 1.3832227e-38
-0.023506921 0.028852737 0.16800001 1.3002113e-38
-0.022425342 0.028852737 0.16800001 1.346417e-38
-0.019721396 0.028402081 0.168 1.3002115e-38
-0.018910212 0.028402081 0.16800003 1.3370893e-38
-0.023777315 0.029123131 0.16800001 1.3094309e-38
-0.020262185 0.02966392 0.16800001 1.4107016e-38
-0.019721396 0.029393524 0.168 1.3646759e-38
-0.019721396 0.03020471 0.16800001 1.3831148e-38
0.034426037 -0.038296532 0.16900001 1.8715696e-38
0.03517697 -0.03838633 0.17 1.9176684e-38
0.010141322 -0.026210528 0.17 1.9125925e-38
-0.00025448922 -0.025104335 0.16900001 1.8052342e-38
0.010141322 -0.025526494 0.17 1.8670344e-38
0.010282888 -0.024609305 0.16933334 1.9128088e-38
0.00056152319 -0.023550024 0.16900001 1.5628975e-38
0.0011055314 -0.023472311 0.16900001 1.5808325e-38
0.0008335273 -0.022656297 0.16900001 1.5626448e-38
0.0015135376 -0.022656297 0.16900001 1.5994512e-38
-0.00071097934 -0.021470418 0.16966666 1.4706299e-38
-0.0010768359 -0.020054223 0.17 1.415312e-38
-0.00052649336 -0.020480266 0.16900001 1.4060924e-38
0.009667024 -0.019559951 0.16966666 1.7555354e-38
0.010247497 -0.019858435 0.16950001 1.7473235e-38
-0.00079849747 -0.018576236 0.16900001 1.3323359e-38
0.0095570078 -0.018522209 0.16933334 1.5619963e-38
0.0090468684 -0.017591702 0.17 1.6181777e-38
0.0070896223 -0.015312187 0.16900001 1.3137523e-38
-0.0076093609 0.016575795 0.16999999 1.4383247e-38
-0.0068227216 0.016518792 0.17 1.4383247e-38
-0.012294994 0.017978065 0.17 1.4292133e-38
-0.011678662 0.017872311 0.16900001 1.4475445e-38
-0.0097746337 0.017872311 0.16900001 1.4107742e-38
-0.0084400447 0.0174697 0.16950001 1.392263e-38
-0.0075134593 0.017400149 0.16937502 1.4014826e-38
-0.0068227216 0.017522041 0.17 1.4107023e-38
-0.012464043 0.018538404 0.16950001 1.4384687e-38
-0.011950666 0.018144315 0.16900001 1.4292133e-38
-0.0084146131 0.018280316 0.16900001 1.4568717e-38
-0.007122593 0.018620322 0.16900001 1.4936418e-38
-0.0068227216 0.018251678 0.17 1.4752029e-38
-0.012532446 0.019152425 0.16950001 1.4844944e-38
-0.010106085 0.023723949 0.17 1.3001391e-38
-0.0095588583 0.023587141 0.17 1.3369092e-38
-0.023431089 0.024570314 0.16980001 1.3093227e-38
-0.022581344 0.024424205 0.16916668 1.3185424e-38
-0.012294994 0.024818404 0.17 1.3739678e-38
-0.01141943 0.02470896 0.17 1.3463091e-38
-0.010470903 0.02454479 0.16999999 1.3094307e-38
-0.0096318563 0.024678536 0.16966666 1.3555287e-38
-0.0087203467 0.02476974 0.16966666 1.3738959e-38
-0.0078487732 0.024613194 0.17 1.3555646e-38
-0.0026364336 0.024599513 0.16999999 1.3001036e-38
-0.0013504494 0.024681598 0.17 1.3554931e-38
-0.00052960869 0.024818404 0.17 1.3094312e-38
-0.013498893 0.025803411 0.17 1.364712e-38
-0.012568608 0.025639243 0.16999999 1.3647483e-38
-0.011474153 0.02563924 0.16999999 1.3739678e-38
-0.010470903 0.025639243 0.16999999 1.32787e-38
-0.0093764495 0.025639242 0.16999999 1.3463451e-38
-0.0086012101 0.025639243 0.17 1.3186867e-38
-0.0076435623 0.02563924 0.16999999 1.3095391e-38
-0.0036761649 0.025639245 0.17 1.3279782e-38
-0.0025817109 0.025639242 0.16999997 1.3002116e-38
-0.0013504496 0.025639243 0.16999999 1.3186507e-38
-0.016302733 0.026848445 0.16900001 1.3278343e-38
-0.015431936 0.026779598 0.16960001 1.3370178e-38
-0.014483904 0.026460087 0.17 1.3185784e-38
-0.013571858 0.026460087 0.17 1.3462372e-38
-0.012568608 0.026460083 0.17 1.3555287e-38
-0.011425653 0.026515564 0.16985714 1.3371616e-38
-0.010526868 0.026515564 0.16985714 1.3187223e-38
-0.0093764486 0.026460083 0.17 1.3002835e-38
-0.0076435623 0.026460083 0.17 1.3003196e-38
-0.0045426083 0.026460083 0.17 1.4015902e-38
-0.0036761649 0.026460087 0.17 1.4937137e-38
-0.0025817107 0.026460083 0.16999999 1.3738238e-38
-0.0013504494 0.026460083 0.17 1.3094312e-38
-0.020732513 0.027547883 0.16900001 1.3186507e-38
-0.019158777 0.02725645 0.16900001 1.3185784e-38
-0.017481416 0.027483119 0.16900001 1.3001753e-38
-0.016484069 0.027483119 0.16900001 1.3002115e-38
-0.015428758 0.027396608 0.16918184 1.3186506e-38
-0.012519319 0.027324518 0.16933334 1.3095391e-38
-0.011603972 0.027435537 0.16910002 1.3187586e-38
-0.010474592 0.027355142 0.16933334 1.3095391e-38
-0.0035293507 0.027404288 0.16950001 1.3552404e-38
-0.0025877403 0.027412033 0.16979998 1.3185062e-38
-0.001423188 0.027400114 0.16981816 1.3001757e-38
-0.00052960869 0.027280927 0.17 1.3002116e-38
-0.021502975 0.028386598 0.16925001 1.3094312e-38
-0.0207908 0.028344467 0.16900001 1.3002476e-38
-0.016484069 0.028344467 0.16900001 1.3094307e-38
-0.0043345508 0.028344467 0.16900001 1.309467e-38
-0.022105487 0.029115146 0.16900001 1.4016265e-38
-0.021431953 0.029374199 0.16900001 1.4291769e-38
-0.02081023 0.029374199 0.16900001 1.3922986e-38
-0.019158775 0.029568488 0.16900001 1.3554565e-38
0.00056152319 0.029432489 0.16900001 1.3370537e-38
-0.020654798 0.030611167 0.16900001 1.4475078e-38
-0.02105063 0.031385131 0.17 1.3461648e-38
-0.020503404 0.031658743 0.17 1.3831152e-38
-0.0035185385 0.032832537 0.16900001 1.3278703e-38
0.010476201 -0.026364708 0.171 1.8480555e-38
0.01058629 -0.025401428 0.171 1.8945495e-38
-0.00080794713 -0.020997858 0.171 1.4245319e-38
-0.0016336164 -0.019759353 0.171 1.3968007e-38
0.010545007 -0.019621743 0.171 1.7379601e-38
0.0093753077 -0.017695181 0.171 1.507543e-38
-0.008651806 0.016982924 0.171 1.392227e-38
-0.0068628551 0.017808594 0.171 1.4107742e-38
-0.012183835 0.022395646 0.171 1.392263e-38
-0.011541648 0.022349775 0.171 1.4383966e-38
-0.010715979 0.022349775 0.171 1.4844224e-38
-0.0096701309 0.022377297 0.171 1.5121169e-38
-0.0014271991 0.022418581 0.171 1.3370536e-38
-0.00060152978 0.022418581 0.171 1.3186503e-38
0.0002929453 0.022487387 0.171 1.3094312e-38
-0.025096387 0.023588279 0.171 1.318506e-38
-0.023617063 0.02362268 0.171 1.3185781e-38
-0.014706714 0.023863502 0.171 1.4014825e-38
-0.013192987 0.023863502 0.171 1.4751306e-38
-0.012367318 0.023450667 0.171 1.4290331e-38
-0.011541648 0.023450669 0.171 1.3460569e-38
-0.010740998 0.023413135 0.171 1.3091785e-38
-0.0096544037 0.023234421 0.171 1.4105573e-38
-0.0085692387 0.02314792 0.171 1.5396674e-38
-0.007491936 0.023666915 0.171 1.4014104e-38
-0.0068628551 0.023863502 0.171 1.3276902e-38
-0.001427199 0.023106638 0.171 1.3185786e-38
-0.00053272402 0.023450667 0.171 1.3003192e-38
-0.025027581 0.024551559 0.171 1.3276899e-38
-0.024614746 0.02468917 0.171 1.3369815e-38
-0.023926688 0.024413947 0.171 1.3093587e-38
-0.015394771 0.024826782 0.171 1.346309e-38
-0.014569104 0.02468917 0.171 1.4200295e-38
-0.01346821 0.02468917 0.171 1.3829713e-38
-0.012406634 0.024610534 0.171 1.3738239e-38
-0.011541648 0.024413947 0.171 1.3370896e-38
-0.0072756894 0.02468917 0.171 1.327906e-38
-0.0064500212 0.024654767 0.171 1.3094669e-38
-0.0056243516 0.024413947 0.171 1.3463091e-38
-0.0013583933 0.024413947 0.171 1.3831155e-38
-0.00053272402 0.024551557 0.171 1.309467e-38
-0.015119549 0.025652451 0.171 1.3370174e-38
-0.014569104 0.025652451 0.171 1.3554207e-38
-0.013605822 0.025514839 0.171 1.3646761e-38
-0.0071380781 0.025514839 0.171 1.3095391e-38
-0.015303031 0.026248768 0.171 1.346237e-38
-0.014706714 0.026065286 0.171 1.3370174e-38
-0.020899234 0.032120194 0.171 1.3094309e-38
0.010399047 -0.0274878 0.17200001 1.9581864e-38
0.011091129 -0.027349383 0.17200001 1.9671543e-38
0.011201861 -0.026435837 0.17200001 1.9955327e-38
-0.0016431698 -0.019182825 0.17200001 1.3415555e-38
0.0097069666 -0.017798662 0.17200001 1.5532448e-38
-0.0066261571 0.016528577 0.17200001 1.4475081e-38
-0.0065569486 0.017566698 0.17200001 1.3830795e-38
-0.00039742305 0.017912738 0.17200001 1.346237e-38
-0.0064877402 0.018327987 0.17200001 1.4291772e-38
-0.0041346629 0.018604819 0.17200001 1.4198856e-38
-0.0035117897 0.018674027 0.17200001 1.3738596e-38
-0.0013970964 0.018527921 0.17200002 1.3554565e-38
-0.0004666312 0.018397193 0.17200001 1.3554925e-38
-0.01327014 0.01971215 0.17200001 1.4384326e-38
-0.012993307 0.019850565 0.17200001 1.5028616e-38
-0.0063493238 0.019850565 0.17200001 1.410666e-38
-0.0055188262 0.01971215 0.17200001 1.4659472e-38
-0.0045037735 0.019573733 0.17200002 1.4567275e-38
-0.0034887204 0.019573735 0.17200002 1.4383244e-38
-0.0026120835 0.019573733 0.17200001 1.4107378e-38
-0.0015047534 0.019573733 0.17200004 1.4199576e-38
-0.00042510632 0.0196291 0.17200001 1.392299e-38
0.00038693598 0.019850565 0.17200001 1.3185786e-38
-0.017699461 0.020847162 0.17200001 1.2999229e-38
-0.016868964 0.020957896 0.17200001 1.410666e-38
-0.015346384 0.020957896 0.17200001 1.4292133e-38
-0.014377468 0.02081948 0.17200001 1.4292133e-38
-0.013546973 0.020588787 0.17200001 1.4107742e-38
-0.012993307 0.020404231 0.17200001 1.4291411e-38
-0.0083794296 0.020957896 0.17200001 1.3368016e-38
-0.0075950711 0.020957896 0.17200001 1.3736799e-38
-0.0065338798 0.0207272 0.17200001 1.3738239e-38
-0.0055188257 0.020588787 0.17200002 1.3462371e-38
-0.0045037731 0.020588787 0.17200002 1.3646761e-38
-0.0034887204 0.020588787 0.17200002 1.3922629e-38
-0.0026120835 0.020588785 0.17200001 1.3461652e-38
-0.0015047534 0.020588789 0.17200004 1.3646402e-38
-0.00039742308 0.020588785 0.17200001 1.3554209e-38
0.00038693595 0.020588787 0.17200002 1.309395e-38
-0.020329371 0.021511562 0.17200001 1.3183976e-38
-0.017607184 0.021511562 0.17200001 1.3184345e-38
-0.016647497 0.021566929 0.17200001 1.4198856e-38
-0.0154848 0.021511562 0.17200001 1.4015543e-38
-0.01437747 0.021511562 0.17200001 1.3554568e-38
-0.013546972 0.021511562 0.17200001 1.3462371e-38
-0.012716474 0.021649977 0.17200001 1.3093587e-38
-0.011609144 0.02151156 0.17200001 1.3645683e-38
-0.010501813 0.021511562 0.17200001 1.3370177e-38
-0.00948676 0.021511562 0.17200001 1.3185786e-38
-0.0083794296 0.021511562 0.17200001 1.3462012e-38
-0.0075950711 0.021511562 0.17200001 1.3830792e-38
-0.0066261571 0.021511562 0.17200001 1.4199216e-38
-0.0055188257 0.021511562 0.17200001 1.327798e-38
-0.0045037731 0.021511562 0.17200001 1.3185425e-38
-0.0034887204 0.02151156 0.17200001 1.309359e-38
-0.0015047536 0.021511558 0.17200002 1.309359e-38
-0.00039742305 0.021511562 0.17200001 1.3278341e-38
-0.017607184 0.022342058 0.17200002 1.3554208e-38
-0.01659213 0.022342058 0.17200002 1.4199575e-38
-0.0154848 0.022342058 0.17200002 1.327762e-38
-0.013546973 0.022342058 0.17200001 1.3462372e-38
-0.012762613 0.022249781 0.17200001 1.3554208e-38
-0.011609145 0.022065228 0.17200001 1.3738957e-38
-0.010501813 0.022065228 0.17200001 1.3738958e-38
-0.0093483441 0.022249781 0.17200001 1.4199936e-38
-0.0083794305 0.022342058 0.17200002 1.4383966e-38
-0.0075950711 0.022342058 0.17200001 1.4476161e-38
-0.0066261566 0.022342058 0.17200002 1.429141e-38
-0.0055188257 0.022342058 0.17200002 1.3554927e-38
-0.004965161 0.022065226 0.17200001 1.3462372e-38
-0.0033832605 0.02230251 0.17200002 1.3185787e-38
-0.0026120839 0.022342058 0.17200001 1.3554568e-38
-0.001597031 0.022157503 0.17200001 1.309359e-38
-0.00039742305 0.022203643 0.17200001 1.3094309e-38
0.00045284844 0.022262963 0.17200002 1.3002116e-38
-0.018391542 0.023172557 0.17200001 1.3186504e-38
-0.017837878 0.023172557 0.17200001 1.3739678e-38
-0.016453713 0.023172557 0.17200001 1.3554567e-38
-0.015623216 0.023172557 0.17200001 1.3093587e-38
-0.013408556 0.023380183 0.17200001 1.4753108e-38
-0.0075950711 0.023172557 0.17200001 1.4013384e-38
-0.0066261566 0.023449389 0.17200002 1.3646043e-38
-0.0054634595 0.023394024 0.17200001 1.3554928e-38
-0.015623216 0.024418302 0.17200001 1.3370894e-38
-0.014377469 0.024279887 0.17200001 1.5120812e-38
-0.013823804 0.024279887 0.17200001 1.4474364e-38
-0.0064877402 0.024279887 0.17200001 1.3462372e-38
-0.0055188262 0.024279887 0.17200001 1.3738959e-38
-0.004965161 0.024279887 0.17200001 1.3923351e-38
-0.015761632 0.025802467 0.17200001 1.3555287e-38
-0.015761632 0.026217714 0.17200001 1.3739675e-38
0.0089280764 -0.0176237 0.17300001 1.6832184e-38
0.0093457391 -0.0176237 0.17300001 1.6459083e-38
-0.0063166283 0.01655506 0.17300001 1.4383604e-38
-0.0030449333 0.016903114 0.17300001 1.410666e-38
-0.0023488281 0.016903114 0.17300001 1.4014464e-38
-0.0062470175 0.017320776 0.17300001 1.3922272e-38
-0.0030449333 0.017320776 0.17300001 1.410702e-38
-0.0023488281 0.017320776 0.17300001 1.3830792e-38
-0.0015831126 0.017390387 0.17300001 1.410738e-38
-0.013486512 0.018434545 0.17300001 1.4199577e-38
-0.012372743 0.018016882 0.17300001 1.4567641e-38
-0.011537418 0.018016882 0.17300001 1.456764e-38
-0.0061077964 0.018156104 0.17300001 1.3923351e-38
-0.0058293543 0.018016882 0.17300001 1.3646764e-38
-0.0047155861 0.018852208 0.17300001 1.4475443e-38
-0.0033233755 0.018330129 0.17299999 1.3554567e-38
-0.0023687168 0.018374879 0.17299999 1.3554567e-38
-0.0015831126 0.018086493 0.17300001 1.3738957e-38
0.00035205999 0.018796518 0.17300001 1.327762e-38
-0.015017943 0.019826755 0.17300001 1.3924068e-38
-0.014461059 0.019687533 0.17299999 1.4200296e-38
-0.013904176 0.019687533 0.17300002 1.4292133e-38
0.00037592641 0.019528423 0.17299999 1.3185786e-38
-0.018916134 0.020801302 0.17300001 1.4105937e-38
-0.015017943 0.020244418 0.17300001 1.4108461e-38
-0.014461059 0.020244418 0.17300001 1.4292493e-38
-0.022535879 0.021358186 0.17300001 1.4474364e-38
-0.0214778 0.021692317 0.17300001 1.4289609e-38
-0.018080806 0.023585724 0.17300001 1.3556366e-38
-0.014182617 0.023446502 0.17300001 1.410774e-38
-0.013904176 0.023585724 0.17300001 1.5029695e-38
-0.0061077964 0.023724943 0.17300001 1.3462372e-38
-0.0055509121 0.023585724 0.17300001 1.3555287e-38
-0.014182617 0.024421049 0.17300001 1.5119733e-38
0.0088396575 -0.01744552 0.17400001 1.692438e-38
-0.010623927 0.011959893 0.17400001 1.4291407e-38
-0.010623927 0.01237997 0.17400001 1.4198856e-38
-0.0097837728 0.012239944 0.17400001 1.4383247e-38
-0.010623927 0.013150111 0.17400001 1.4935698e-38
-0.0064231534 0.015880613 0.17400001 1.4567994e-38
-0.005547992 0.015565556 0.17400001 1.4567638e-38
-0.004742844 0.015507211 0.17400001 1.4291051e-38
-0.012164211 0.016440716 0.17400001 1.5120812e-38
-0.011464082 0.016440716 0.17400001 1.5120812e-38
-0.005582999 0.016300691 0.17400001 1.4567638e-38
-0.004742844 0.016300689 0.17400001 1.4567638e-38
-0.01335443 0.01749091 0.17400001 1.4014107e-38
-0.012397587 0.017280871 0.17400001 1.5212287e-38
-0.011464082 0.017280871 0.17400001 1.5212286e-38
-0.010903979 0.017420897 0.17400001 1.4843864e-38
-0.005582999 0.017280871 0.17400001 1.392227e-38
-0.004742844 0.017280871 0.17400001 1.4198857e-38
-0.0033425861 0.017420897 0.17400001 1.429177e-38
-0.014488639 0.018597113 0.17400001 1.3554565e-38
-0.013494455 0.01819104 0.17400001 1.4198858e-38
-0.01118403 0.018121026 0.17400001 1.4475443e-38
-0.010903979 0.018121026 0.17400001 1.4291051e-38
-0.015384804 0.019521283 0.17400001 1.3738957e-38
-0.022386093 0.022461826 0.17400001 1.3922628e-38
-0.015384804 0.023442006 0.17400001 1.3093587e-38
-0.014824701 0.02358203 0.17400001 1.3554565e-38
-0.014544648 0.024002111 0.17400001 1.4752029e-38
-0.021106444 0.01259195 0.17500001 1.4383603e-38
-0.020824783 0.01259195 0.17500001 1.401482e-38
-0.021528935 0.013472139 0.17500001 1.4475801e-38
-0.020578329 0.013472138 0.17500001 1.4475443e-38
-0.021388106 0.014281916 0.17500001 1.4289972e-38
-0.020824783 0.014281916 0.17500001 1.475095e-38
-0.011248306 0.016816864 0.17500001 1.539632e-38
-0.010684984 0.017661847 0.17500001 1.4566559e-38
-0.0042067794 0.017521016 0.17500001 1.4198856e-38
-0.0039251186 0.017661847 0.17500001 1.4475443e-38
-0.010684984 0.018225169 0.17500001 1.410666e-38
0.036560141 -0.041157495 0.17600001 1.3645986e-38
0.035880294 -0.040364336 0.17600001 1.6318237e-38
0.036560144 -0.040307686 0.17600001 1.8438749e-38
0.037126683 -0.040307682 0.17600001 1.9084488e-38
0.036843412 -0.039741144 0.17600001 1.9269241e-38
-0.0062490171 -0.022304386 0.177 1.8059905e-38
-0.0054791779 -0.022404283 0.17666668 1.7679959e-38
-0.004810988 -0.022524649 0.17650001 1.7297495e-38
-0.0053867577 -0.021774745 0.17675 1.6738918e-38
-0.004810988 -0.021814864 0.17650001 1.6367975e-38
-0.005536817 -0.020452665 0.177 1.5813719e-38
-0.0028304565 -0.020452665 0.177 1.4889245e-38
-0.0056792572 -0.019740464 0.177 1.5355253e-38
-0.0025455763 -0.019455586 0.177 1.3876533e-38
-0.022360135 0.014363526 0.17600001 1.4291051e-38
-0.021510324 0.014646796 0.17600001 1.4289972e-38
-0.020433895 0.014533488 0.17600001 1.4659834e-38
-0.02191742 0.015014897 0.177 1.3460212e-38
-0.020493021 0.015394736 0.177 1.4843506e-38
-0.01992326 0.015394737 0.177 1.4751671e-38
-0.02106278 0.016154418 0.177 1.475095e-38
-0.020493019 0.016154418 0.177 1.4566559e-38
-0.011029311 0.016912961 0.17600001 1.5213008e-38
-0.004797359 0.016912961 0.17600001 1.4659834e-38
-0.011029311 0.017196231 0.17600001 1.5213008e-38
-0.010746041 0.017337866 0.17600001 1.4752387e-38
-0.021134 0.024415938 0.177 1.3279422e-38
-0.0222023 0.025697898 0.177 1.3093947e-38
-0.021632541 0.025555458 0.177 1.3555287e-38
-0.006475315 -0.022239408 0.17800002 1.7775757e-38
-0.0045653847 -0.022287155 0.178 1.6369775e-38
-0.0022734688 -0.022287155 0.178 1.4524417e-38
-0.006427567 -0.02185742 0.178 1.7853909e-38
-0.0045653847 -0.02185742 0.178 1.5906276e-38
-0.0022734688 -0.02185742 0.178 1.4706294e-38
-0.0051383642 -0.020568216 0.178 1.5167991e-38
-0.0048518744 -0.020424971 0.178 1.50722e-38
-0.0053675557 -0.019508207 0.178 1.4522976e-38
-0.0048518744 -0.019851994 0.178 1.452118e-38
-0.0031329375 -0.019851994 0.178 1.4152397e-38
-0.021539891 0.015386216 0.178 1.4658755e-38
-0.0045653847 0.017248398 0.178 1.4659834e-38
-0.021754758 0.02455388 0.178 1.3185783e-38
-0.022184491 0.025413349 0.178 1.3001393e-38
-0.0045910333 -0.020683769 0.17900001 1.4888168e-38
-0.0054553305 -0.019099224 0.17900001 1.4429341e-38
-0.0045910333 -0.019675422 0.17900001 1.4153475e-38
-0.0054553305 -0.018523026 0.17900001 1.4061278e-38
-0.021876976 0.015472656 0.17900001 1.4474364e-38
-0.0045910333 0.015472656 0.17900001 1.410666e-38
-0.0043852483 0.016336953 0.17900001 1.4291051e-38
-0.023029372 0.02584422 0.17900001 1.3185783e-38
-0.0049063903 -0.019205924 0.18000001 1.4061996e-38
-0.0034578475 -0.019785341 0.18000001 1.4244237e-38
-0.0028784303 -0.019350778 0.18000001 1.3232243e-38
-0.0051960987 -0.018481653 0.18000001 1.3692854e-38
-0.0049063903 -0.018626507 0.18000001 1.3602457e-38
-0.0014298877 0.013820845 0.18000001 1.4566915e-38
-0.023447735 0.024829768 0.18000001 1.401482e-38
-0.022868318 0.024684913 0.18000001 1.3000312e-38
-0.023544304 0.025505753 0.18000001 1.3553844e-38
-0.0043510115 -0.022662779 0.18100001 1.6827875e-38
-0.0043510115 -0.020186577 0.18100001 1.4427905e-38
-0.0044481172 -0.019603942 0.18100001 1.3877249e-38
-0.0048365421 -0.018438669 0.18100001 1.3234395e-38
-0.0031857395 -0.01829301 0.18100001 1.3141482e-38
-0.0043750508 -0.022348598 0.18200001 1.6363657e-38
-0.0042285873 -0.021176888 0.18200001 1.50722e-38
