# .PCD v0.7 - Point Cloud Data file format
VERSION 0.7
FIELDS x y z rgb
SIZE 4 4 4 4
TYPE F F F F
COUNT 1 1 1 1
WIDTH 980
HEIGHT 1
VIEWPOINT 0 0 0 1 0 0 0
POINTS 980
DATA ascii
-0.037639327 -0.037736379 0.108 1.8531313e-38
0.013221902 -0.012827242 0.108 1.885723e-38
0.013519762 -0.013121448 0.109 1.7670898e-38
0.013490523 -0.012507427 0.109 1.6924708e-38
0.013643796 -0.012533652 0.11000001 1.6099982e-38
-0.039422218 -0.037391111 0.11100002 1.6503008e-38
-0.03893498 -0.037498303 0.11100002 1.687143e-38
-0.039470941 -0.036765821 0.11100001 1.3551672e-38
0.013589177 -0.012915574 0.11100001 1.7839841e-38
-0.040547587 -0.037187185 0.11200001 1.3552752e-38
-0.039558563 -0.038376607 0.11300002 1.7885942e-38
-0.041152116 -0.036912967 0.11300001 1.7609365e-38
-0.040909622 -0.036973592 0.11300001 1.68718e-38
0.01361578 -0.013803029 0.11300001 1.8305134e-38
0.0140159 -0.013784842 0.11300001 1.5746639e-38
-0.041263502 -0.038183264 0.115 1.3459477e-38
-0.040231917 -0.038279362 0.114 1.6687396e-38
-0.039710209 -0.038507275 0.11455556 1.6871429e-38
-0.04209727 -0.037280105 0.1145 1.8531322e-38
-0.041386899 -0.037627991 0.115 1.6042038e-38
-0.040769923 -0.03768969 0.115 1.6318266e-38
-0.039657015 -0.037429225 0.11400001 1.5856925e-38
-0.041679956 -0.036656257 0.115 1.9729865e-38
-0.039803796 -0.036933828 0.11400001 1.9176694e-38
0.013539294 -0.013508094 0.11420001 1.7467823e-38
-0.040315408 -0.040008903 0.116 1.7424966e-38
-0.040222056 -0.039542153 0.116 1.7701553e-38
-0.039879773 -0.039448801 0.116 1.7885944e-38
-0.043265283 -0.037283067 0.11600001 1.9637669e-38
-0.042765856 -0.037371751 0.116 1.9545474e-38
-0.042742521 -0.036834985 0.116 1.9729505e-38
-0.040286332 -0.040353805 0.11700001 1.7424966e-38
-0.040098023 -0.039788876 0.11700001 1.7978139e-38
-0.040314127 -0.040635407 0.11800001 1.7517161e-38
-0.039870981 -0.040698711 0.11800001 1.7332773e-38
0.016771168 -0.015761722 0.119 1.788124e-38
0.017201809 -0.017053006 0.12 2.0372349e-38
0.017201809 -0.016328735 0.12 2.0095761e-38
0.016622391 -0.015604464 0.12 1.3547291e-38
0.017225951 -0.01567689 0.12 1.9449297e-38
0.017734656 -0.017311964 0.12100001 2.0186879e-38
0.017651191 -0.016694333 0.121 2.037163e-38
0.018323867 -0.017318068 0.12233334 1.9726261e-38
0.018423725 -0.01688543 0.123 2.0463105e-38
0.018872876 -0.017421864 0.12400001 2.0002846e-38
0.019684268 -0.018108454 0.126 2.0280153e-38
0.019582871 -0.017550765 0.126 1.9451111e-38
0.020408746 -0.01839589 0.12800001 1.8898654e-38
0.020408746 -0.017777843 0.12800001 1.5947659e-38
0.020936867 -0.018334601 0.13000001 1.5118264e-38
0.029176192 -0.015158109 0.141 1.3002386e-38
0.028583199 -0.015608435 0.142 1.3002035e-38
0.02926884 -0.015608435 0.142 1.3002745e-38
0.016586252 -0.017566524 0.14400001 1.8754612e-38
0.016586252 -0.016987106 0.14400001 1.7832288e-38
0.016006835 -0.011308819 0.14400001 1.4973869e-38
0.021252273 -0.018505329 0.14500001 2.0280509e-38
0.016398046 -0.012344196 0.14500001 1.5990536e-38
0.016468059 -0.011581834 0.145 1.4700519e-38
0.021633826 -0.018632952 0.14600001 2.0372705e-38
0.015930643 -0.012212928 0.14650001 1.6627639e-38
0.016873807 -0.012449523 0.14650001 1.4978184e-38
0.015630525 -0.011426123 0.147 1.5982264e-38
0.01693411 -0.01158338 0.14600001 1.4058387e-38
0.01549865 -0.012218466 0.148 1.6902789e-38
0.017404288 -0.012218466 0.148 1.3601e-38
0.01549865 -0.011742056 0.148 1.6258854e-38
0.017404288 -0.011742056 0.148 1.3053217e-38
0.015736856 -0.0095982132 0.148 1.3888733e-38
0.032172985 -0.0061442442 0.148 1.6963252e-38
0.015843185 -0.01817647 0.149 1.9396385e-38
0.015843185 -0.017576937 0.149 1.8382588e-38
0.017521886 -0.017337121 0.149 1.7372749e-38
0.017322039 -0.013380186 0.149 1.7095439e-38
0.015363557 -0.012660744 0.149 1.727265e-38
0.017401978 -0.012660744 0.149 1.4519358e-38
0.032750092 -0.0061857593 0.149 1.8069605e-38
0.033109814 -0.006065852 0.149 1.8346196e-38
0.032790061 -0.0057460996 0.149 1.5950176e-38
0.0332537 -0.0055862232 0.149 1.7793738e-38
0.017880905 -0.017332766 0.15000001 1.7004684e-38
0.017880905 -0.013349274 0.15000001 1.6819574e-38
0.018202804 -0.0132688 0.15000001 1.6450068e-38
0.017880905 -0.012625004 0.15000001 1.4704828e-38
0.01812233 -0.012625004 0.15000001 1.5440227e-38
0.017880905 -0.011900732 0.15000001 1.425176e-38
0.0070636142 -0.014410403 0.15100001 1.8570244e-38
0.018583391 -0.012757778 0.15100001 1.5438429e-38
0.017757079 -0.011737037 0.15100001 1.3333751e-38
0.018243145 -0.011858555 0.15100001 1.4902155e-38
0.021788958 -0.019154048 0.15200001 1.585221e-38
0.018608602 -0.012304052 0.15200001 1.5265544e-38
0.019195745 -0.012450838 0.15200001 1.5445612e-38
0.018363962 -0.011500226 0.15200002 1.3622912e-38
0.0039300374 -0.0094906613 0.15200001 1.5616371e-38
0.0046333857 -0.0095824022 0.15200001 1.699966e-38
0.014790991 -0.012261873 0.15300001 1.7465673e-38
0.019839162 -0.012385 0.15300001 1.5081136e-38
0.019223532 -0.011769369 0.15300001 1.4361553e-38
0.0047767339 -0.010497066 0.15300001 1.6542994e-38
0.0049409019 -0.0099224774 0.15300001 1.7000379e-38
0.0051871543 -0.0096762255 0.15300001 1.7461717e-38
0.0051871543 -0.0089374688 0.15300001 1.66334e-38
0.021277398 -0.019220416 0.15450001 1.2994088e-38
0.014984338 -0.018534202 0.155 2.1057709e-38
0.015135526 -0.01891035 0.15400001 1.9950645e-38
0.010244385 -0.017785789 0.155 2.3081331e-38
0.014887664 -0.013209531 0.15400001 1.8569503e-38
0.0049731955 -0.012218085 0.15400001 1.6632318e-38
0.005454537 -0.01224753 0.155 1.7644316e-38
0.011741213 -0.012047952 0.155 1.8385843e-38
0.013362775 -0.012297424 0.155 1.7930603e-38
0.014887664 -0.012961671 0.15400001 1.8109964e-38
0.0048740506 -0.011573644 0.15400001 1.6267125e-38
0.0053473464 -0.011445339 0.15457143 1.7554275e-38
0.01159069 -0.011399438 0.15466666 1.8013459e-38
0.012574289 -0.01163974 0.15400003 1.8667098e-38
0.013524425 -0.011598431 0.15400003 1.8116439e-38
0.0048492644 -0.010978777 0.15400001 1.6361474e-38
0.005338117 -0.010467968 0.155 1.7370601e-38
0.011827269 -0.010889687 0.15450001 1.8291124e-38
0.01254285 -0.010770407 0.15412502 1.8389435e-38
0.013317873 -0.010896157 0.15400001 1.8484144e-38
0.0040076035 -0.0090542985 0.155 1.4697292e-38
0.0055044312 -0.0094700828 0.155 1.8015972e-38
0.014610131 -0.0093037691 0.155 1.6362919e-38
0.015682805 -0.0093968837 0.15450001 1.5720429e-38
0.0046442775 -0.0088313548 0.15459999 1.5710363e-38
0.0052549597 -0.008804827 0.155 1.6171343e-38
0.014485396 -0.008804827 0.155 1.5715028e-38
0.011491741 -0.0060606436 0.155 1.4421778e-38
0.011568731 -0.0052598272 0.15437502 1.442538e-38
0.012282781 -0.0052416963 0.15475 1.5071475e-38
0.011731487 -0.0043781414 0.15433335 1.442718e-38
0.012270667 -0.0046273442 0.15433334 1.4979997e-38
0.030899096 -0.028194845 0.156 1.2999553e-38
0.012068043 -0.018151617 0.156 2.3449031e-38
0.014578849 -0.018151617 0.156 2.1149901e-38
0.012319122 -0.017749887 0.156 2.2713271e-38
0.013323446 -0.017649455 0.156 2.1149185e-38
0.014327769 -0.017900536 0.156 2.0781122e-38
0.013490833 -0.01421802 0.156 2.041378e-38
0.014160383 -0.01421802 0.156 2.0879433e-38
0.013448986 -0.013506624 0.156 1.8760008e-38
0.014076688 -0.013632164 0.156 1.9865639e-38
0.0045356206 -0.012125681 0.156 1.626713e-38
0.0057910243 -0.012376762 0.156 1.7922707e-38
0.0060421051 -0.012125681 0.156 1.9027254e-38
0.014076688 -0.012125681 0.156 1.829975e-38
0.0057910248 -0.011456133 0.156 1.75532e-38
0.0060421051 -0.0118746 0.156 1.8566271e-38
0.0057910248 -0.010535504 0.156 1.7185133e-38
0.0057910243 -0.0097404141 0.156 1.7370601e-38
0.014076688 -0.0091127129 0.156 1.6358603e-38
0.015394862 -0.0093637938 0.156 1.6273243e-38
0.0051633227 -0.0084850108 0.156 1.5525613e-38
0.011691421 -0.0084850108 0.156 1.5710361e-38
0.012402817 -0.0084850108 0.156 1.5800754e-38
0.013292061 -0.0085791657 0.156 1.5341933e-38
0.014244076 -0.0085687041 0.156 1.5254771e-38
0.015248398 -0.0087779388 0.156 1.5347685e-38
0.0052888631 -0.0077317692 0.156 1.4696932e-38
0.011691421 -0.0074806875 0.156 1.5343377e-38
0.012402818 -0.0074806884 0.156 1.5528127e-38
0.013323446 -0.0074806884 0.156 1.562356e-38
0.014202229 -0.0078573097 0.156 1.5073982e-38
0.011733268 -0.0064345188 0.156 1.4696567e-38
0.012402818 -0.0063508255 0.156 1.5251542e-38
0.013323446 -0.006350826 0.156 1.5345177e-38
0.014076688 -0.0063508251 0.156 1.5160069e-38
0.012821284 -0.0053465026 0.156 1.5441337e-38
0.01327323 -0.0054971511 0.156 1.516259e-38
0.01106372 -0.0044258735 0.156 1.4888877e-38
0.030465443 -0.027617512 0.15700001 1.3460894e-38
0.02098956 -0.019278735 0.15700001 1.3362502e-38
0.02124225 -0.019278735 0.15700001 1.3085915e-38
0.02200032 -0.019531425 0.15700001 1.3177773e-38
0.012650783 -0.018099515 0.15700001 2.2068261e-38
0.013661544 -0.018015284 0.15700001 2.1149904e-38
0.018968038 -0.015741071 0.15700001 1.6364696e-38
0.019473419 -0.015488381 0.15700001 1.5349823e-38
0.0048173857 -0.01321417 0.15700001 1.8385843e-38
0.013724716 -0.013277343 0.15700001 1.8483415e-38
0.014166923 -0.013340515 0.15700001 1.9313179e-38
0.00443835 -0.012582446 0.15700001 1.6358251e-38
0.0057018013 -0.012708791 0.15700001 1.8199295e-38
0.0063335267 -0.012329755 0.15700001 1.9680538e-38
0.013661544 -0.012708791 0.15700001 1.7930242e-38
0.014166923 -0.012582446 0.15700001 1.8852557e-38
0.020484179 -0.01220341 0.15700001 1.3806564e-38
0.0063335267 -0.01195072 0.15700001 1.8756065e-38
0.013535198 -0.0091711273 0.15700001 1.6354287e-38
0.0043120049 -0.008665747 0.15700001 1.4606175e-38
0.0056765322 -0.0086152088 0.15700001 1.690963e-38
0.01113464 -0.0085394019 0.15700001 1.6454048e-38
0.013661543 -0.0089184372 0.15700001 1.5894388e-38
0.014798649 -0.0084130568 0.15700001 1.4701957e-38
0.015935754 -0.0087920921 0.15700001 1.4702676e-38
0.016188445 -0.0084130568 0.15700001 1.4148784e-38
0.0048173857 -0.0077813314 0.15700001 1.4237393e-38
0.0055754562 -0.0076549863 0.15700001 1.4974238e-38
0.01113464 -0.0075286413 0.15700001 1.5713603e-38
0.013914232 -0.0074022957 0.15700001 1.5350213e-38
0.014419613 -0.0077813314 0.15700001 1.5166538e-38
0.016188445 -0.0077813314 0.15700001 1.368889e-38
0.011218871 -0.0065599955 0.15700001 1.4788763e-38
0.019216003 -0.016095633 0.15800001 1.5902997e-38
0.019470302 -0.015841333 0.15800001 1.5718966e-38
0.005102369 -0.013298336 0.15800001 1.866243e-38
0.0061195679 -0.012789738 0.15800001 1.9860977e-38
0.020868951 -0.012281138 0.15800001 1.3622172e-38
0.0062212879 -0.0113148 0.15800001 1.7830504e-38
0.010951262 -0.01126394 0.15800001 1.7180457e-38
0.011205562 -0.01100964 0.15800001 1.7274448e-38
0.0061195679 -0.010755341 0.15800001 1.7276969e-38
0.011714161 -0.010755341 0.15800001 1.7183694e-38
0.0030679714 -0.0092295427 0.15800001 1.4884201e-38
0.0058652679 -0.0092295427 0.15800001 1.7652947e-38
0.0058652679 -0.0089752432 0.15800001 1.7836259e-38
0.0061195679 -0.0087209428 0.15800001 1.792666e-38
0.0096797636 -0.0089752432 0.15800001 1.718081e-38
0.015401507 -0.008593793 0.15800001 1.5070739e-38
0.0045937691 -0.0077037448 0.15800001 1.4054081e-38
0.005610968 -0.0073477244 0.15800001 1.4606177e-38
0.0062043346 -0.0078732781 0.15800001 1.6357534e-38
0.014341925 -0.0074494444 0.15800001 1.5442409e-38
0.0053566685 -0.0066865459 0.15800001 1.3687456e-38
0.0058652679 -0.0051607476 0.15800001 1.3044252e-38
0.010696962 -0.0051607476 0.15800001 1.5161504e-38
0.010696962 -0.0046521481 0.15800001 1.5164024e-38
-0.026176495 0.049513683 0.15800001 1.3462726e-38
-0.025540745 0.049259383 0.15800001 1.3186499e-38
0.013835575 -0.019396368 0.15900001 2.3174608e-38
0.014219439 -0.019396368 0.15900001 2.271399e-38
0.019977396 -0.019396368 0.15900001 1.6115782e-38
0.020489216 -0.019396368 0.15900001 1.5018776e-38
0.021256944 -0.019268414 0.15900001 1.3730561e-38
0.012811938 -0.018500686 0.15900001 2.1791311e-38
0.013494364 -0.018628642 0.15900002 2.1701996e-38
0.014176787 -0.018671293 0.15900001 2.1518325e-38
0.019849442 -0.018628642 0.15900001 1.6752173e-38
0.02036126 -0.018436708 0.15900001 1.566055e-38
0.021001033 -0.018244777 0.15900001 1.5757062e-38
0.019977396 -0.017349094 0.15900001 1.6921831e-38
0.020489214 -0.017562354 0.15900002 1.565301e-38
0.021001033 -0.017562352 0.15900001 1.6212292e-38
0.018953759 -0.016453413 0.15900001 1.6178868e-38
0.019849442 -0.016538717 0.15900002 1.5719328e-38
0.020489216 -0.016538717 0.15900002 1.5085464e-38
0.019977396 -0.015600383 0.15900001 1.5533496e-38
0.020233305 -0.015600383 0.15900001 1.5625694e-38
0.0064995117 -0.014491443 0.15900001 1.6816717e-38
0.0057104584 -0.01344648 0.15900001 1.8203611e-38
0.0061582993 -0.013638412 0.15900001 1.8574552e-38
0.0041110255 -0.012870685 0.15900001 1.6266057e-38
0.0064995117 -0.012358867 0.15900001 1.9861693e-38
0.010764665 -0.012102958 0.15900001 1.7736871e-38
0.011276484 -0.012358868 0.15900001 1.7276619e-38
0.0067724818 -0.011386412 0.15900001 1.8198925e-38
0.0093571646 -0.0092879571 0.15900001 1.7456677e-38
0.0067980723 -0.0084349271 0.15900002 1.682067e-38
0.0071819359 -0.0085202297 0.15900001 1.6635918e-38
0.015115121 -0.0080084112 0.15900001 1.489031e-38
0.0044948896 -0.0074965931 0.15900001 1.3870412e-38
0.0065848143 -0.0074965931 0.15900002 1.6266416e-38
0.014859212 -0.0074965931 0.15900001 1.5719713e-38
0.0047934502 -0.0066435621 0.15900001 1.3227921e-38
0.0056784698 -0.0064409678 0.15900002 1.3687097e-38
0.0065848147 -0.0064729564 0.15900002 1.506787e-38
0.014859213 -0.0067288657 0.15900001 1.5532448e-38
0.0056099226 -0.0055224369 0.15900002 1.3136444e-38
0.0065848143 -0.0054493197 0.15900002 1.322756e-38
0.0071819364 -0.0054493197 0.15900001 1.3411589e-38
0.0099969376 -0.0049375016 0.15900001 1.4884199e-38
0.010338149 -0.0045109862 0.15900001 1.4794161e-38
-0.028133534 0.049827058 0.15900001 1.3463091e-38
-0.027570534 0.049443197 0.15900002 1.3186504e-38
-0.026654951 0.049400546 0.15900002 1.3186503e-38
-0.028133534 0.050338879 0.15900001 1.3647117e-38
-0.027749671 0.050338879 0.15900001 1.3278334e-38
0.013278795 -0.0193896 0.16000001 2.252852e-38
0.020446399 -0.019647118 0.16000001 1.5110971e-38
0.021905672 -0.0193896 0.16000001 1.2994082e-38
0.022506548 -0.01947544 0.16000001 1.3085926e-38
0.020746838 -0.018745802 0.16000001 1.5939294e-38
0.021648152 -0.018539786 0.16 1.4375565e-38
0.02216319 -0.018488284 0.16000001 1.3086264e-38
0.019502163 -0.017329449 0.16000001 1.6454379e-38
0.021648152 -0.017329449 0.16000001 1.5385762e-38
0.022485089 -0.017522588 0.16000001 1.3270654e-38
0.0073558651 -0.016299374 0.16000001 2.1519058e-38
0.019330485 -0.016556894 0.16000001 1.5903e-38
0.020746838 -0.016041856 0.16000001 1.4893165e-38
0.021133116 -0.016556894 0.16000001 1.6380876e-38
0.0065189293 -0.01507616 0.16000001 1.7275537e-38
0.0072914856 -0.0152693 0.16000001 1.8840709e-38
0.020746838 -0.015526819 0.16000001 1.5166152e-38
0.0056819934 -0.014625504 0.16000001 1.8386925e-38
0.0061970307 -0.014754263 0.16000001 1.7925225e-38
0.0073129456 -0.014668424 0.16000001 1.7733281e-38
0.0042656409 -0.013595429 0.16000001 1.6634123e-38
0.0056819934 -0.013852948 0.16000001 1.8205408e-38
0.0065575568 -0.013775693 0.16000001 1.8020653e-38
0.0072271056 -0.013981707 0.16000001 1.7828711e-38
0.0064545497 -0.012951633 0.16000001 1.9589065e-38
0.0072271056 -0.012179078 0.16000001 1.9035528e-38
0.0072271056 -0.011535281 0.16000001 1.8107088e-38
0.0062614102 -0.010440826 0.16000001 1.700002e-38
0.0064545497 -0.0093463724 0.16000001 1.7005421e-38
0.0072271056 -0.0090888534 0.16000001 1.6542284e-38
0.0086863786 -0.0091746924 0.16000001 1.680951e-38
0.0090297367 -0.0090888534 0.16000001 1.6810949e-38
0.0038793625 -0.0083162971 0.16000001 1.3962245e-38
0.0076133842 -0.0085223122 0.16 1.6725593e-38
0.0086434586 -0.0087025752 0.16000001 1.6257418e-38
0.0090297367 -0.0088313343 0.16000001 1.6718753e-38
0.0041368813 -0.0072862227 0.16000001 1.3595626e-38
0.0064545497 -0.007028704 0.16000001 1.5989467e-38
0.0073558651 -0.0074579022 0.16000001 1.6821386e-38
0.0073301131 -0.0065136673 0.16000001 1.5990905e-38
0.0076563037 -0.0053977524 0.16000001 1.3595622e-38
0.0085146995 -0.0052260733 0.16000001 1.4792722e-38
0.0076563037 -0.0047110356 0.16000001 1.3044249e-38
0.0086434586 -0.0047110361 0.16000001 1.4609051e-38
0.0093902629 -0.0046595326 0.16000001 1.4608691e-38
-0.023546377 0.043702472 0.16 1.300175e-38
0.0073129456 0.048423648 0.16000001 1.3280498e-38
-0.028310474 0.049882919 0.16000001 1.3002113e-38
0.012454839 -0.019510785 0.16100001 2.2713267e-38
0.0091426084 -0.018328283 0.162 2.3456228e-38
0.011418325 -0.018474272 0.16100001 2.2525279e-38
0.012454839 -0.018992528 0.16100001 2.2989132e-38
0.018846666 -0.017265009 0.16100001 1.645366e-38
0.019192172 -0.017567325 0.16100001 1.6637331e-38
0.022431273 -0.017308196 0.16100001 1.3823106e-38
0.0065941773 -0.016261917 0.16133334 1.8564116e-38
0.0075781825 -0.016242381 0.162 2.1615571e-38
0.021556716 -0.016368857 0.16100001 1.5372827e-38
0.0058470704 -0.015235171 0.16100001 1.8016347e-38
0.0065812669 -0.01571024 0.16100001 1.8103858e-38
0.0077085514 -0.015590537 0.162 2.041559e-38
0.021394759 -0.015623864 0.16100001 1.4528695e-38
0.0048902789 -0.014437502 0.16150001 1.8478759e-38
0.0055447537 -0.014414598 0.16100001 1.8388002e-38
0.0076495018 -0.014387016 0.16166668 1.8657754e-38
0.0036444806 -0.013550838 0.16100001 1.5806158e-38
0.0048105577 -0.013809966 0.16100001 1.8202171e-38
0.0067540188 -0.013291709 0.16100001 1.9128443e-38
0.0074369237 -0.013527185 0.16175 1.8386556e-38
0.0031456416 -0.012852791 0.162 1.5990912e-38
0.0067540188 -0.012773453 0.16100001 1.9773812e-38
0.0074461261 -0.012631333 0.16125001 1.9219918e-38
0.0084130801 -0.012475045 0.16174999 1.8666023e-38
0.0097944532 -0.012331315 0.162 1.7187657e-38
0.010414055 -0.012423625 0.16150001 1.7829429e-38
0.0075314036 -0.011374161 0.16100001 1.7829059e-38
0.0084206061 -0.011677497 0.16171429 1.9217755e-38
0.0095771709 -0.011809841 0.162 1.764863e-38
0.01046819 -0.011477812 0.16100001 1.6994986e-38
0.0066503673 -0.010389474 0.16100001 1.7369162e-38
0.0073586511 -0.0104413 0.16100001 1.6813463e-38
0.0083349934 -0.010278977 0.16150001 1.8008409e-38
0.0066244546 -0.0099230427 0.16100001 1.6908905e-38
0.0074203489 -0.0095898788 0.16100001 1.6630158e-38
0.0082224114 -0.009620727 0.16100001 1.7270847e-38
0.0090861721 -0.0099230427 0.16100001 1.7365202e-38
0.0031456416 -0.0089417268 0.162 1.4332825e-38
0.0083437292 -0.0081427246 0.16166668 1.6078426e-38
0.0092157368 -0.0087569673 0.16100001 1.6719472e-38
0.010381813 -0.0085410262 0.16100001 1.6078063e-38
0.01566105 -0.0081595136 0.162 1.4798114e-38
0.0036444806 -0.007504514 0.16100001 1.3045329e-38
0.0077905315 -0.0077204541 0.16100001 1.7190527e-38
0.010381813 -0.007504514 0.16100001 1.5436655e-38
0.01566105 -0.0078987759 0.162 1.5353088e-38
0.007684357 -0.0064451685 0.16150001 1.6175297e-38
0.0077905315 -0.0057769925 0.16100001 1.4423942e-38
0.0082050273 -0.0055350009 0.16150001 1.4516138e-38
0.009375128 -0.0052750679 0.16150001 1.5067871e-38
0.010122685 -0.0052587367 0.16100001 1.5067511e-38
0.0086211329 -0.0042484486 0.162 1.424099e-38
0.0095771709 -0.0042484486 0.162 1.4240627e-38
0.0083603952 -0.0039877114 0.162 1.3965841e-38
0.010185559 -0.0021625478 0.162 1.2960332e-38
-0.008313966 0.030707818 0.16175 1.3371256e-38
-0.0077571599 0.030630512 0.16100001 1.32787e-38
0.0077905315 0.04863992 0.16100001 1.3280498e-38
-0.031564564 0.050583377 0.16100001 1.3279778e-38
-0.030819569 0.050972071 0.16100001 1.3555284e-38
0.032722842 -0.030421937 0.163 1.6963625e-38
0.033072636 -0.03024704 0.163 1.4106629e-38
0.032810289 -0.029984694 0.163 1.3369415e-38
0.0094613917 -0.018179072 0.163 2.3362597e-38
0.0078873085 -0.017392032 0.163 2.2716158e-38
0.018643543 -0.017785553 0.163 1.7280905e-38
0.0078873085 -0.016473817 0.163 2.1891438e-38
0.0078873085 -0.015555602 0.163 2.096733e-38
0.0081496555 -0.015162081 0.163 1.9680545e-38
0.004476795 -0.014243865 0.163 1.700183e-38
0.0081496555 -0.014375038 0.163 1.8754265e-38
0.003165059 -0.013719171 0.163 1.6174584e-38
0.0081496555 -0.013631721 0.163 1.792342e-38
0.0091990447 -0.012407435 0.163 1.9129879e-38
0.0082808286 -0.011358046 0.163 1.8750657e-38
0.0081496555 -0.010833352 0.163 1.7548154e-38
0.0023780174 -0.0092592696 0.163 1.4333548e-38
0.003165059 -0.0082098804 0.163 1.3229362e-38
0.0078873085 -0.0071604922 0.163 1.7560751e-38
0.0081496555 -0.007597737 0.163 1.7006139e-38
0.0078873085 -0.0067669717 0.163 1.719089e-38
0.0081496555 -0.0066357981 0.163 1.6822826e-38
0.0084120026 -0.0057613072 0.163 1.5160785e-38
0.0094613917 -0.0055864095 0.163 1.5159706e-38
0.0086743496 -0.0040123267 0.163 1.3965841e-38
0.0084120026 -0.0033564589 0.163 1.3136805e-38
0.010641953 -0.0021758967 0.163 1.3052528e-38
0.038844276 0.0038580874 0.163 1.3182847e-38
-0.0076786238 0.030704945 0.163 1.309431e-38
-0.0091652572 0.031142188 0.163 1.3647483e-38
-0.014936895 0.033240966 0.163 1.3094309e-38
-0.025430782 0.036913827 0.163 1.3095388e-38
-0.021495575 0.038619079 0.163 1.3280138e-38
-0.020970881 0.038750254 0.163 1.383295e-38
-0.020621084 0.039537292 0.163 1.3831148e-38
-0.019659145 0.039537296 0.163 1.3555283e-38
-0.018609757 0.039537292 0.163 1.3370893e-38
-0.019659145 0.040586684 0.163 1.3739317e-38
-0.019659145 0.04111138 0.163 1.3555287e-38
0.033275537 -0.031224474 0.164 1.889902e-38
0.033275537 -0.030960517 0.164 1.8161454e-38
0.023377161 -0.019214449 0.164 1.2994084e-38
0.023597123 -0.018642543 0.164 1.2994438e-38
0.0038443683 -0.014199274 0.164 1.5897633e-38
0.00292052 -0.013275425 0.164 1.6082389e-38
0.0087275673 -0.013011468 0.164 1.811249e-38
0.0089915236 -0.01274751 0.164 1.8851853e-38
0.01004735 -0.01274751 0.164 1.7372048e-38
0.008859545 -0.011559706 0.164 1.8755336e-38
0.0095194373 -0.011691684 0.164 1.8200006e-38
0.00846361 -0.010899815 0.164 1.8931088e-38
0.0018646934 -0.0093160747 0.164 1.3780375e-38
0.0097833937 -0.0090521183 0.164 1.6812747e-38
0.0096074231 -0.0084362188 0.164 1.6449005e-38
0.00846361 -0.0072044218 0.164 1.756147e-38
0.00846361 -0.0066765086 0.164 1.7006857e-38
0.0087275673 -0.0058846385 0.164 1.5437372e-38
0.0089915236 -0.004036942 0.164 1.3689254e-38
0.0095194373 -0.004036942 0.164 1.3780729e-38
-0.0076377462 0.030541375 0.164 1.3002113e-38
-0.0092214858 0.031597205 0.164 1.4200654e-38
-0.0073737893 0.03106929 0.164 1.355529e-38
-0.015398072 0.033603273 0.164 1.3093949e-38
-0.014764576 0.033576876 0.164 1.3094309e-38
-0.01687623 0.03582051 0.164 1.3187583e-38
-0.019357422 0.036506794 0.164 1.3185786e-38
-0.010805226 0.036876336 0.164 1.3187586e-38
-0.018547956 0.03740425 0.16400002 1.3278699e-38
-0.018547954 0.038328096 0.16400002 1.3002472e-38
0.031752259 -0.023713451 0.16500001 1.4289235e-38
0.0082496507 -0.017074298 0.16500001 2.2626842e-38
0.0083558774 -0.016490052 0.16500001 2.2169461e-38
0.0084488252 -0.015547292 0.16500001 2.0050047e-38
0.0085152173 -0.014684203 0.16500001 1.8939017e-38
0.0024071957 -0.013356373 0.16500001 1.6176385e-38
0.010639747 -0.013090805 0.16500001 1.8383682e-38
0.0093119154 -0.012825239 0.16500001 1.912916e-38
0.0098430477 -0.011497409 0.16500001 1.7918741e-38
0.0090463497 -0.010435144 0.16500001 1.8101685e-38
0.0029383281 -0.0088417474 0.16500001 1.3964766e-38
0.009577482 -0.0080450494 0.16500001 1.719089e-38
0.009577482 -0.0075139171 0.16500001 1.7104094e-38
0.01037418 -0.0027337272 0.16500001 1.2956372e-38
-0.0092777153 0.030993169 0.16500001 1.3002113e-38
-0.021360975 0.031789869 0.16500001 1.3555284e-38
-0.0098088477 0.031258736 0.16500001 1.3279779e-38
-0.021360977 0.032586571 0.16500001 1.3463089e-38
-0.019900361 0.032586567 0.16500001 1.3278697e-38
-0.016315218 0.032852132 0.16500001 1.3740396e-38
-0.015474259 0.032852132 0.16500001 1.3278699e-38
-0.00524111 0.032745905 0.16500001 1.327834e-38
-0.02414942 0.033914395 0.16500001 1.300211e-38
-0.023618286 0.033914395 0.16500001 1.3094306e-38
-0.021228192 0.033383265 0.16500001 1.3094306e-38
-0.01850614 0.033848003 0.16500001 1.364784e-38
-0.017775832 0.033914395 0.16500001 1.383295e-38
-0.016372124 0.033610892 0.16500001 1.3370534e-38
-0.01551852 0.033383265 0.16500001 1.327834e-38
-0.014589038 0.03364883 0.16500001 1.3278701e-38
-0.00516144 0.033516049 0.16500001 1.3186504e-38
-0.023618285 0.034622572 0.16500001 1.300211e-38
-0.021493759 0.034622572 0.16500001 1.3002112e-38
-0.01941349 0.034755353 0.16500001 1.3371256e-38
-0.018484008 0.034622572 0.16500001 1.3556365e-38
-0.017510265 0.034622572 0.16500001 1.3279778e-38
-0.015485324 0.034677897 0.16500001 1.3002473e-38
-0.014411994 0.034622572 0.16500001 1.3279059e-38
-0.013703817 0.034888137 0.16500001 1.3463451e-38
-0.012597293 0.034976661 0.16500001 1.3187583e-38
-0.018484009 0.035242226 0.16500001 1.3094669e-38
-0.016448 0.03537501 0.16500001 1.3187583e-38
-0.015474259 0.03537501 0.16500001 1.3279779e-38
-0.014411993 0.03537501 0.16500001 1.3002832e-38
-0.013659556 0.03537501 0.16500001 1.3094309e-38
-0.012597293 0.03537501 0.16500001 1.3095389e-38
-0.011402245 0.03537501 0.16500001 1.3279782e-38
-0.01033998 0.035507794 0.16500001 1.3187586e-38
-0.002638561 0.03537501 0.16500001 1.32787e-38
-0.019811839 0.036127448 0.16500001 1.309359e-38
-0.015418933 0.036304489 0.16500001 1.3555287e-38
-0.014544777 0.036215965 0.16500001 1.3094668e-38
-0.012597293 0.036304493 0.16499999 1.3003194e-38
-0.011402245 0.036304493 0.16500001 1.3187586e-38
-0.01033998 0.036304493 0.16500001 1.3095391e-38
-0.0036123034 0.036304493 0.16500001 1.3830792e-38
-0.0026385612 0.036304493 0.16500001 1.4568354e-38
-0.0015762965 0.036304493 0.16500001 1.3278339e-38
-0.020165928 0.037101191 0.16500001 1.32787e-38
-0.015385737 0.037167583 0.16500001 1.3003192e-38
0.010437054 -0.019181594 0.16600001 2.2620713e-38
0.0087449411 -0.016643427 0.16600001 2.2536802e-38
0.0088339997 -0.015574726 0.16600001 2.0141161e-38
0.0091011757 -0.015841901 0.16600001 2.1340063e-38
0.0086558824 -0.014506022 0.16600001 1.8661352e-38
0.0085668247 -0.013704496 0.16600001 1.7923779e-38
0.0024217849 -0.0091625098 0.16600001 1.4149157e-38
-0.023293871 0.029511161 0.16600001 1.3187583e-38
-0.020688906 0.029177193 0.16600001 1.3831155e-38
-0.02362784 0.030112306 0.16600001 1.3279779e-38
-0.021891199 0.03171536 0.16600001 1.3093587e-38
-0.010135471 0.03171536 0.16600001 1.3740397e-38
-0.0098682949 0.031982534 0.16600001 1.4292852e-38
-0.017171096 0.032695007 0.16600001 1.3096108e-38
-0.016369568 0.032784063 0.16600001 1.346417e-38
-0.015612571 0.032784063 0.16600001 1.3279779e-38
-0.009734707 0.032516886 0.16600001 1.4384682e-38
-0.0057270722 0.032650474 0.16600001 1.3829354e-38
-0.0045247823 0.032784063 0.16600001 1.3094309e-38
-0.0037232554 0.032784063 0.16600001 1.3002113e-38
-0.024562955 0.033719178 0.16600001 1.300211e-38
-0.022514608 0.033496529 0.16600001 1.3370893e-38
-0.02180214 0.033763703 0.16600001 1.3554925e-38
-0.0193085 0.033763703 0.16600001 1.3186504e-38
-0.018417915 0.033763707 0.16600001 1.3002832e-38
-0.017425548 0.03354742 0.16600001 1.3187944e-38
-0.014677456 0.033318412 0.16600001 1.3002113e-38
-0.013875929 0.033051237 0.16600001 1.3371972e-38
-0.012094758 0.033763703 0.16600001 1.4199212e-38
-0.011560407 0.033763707 0.16600001 1.3646399e-38
-0.0073301261 0.033852763 0.16600001 1.4015545e-38
-0.0064284084 0.033552192 0.16600001 1.3461651e-38
-0.0045247823 0.033496529 0.16600001 1.3370896e-38
-0.023227077 0.034119941 0.16600001 1.300211e-38
-0.022514606 0.034119941 0.16600001 1.3370893e-38
-0.021534964 0.034119941 0.16600001 1.3185783e-38
-0.02044845 0.034440551 0.16600001 1.3002472e-38
-0.019620206 0.03425353 0.16600001 1.3647483e-38
-0.017215624 0.034119941 0.16600001 1.3002113e-38
-0.013417915 0.03461612 0.16600001 1.3924068e-38
-0.012272876 0.034476176 0.16600001 1.346273e-38
-0.01147135 0.034476172 0.16600001 1.327906e-38
-0.010714351 0.034609761 0.16600001 1.3095032e-38
-0.008532417 0.034654289 0.16600001 1.327906e-38
-0.0075527728 0.034476176 0.16600001 1.3371256e-38
-0.0064840703 0.034476172 0.16600001 1.3002833e-38
-0.0015324147 0.034547418 0.16600001 1.3001396e-38
-0.00038355947 0.034453906 0.16600001 1.3186865e-38
-0.012005701 0.035188641 0.16600001 1.3187583e-38
-0.01147135 0.035188641 0.16600001 1.327978e-38
-0.010580763 0.03532223 0.16600001 1.3187586e-38
-0.008532417 0.035544876 0.16600001 1.3095391e-38
-0.016213715 0.036524519 0.16600001 1.3094309e-38
-0.014677456 0.036791697 0.16600001 1.3094309e-38
0.03200274 -0.024269672 0.16700001 1.7423889e-38
0.0091560027 -0.016474904 0.16700001 2.2169098e-38
0.0091560027 -0.015534156 0.16700001 1.9864574e-38
0.0091560027 -0.014727801 0.16700001 1.847804e-38
0.0099623576 -0.011099202 0.16700001 1.8105648e-38
0.001764411 -0.0092177056 0.16700001 1.3597065e-38
0.0018988034 -0.0084113497 0.16700001 1.2953497e-38
0.0021675886 -0.0085457424 0.16700001 1.3045332e-38
0.0091560027 -0.005992284 0.16700001 1.5806155e-38
-0.023635784 0.028680993 0.16700001 1.346309e-38
-0.024173355 0.029487349 0.16700001 1.3187583e-38
-0.023904569 0.029352956 0.16700001 1.3279779e-38
-0.024307746 0.030024918 0.16700001 1.3279779e-38
-0.0076430691 0.030696882 0.16700001 1.3001394e-38
-0.0069711059 0.030831274 0.16700001 1.346237e-38
-0.021754287 0.031906415 0.16700001 1.3739675e-38
-0.012615594 0.031798899 0.16700001 1.3002116e-38
-0.011473257 0.031839218 0.16700001 1.3094312e-38
-0.010532509 0.031570435 0.16700001 1.327942e-38
-0.006735919 0.031671226 0.16700003 1.3739678e-38
-0.0058959657 0.031906415 0.16700001 1.4107739e-38
-0.0040144697 0.031637628 0.16700001 1.300211e-38
-0.025248494 0.032981556 0.16700001 1.4108458e-38
-0.016647369 0.032578379 0.16700001 1.346381e-38
-0.015495433 0.032559179 0.16700003 1.3370896e-38
-0.013153165 0.032712769 0.16700001 1.3187583e-38
-0.01234681 0.032605257 0.16700001 1.373968e-38
-0.011540454 0.032712772 0.16700003 1.4015546e-38
-0.010554907 0.032802366 0.16700001 1.3923348e-38
-0.0096589578 0.032981556 0.16700001 1.401482e-38
-0.0054479898 0.032623176 0.16700001 1.3830433e-38
-0.0045520398 0.032712769 0.16700001 1.3094306e-38
-0.0025809489 0.032712772 0.16700003 1.3370537e-38
-0.0015954032 0.032712769 0.16700003 1.3463453e-38
-0.025248494 0.033250339 0.16700001 1.4477596e-38
-0.014362697 0.03378791 0.16700001 1.3186503e-38
-0.012346809 0.033519126 0.16700001 1.4660551e-38
-0.011486696 0.033465367 0.16700001 1.3830791e-38
-0.01051907 0.033465367 0.16700001 1.3093227e-38
-0.0096589578 0.033250339 0.16700001 1.3369451e-38
-0.0075086765 0.03378791 0.16700001 1.4659834e-38
-0.0032081141 0.033250339 0.16700001 1.3094309e-38
-0.0025809489 0.033519123 0.16700001 1.3554565e-38
-0.0015954032 0.033519123 0.16700001 1.4015543e-38
-0.00052026263 0.033519123 0.16700001 1.3093949e-38
-0.020141577 0.03432548 0.16700001 1.32787e-38
-0.014317899 0.03414629 0.16700001 1.3646762e-38
-0.013583221 0.034217965 0.16700001 1.4476161e-38
-0.012884379 0.034056693 0.16700001 1.4384682e-38
-0.0085838167 0.03432548 0.16700001 1.3186504e-38
-0.0016625995 0.03412389 0.16700001 1.3277981e-38
-0.00058745896 0.03412389 0.16700001 1.3554568e-38
-0.014497089 0.03701333 0.16700001 1.3002113e-38
0.0087376386 -0.017452337 0.16800001 2.2994901e-38
0.0089404341 -0.014275202 0.16800001 1.8478396e-38
0.0092108287 -0.014275202 0.16800001 1.8478036e-38
0.0089404341 -0.013599215 0.16800001 1.8019216e-38
0.0094812233 -0.013464018 0.16800001 1.7651153e-38
0.010022013 -0.013328821 0.16800001 1.7370609e-38
0.0089404341 -0.011165664 0.16800001 1.8657382e-38
0.0093910918 -0.011345927 0.16800003 1.8105649e-38
0.0089404341 -0.010895269 0.16800001 1.8472268e-38
0.0092108287 -0.010895269 0.16800001 1.801129e-38
0.010292407 -0.010895269 0.16800001 1.8844295e-38
0.0088052368 -0.0081913229 0.16800001 1.6081663e-38
0.0088503025 -0.0077406652 0.16800003 1.7007938e-38
-0.022290146 0.016820177 0.16800001 1.3737878e-38
-0.021614159 0.016955374 0.16800001 1.4567638e-38
-0.022245079 0.017406031 0.16800003 1.5027535e-38
-0.021478962 0.017496163 0.16800001 1.5396313e-38
-0.022154948 0.018036952 0.16800001 1.5120086e-38
-0.021614159 0.018036952 0.16800001 1.5118647e-38
-0.011609558 0.026959974 0.16800001 1.4659834e-38
-0.01224048 0.027590895 0.16800003 1.4199937e-38
-0.011609558 0.027500764 0.16800001 1.4015545e-38
-0.0076888357 0.027500764 0.16800001 1.3370898e-38
-0.012150347 0.028402081 0.16800003 1.4015905e-38
-0.011372963 0.028447146 0.168 1.3924068e-38
-0.01052798 0.028582342 0.16800001 1.4384686e-38
-0.0097167958 0.028582342 0.168 1.4200295e-38
-0.0088154804 0.028582342 0.16800003 1.4292848e-38
-0.0075536384 0.028041553 0.16800001 1.3831874e-38
-0.0013345618 0.028852737 0.16800003 1.3279422e-38
-0.00052337802 0.028852737 0.16800001 1.3279782e-38
0.00022020725 0.02871754 0.16800001 1.3187586e-38
-0.024498368 0.029393526 0.16800003 1.3187225e-38
-0.012217946 0.029461125 0.16800001 1.4476524e-38
-0.011339162 0.029393524 0.168 1.4568717e-38
-0.01052798 0.029393524 0.168 1.4844585e-38
-0.0097167958 0.029393524 0.168 1.4752387e-38
-0.0086352164 0.029393524 0.168 1.4936777e-38
-0.0076212371 0.029596321 0.16800001 1.4475798e-38
-0.0021457458 0.029528722 0.16800001 1.3646761e-38
-0.0013345618 0.029393524 0.168 1.3555288e-38
-0.00052337802 0.029393524 0.168 1.3372335e-38
0.00028780592 0.029393524 0.168 1.3188304e-38
-0.013231925 0.030745499 0.16800001 1.4016265e-38
-0.012420742 0.030475106 0.168 1.3555287e-38
-0.011339162 0.030475106 0.168 1.3463093e-38
-0.01052798 0.030475104 0.168 1.3370537e-38
-0.0086352173 0.03033991 0.168 1.3277981e-38
-0.0073643615 0.030421028 0.168 1.3461291e-38
-0.00647206 0.030610301 0.16800001 1.3092508e-38
-0.0034436397 0.030637342 0.16800001 1.3187223e-38
-0.0023620615 0.030366948 0.16800001 1.327906e-38
-0.022154948 0.031466551 0.16800003 1.3277978e-38
-0.021421019 0.031479426 0.168 1.4845298e-38
-0.019451002 0.031691879 0.16800001 1.2999589e-38
-0.016296396 0.031736944 0.16800003 1.3738957e-38
-0.015557319 0.031718917 0.16800001 1.3555286e-38
-0.014854292 0.031827077 0.16800001 1.3187583e-38
-0.013367122 0.031015893 0.16800001 1.3647483e-38
-0.012386942 0.031421486 0.168 1.309431e-38
-0.01052798 0.031015893 0.16800001 1.3002113e-38
-0.0063098231 0.031394444 0.16800001 1.3647121e-38
-0.0059312708 0.031691879 0.16800001 1.3924067e-38
-0.0036329161 0.031015893 0.16800001 1.3002473e-38
-0.021478962 0.032097474 0.16800001 1.364712e-38
-0.01701745 0.032097474 0.16800001 1.3185786e-38
-0.016341463 0.032097474 0.16800001 1.3831152e-38
-0.015485213 0.032097474 0.16800003 1.364748e-38
-0.014854292 0.032097474 0.16800001 1.3094309e-38
-0.0054806131 0.032458 0.16800003 1.3738957e-38
-0.014043109 0.033990234 0.16800001 1.4108458e-38
-0.013579575 0.033603955 0.168 1.4016981e-38
-0.0083648227 0.033990234 0.16800001 1.3276899e-38
-0.0078240326 0.033990234 0.16800001 1.4291051e-38
-0.013772714 0.034260631 0.16800001 1.4753108e-38
-0.0083648227 0.034260631 0.16800001 1.3185786e-38
0.033746026 -0.032176442 0.16900001 2.0097208e-38
0.034652706 -0.032403111 0.16900001 1.8622071e-38
0.035486855 -0.032285243 0.16900001 1.5765796e-38
0.034698039 -0.031632431 0.16900001 1.4106987e-38
0.0085103875 -0.018428827 0.16942859 2.2992743e-38
0.0091152713 -0.018480945 0.17 2.3270408e-38
0.010141322 -0.018686155 0.17 2.1793113e-38
0.0095803887 -0.017292619 0.16975001 2.2256253e-38
0.0092656547 -0.016944213 0.16900001 2.2628634e-38
0.0096476758 -0.014342894 0.16933334 1.7553922e-38
0.0015588716 -0.013408159 0.16900001 1.590124e-38
0.010141322 -0.013761111 0.17 1.7461726e-38
0.0098677091 -0.011024974 0.17 1.8104209e-38
0.0095940959 -0.010614553 0.17 1.7917657e-38
0.001112073 -0.0088360654 0.17 1.3046049e-38
-0.02323954 0.017157223 0.17 1.3554565e-38
-0.022830833 0.017872311 0.16900001 1.3554565e-38
-0.022830833 0.018144315 0.16900001 1.3738957e-38
-0.029259037 0.020440586 0.17 1.3371972e-38
-0.0076435623 0.024818404 0.17 1.4936421e-38
-0.02022979 0.025776051 0.17 1.410666e-38
-0.019573117 0.025803411 0.17 1.3923348e-38
-0.018040881 0.025912857 0.17 1.3923348e-38
-0.017630462 0.025776051 0.17 1.4015543e-38
-0.016946426 0.025912857 0.17 1.4107739e-38
-0.0075067561 0.025639245 0.17 1.4752029e-38
-0.0067132763 0.025693964 0.17 1.4567638e-38
-0.0036305627 0.02582165 0.17 1.3923348e-38
-0.0025817109 0.025776047 0.16999999 1.3645682e-38
-0.0014872563 0.025776051 0.17 1.3554565e-38
-0.020320995 0.026551291 0.17 1.3738596e-38
-0.019500153 0.026460083 0.17 1.3831152e-38
-0.018496903 0.026460087 0.17 1.4015543e-38
-0.017630462 0.026460085 0.17 1.3923348e-38
-0.016946426 0.026460085 0.17 1.4107739e-38
-0.013038683 0.026848445 0.16900001 1.3462372e-38
-0.012404006 0.026757777 0.16900001 1.4475804e-38
-0.011814664 0.026712444 0.16900001 1.5028616e-38
-0.0084644035 0.0267337 0.17 1.3554571e-38
-0.0076323217 0.026557175 0.16974999 1.3830436e-38
-0.0065491083 0.026460087 0.17 1.3830795e-38
-0.0035902387 0.026537757 0.16980001 1.4015185e-38
-0.0027918941 0.026531959 0.1697143 1.392299e-38
-0.020366598 0.027144119 0.17 1.3370174e-38
-0.019500153 0.027144119 0.17 1.3093227e-38
-0.018468879 0.027400114 0.16981818 1.3554205e-38
-0.01767393 0.027374575 0.16985714 1.3831514e-38
-0.016590729 0.027335649 0.16999999 1.3831874e-38
-0.015487154 0.027463337 0.17 1.3738959e-38
-0.013428742 0.027303556 0.16980001 1.3462371e-38
-0.012585342 0.027211117 0.16900001 1.3922989e-38
-0.011326366 0.027435785 0.16983335 1.4199216e-38
-0.010543866 0.027445097 0.17 1.392299e-38
-0.0094703976 0.027783692 0.16940001 1.3554928e-38
-0.0085221455 0.027445676 0.16933334 1.3462734e-38
-0.0075986004 0.027120449 0.16900001 1.3094312e-38
-0.0063302168 0.027062034 0.17 1.3185787e-38
-0.0054546534 0.027280927 0.17 1.3002116e-38
-0.003665755 0.02706388 0.16950001 1.3093951e-38
-0.0024305221 0.027483119 0.16900001 1.3462734e-38
-0.0015416249 0.027396608 0.16918182 1.3462014e-38
-0.00068259926 0.027415147 0.16914287 1.3554568e-38
-0.02473486 0.02848047 0.16900001 1.3463089e-38
-0.019625477 0.028564733 0.16950001 1.3277978e-38
-0.017630462 0.028101768 0.17 1.3555284e-38
-0.016536007 0.028238578 0.16999999 1.3647483e-38
-0.015578358 0.028238576 0.17 1.3647122e-38
-0.013115834 0.028238576 0.17 1.3370177e-38
-0.012766679 0.028344467 0.16900001 1.3831155e-38
-0.011134654 0.028208466 0.16900001 1.3739678e-38
-0.010615712 0.028165787 0.16940001 1.3924069e-38
-0.0095026288 0.028299132 0.16900001 1.3739678e-38
-0.0051505631 0.02848047 0.16900001 1.3923348e-38
-0.0043345508 0.028344467 0.16900001 1.3555647e-38
-0.0033825366 0.028344467 0.16900001 1.3370537e-38
-0.0026118581 0.028344467 0.16900001 1.309431e-38
-0.0016145097 0.028344467 0.16900001 1.3002115e-38
-0.00058089418 0.028317267 0.16900001 1.3002116e-38
0.00056152319 0.028344467 0.16900001 1.3002476e-38
-0.025387671 0.029350882 0.16900001 1.3002832e-38
-0.024644194 0.029115146 0.16900001 1.32787e-38
-0.019566782 0.02938715 0.16900001 1.3738958e-38
-0.0082332762 0.029115146 0.16900001 1.4568713e-38
-0.0073265964 0.029326707 0.16900001 1.4568353e-38
-0.0064072846 0.02958457 0.169875 1.4475798e-38
-0.0052969921 0.029354803 0.16933334 1.4475798e-38
-0.0043098233 0.029395396 0.16900001 1.4291409e-38
-0.0033825366 0.029432487 0.16900001 1.4014822e-38
-0.0027025265 0.029378086 0.16900001 1.3831151e-38
-0.01344669 0.030792505 0.16900001 1.4016265e-38
-0.0065294439 0.030337587 0.16950001 1.3369454e-38
-0.0057047307 0.030534023 0.16933334 1.3646762e-38
-0.004439116 0.030564794 0.16950001 1.3277981e-38
-0.0033825366 0.030384498 0.16900001 1.3463091e-38
-0.0029745302 0.030384498 0.16900001 1.3463091e-38
-0.02022979 0.031932358 0.17 1.35524e-38
-0.0060018809 0.031658743 0.17 1.3831152e-38
-0.0054475926 0.031676542 0.16980001 1.346309e-38
-0.021198807 0.032379195 0.16900001 1.300175e-38
-0.005430589 0.032131888 0.16925001 1.364748e-38
-0.02022979 0.033026811 0.17 1.3093587e-38
-0.019838786 0.033104539 0.16900001 1.300211e-38
-0.0076218862 0.033748098 0.16950001 1.5212645e-38
0.03249405 -0.024850981 0.171 1.8161454e-38
0.0093294373 -0.019530004 0.171 2.2807985e-38
0.0095404424 -0.018465806 0.171 2.3455158e-38
0.0097881425 -0.017695181 0.171 2.2899823e-38
-0.023651466 0.017808594 0.171 1.3646761e-38
-0.025027581 0.023863502 0.171 1.4198133e-38
-0.0042482363 0.023863502 0.171 1.3830073e-38
-0.0032161493 0.023794696 0.171 1.3737878e-38
-0.0022941518 0.023643324 0.171 1.4567278e-38
-0.0017987503 0.023643322 0.171 1.465983e-38
-0.00034924192 0.023771761 0.171 1.3737517e-38
0.000607486 0.023666915 0.171 1.3184704e-38
0.0013938377 0.023863502 0.171 1.3001394e-38
-0.0085141929 0.024964394 0.171 1.5120812e-38
-0.0060371864 0.024964394 0.171 1.4383247e-38
-0.0055968286 0.024744216 0.171 1.4199214e-38
-0.0045234584 0.02468917 0.171 1.4014823e-38
-0.0032849554 0.02468917 0.171 1.3461651e-38
-0.0023216743 0.02468917 0.171 1.3645682e-38
-0.0015992135 0.024723573 0.171 1.4014464e-38
-0.00045408885 0.024728488 0.171 1.3185065e-38
-0.0094316043 0.025698321 0.171 1.5028616e-38
-0.0085141947 0.025652451 0.171 1.5120452e-38
-0.0061747981 0.025652451 0.171 1.4199935e-38
-0.0054867398 0.025514839 0.171 1.4107739e-38
-0.0044644824 0.025632793 0.171 1.4015543e-38
-0.0032849552 0.025514839 0.171 1.3554565e-38
-0.0023216743 0.025514839 0.171 1.346237e-38
-0.001427199 0.025583645 0.171 1.3462371e-38
-0.00053272402 0.025514839 0.171 1.3185425e-38
-0.020899234 0.026202898 0.171 1.3830073e-38
-0.0093398634 0.026202898 0.171 1.4844225e-38
-0.0086059347 0.026294639 0.171 1.4567998e-38
-0.0061059925 0.026340509 0.171 1.4014825e-38
-0.0057619638 0.026432252 0.171 1.3738958e-38
-0.0043858476 0.026432252 0.171 1.4015185e-38
-0.01429388 0.027716625 0.171 1.3738957e-38
-0.011266425 0.027166178 0.171 1.4659834e-38
-0.0095233452 0.027624885 0.171 1.3646043e-38
-0.0087894173 0.027166178 0.171 1.337018e-38
-0.0057619633 0.027166178 0.171 1.3185786e-38
-0.0043858476 0.027166178 0.171 1.3001394e-38
-0.013743433 0.028404683 0.171 1.3185783e-38
-0.0063124094 0.02991841 0.171 1.4291407e-38
-0.0061289272 0.030377114 0.171 1.3739314e-38
-0.005670222 0.030560596 0.171 1.3646761e-38
-0.0049362937 0.030744078 0.171 1.3554568e-38
-0.0056243511 0.031156912 0.171 1.3554565e-38
-0.0049362937 0.031019302 0.171 1.3185786e-38
-0.0082389703 0.033771534 0.171 1.530448e-38
-0.0085141938 0.034046754 0.171 1.4288889e-38
0.034345068 -0.026103638 0.17200001 2.0004645e-38
0.033376157 -0.025273141 0.17200001 1.7884868e-38
0.034621902 -0.025273141 0.17200001 1.3829336e-38
0.033376157 -0.024996309 0.17200001 1.6040954e-38
0.0099837985 -0.018352328 0.17200001 2.2716514e-38
0.010260631 -0.017798662 0.17200001 2.1424333e-38
-0.025727605 0.022618892 0.17200001 1.346237e-38
-0.026188994 0.024741275 0.17200001 1.502789e-38
-0.025616873 0.024612086 0.17200001 1.4659468e-38
-0.024804831 0.024741275 0.17200001 1.3183979e-38
-0.0055880342 0.025871674 0.17200001 1.4107739e-38
-0.0099481484 0.026356131 0.17200001 1.4936421e-38
-0.004965161 0.026217714 0.17200001 1.4199935e-38
-0.01022498 0.027601879 0.17200001 1.4014467e-38
-0.0095790373 0.027140491 0.17200001 1.410666e-38
-0.0053804098 0.027325047 0.17200001 1.309395e-38
-0.004965161 0.027463462 0.17200001 1.3002115e-38
-0.014654302 0.028155545 0.17200001 1.3738957e-38
-0.021021452 0.033692196 0.17200001 1.3093587e-38
-0.008840818 0.033969026 0.17200001 1.4567991e-38
0.033848643 -0.026255405 0.17300001 1.9913169e-38
0.03482319 -0.026255405 0.17300001 1.9544386e-38
0.035380073 -0.026366781 0.17300001 1.8899018e-38
0.032781284 -0.025512891 0.17300002 1.9267801e-38
0.033709422 -0.02569852 0.17300002 1.8806824e-38
0.034544751 -0.02569852 0.17300001 1.742425e-38
0.010320286 -0.018459028 0.17300001 2.1424333e-38
-0.030053815 0.011519901 0.17300002 1.346237e-38
-0.030378662 0.012308821 0.17299999 1.337053e-38
-0.030332258 0.013283368 0.17299999 1.3001029e-38
-0.024206532 0.018295323 0.17300001 1.3831152e-38
-0.026294846 0.025256375 0.17300001 1.4105934e-38
-0.025459522 0.025256375 0.17300001 1.3829347e-38
-0.02504186 0.026648585 0.17300001 1.3831508e-38
-0.0052724699 0.026509363 0.17300001 1.4107739e-38
-0.0049940282 0.026648585 0.17300001 1.4199935e-38
-0.02504186 0.027205469 0.17300001 1.3739312e-38
-0.024276143 0.027483912 0.17300001 1.3831149e-38
-0.023788869 0.027623132 0.17300001 1.3647118e-38
-0.010191615 0.027391098 0.17300002 1.4291053e-38
-0.0052724699 0.027205469 0.17300001 1.3462372e-38
-0.0049940282 0.027205469 0.17300001 1.3646764e-38
-0.014739501 0.028597679 0.17300001 1.3831152e-38
-0.021422112 0.032774311 0.17300001 1.382935e-38
-0.009449102 0.034166522 0.17300001 1.4292483e-38
0.035864636 -0.02668722 0.17400001 1.9083408e-38
0.010473292 -0.018845778 0.17400001 2.1517608e-38
-0.031067692 0.011959893 0.17400001 1.3463089e-38
-0.030507589 0.011819867 0.17400001 1.3646761e-38
-0.024766531 0.018401079 0.17400001 1.4291051e-38
-0.026166789 0.025962468 0.17400001 1.3000667e-38
-0.024066404 0.027362728 0.17400001 1.3738957e-38
-0.023646325 0.027502753 0.17400001 1.3646761e-38
-0.010903979 0.027642779 0.17400001 1.4567638e-38
-0.025331359 0.018506831 0.17500001 1.410666e-38
-0.02709174 0.019563058 0.17500001 1.4383607e-38
-0.026598834 0.01956306 0.17500001 1.4290691e-38
-0.026739664 0.020196797 0.17500001 1.4383247e-38
-0.026176343 0.02653417 0.17500001 1.3093583e-38
-0.025824267 0.026463754 0.17500001 1.3462007e-38
-0.025613021 0.027238322 0.17500001 1.3646761e-38
-0.023641393 0.027519984 0.17500001 1.3646761e-38
-0.015191562 0.029209949 0.17500001 1.3646761e-38
0.035993602 -0.027277239 0.17600001 1.9451472e-38
0.03648299 -0.027432226 0.177 1.9359276e-38
0.036276869 -0.026710698 0.17600001 1.7885947e-38
-0.026190622 0.018718338 0.177 1.3554565e-38
-0.025617745 0.018612584 0.17600001 1.3922269e-38
-0.026609194 0.020028936 0.17600001 1.4474364e-38
-0.025905741 0.020142738 0.177 1.3276176e-38
-0.02519284 0.027393973 0.17600001 1.3923348e-38
-0.026911572 0.018824091 0.178 1.3738957e-38
-0.026223993 0.019683558 0.178 1.3461289e-38
-0.0005576468 -0.0090157595 0.17900001 1.3507028e-38
-0.02720681 0.019506041 0.17900001 1.4107379e-38
-0.025382182 0.02747678 0.17900001 1.3739315e-38
-0.0034578475 -0.0093558347 0.18000001 1.3966924e-38
-0.0024438675 -0.0093558347 0.18000001 1.3874368e-38
-0.0012850335 -0.0093558347 0.18000001 1.369034e-38
-0.0034770574 -0.0092621529 0.18100001 1.3967643e-38
-0.0024088915 -0.0091164941 0.18100001 1.3506666e-38
-0.0015834905 -0.0091164941 0.18100001 1.3321557e-38
-0.00085519551 -0.0088251755 0.18100001 1.3507028e-38
-0.025908545 0.027298255 0.18100001 1.346237e-38
-0.0042285873 -0.009166861 0.18200001 1.4336062e-38
-0.0037891958 -0.009166861 0.18200001 1.4152394e-38
-0.0026174851 -0.0088739339 0.182 1.3415908e-38
-0.0015922391 -0.0088739339 0.18200001 1.2953854e-38
-0.0043990891 -0.0089226915 0.18300001 1.3968359e-38
-0.0036627469 -0.0089226915 0.18300001 1.3692495e-38
0.038666189 -0.027628675 0.18400002 1.3828609e-38
-0.0050154212 -0.0082310829 0.18400002 1.3416987e-38
-0.004423128 -0.008231082 0.18400002 1.3232596e-38
-0.0035416286 -0.0082950843 0.18433334 1.3232236e-38
-0.0026553003 -0.008409516 0.18466668 1.3323713e-38
-0.0044386177 -0.007815077 0.18466668 1.2956729e-38
-0.0035731089 -0.0081708683 0.186 1.314076e-38
-0.0032913445 -0.0082147978 0.18700001 1.314004e-38
-0.0030063607 -0.0082587274 0.18800001 1.314004e-38
0.038449425 -0.029494831 0.18900001 1.9174885e-38
0.039564803 -0.029444134 0.18900001 1.9359635e-38
0.040375989 -0.029393435 0.18900001 1.8345844e-38
0.039640851 -0.028911795 0.18900001 1.8253646e-38
0.040477384 -0.028835747 0.18900001 1.5303744e-38
-0.0024139639 -0.0083026569 0.18900001 1.3140043e-38
-0.0024905978 -0.0082523823 0.19500001 1.2955652e-38
0.044562012 -0.024154251 0.20200001 1.5028936e-38
0.045537364 -0.024479369 0.20200001 1.6595562e-38
0.044562012 -0.023666576 0.20200001 1.3462665e-38
0.045537367 -0.023504017 0.20200001 1.392222e-38
0.046416253 -0.024600554 0.20300001 1.6318978e-38
0.0472035 -0.025172871 0.20500001 1.7148742e-38
0.0472035 -0.024348006 0.20500001 1.4751996e-38
0.047997188 -0.025418459 0.20700002 1.6872155e-38
0.047997188 -0.024418965 0.20700002 1.4014064e-38
0.048630286 -0.024458287 0.20733334 1.4474675e-38
0.049233381 -0.02453693 0.208 1.456686e-38
0.057483524 -0.016392611 0.23800002 1.5120752e-38
0.05748352 -0.01572226 0.23800001 1.5765018e-38
0.064826369 -0.019240428 0.26200002 1.880718e-38
0.064756088 -0.018256491 0.26200002 1.862278e-38
0.064826369 -0.017694242 0.26200002 1.7700804e-38
0.065638192 -0.019384414 0.26300001 1.9268162e-38
0.066484779 -0.019384414 0.26300001 1.908413e-38
0.065638192 -0.018326173 0.26300001 1.8714976e-38
