# .PCD v0.7 - Point Cloud Data file format
VERSION 0.7
FIELDS x y z rgb
SIZE 4 4 4 4
TYPE F F F F
COUNT 1 1 1 1
WIDTH 755
HEIGHT 1
VIEWPOINT 0 0 0 1 0 0 0
POINTS 755
DATA ascii
0.030465443 0.048947614 0.15700001 1.3910304e-38
0.030786639 0.049005084 0.15800001 1.3818829e-38
0.031305104 0.049367882 0.16000001 1.4554591e-38
0.031744223 0.049298886 0.16125001 1.5477264e-38
0.032148581 0.049158175 0.16100001 1.5292146e-38
0.032285597 0.049506489 0.163 1.6306298e-38
0.033099566 0.049634237 0.164 1.5568737e-38
0.034087136 0.050484303 0.16800001 1.6214465e-38
0.034698039 0.050784804 0.16900001 1.5383988e-38
0.049160067 -0.017057717 0.215 1.4887078e-38
0.049160067 -0.016365634 0.215 1.4335341e-38
0.04639174 0.062791176 0.215 1.557054e-38
0.046161044 0.063454412 0.21499999 1.3175996e-38
0.037916262 -0.019222956 0.21600001 1.738032e-38
0.037742436 -0.018701479 0.21600001 1.7104451e-38
0.038263913 -0.018527655 0.21600001 1.7288481e-38
0.048519593 -0.017137054 0.21600001 1.5807953e-38
0.04846165 -0.016325871 0.21600001 1.5537841e-38
0.047418699 -0.015630571 0.21600001 1.3880483e-38
0.045912217 0.062822491 0.21600001 1.7045661e-38
0.045564566 0.063343957 0.21600001 1.6767636e-38
0.040187359 -0.023852326 0.21700001 1.9406098e-38
0.038441058 -0.01931195 0.21700001 1.738032e-38
0.038673896 -0.018846272 0.21700001 1.7288482e-38
0.038441058 -0.017914912 0.21700001 1.7197001e-38
0.039838098 -0.017914912 0.21700001 1.6549837e-38
0.048918851 -0.017565653 0.21700001 1.5160785e-38
0.048918851 -0.016168613 0.21700001 1.4800635e-38
0.045775514 -0.014073055 0.21700001 1.2954207e-38
0.045426253 -0.013374536 0.21700001 1.3507737e-38
0.046124775 -0.013199907 0.21700001 1.2956719e-38
0.046299405 0.062764078 0.21700001 1.6953109e-38
0.045426253 0.063462593 0.21700001 1.6952746e-38
0.044727735 0.064685002 0.21700001 1.6121553e-38
0.045076992 0.064685002 0.21700001 1.538471e-38
0.041817237 0.068235807 0.21700001 1.3081991e-38
0.038969077 -0.019400945 0.21800001 1.7841654e-38
0.039319947 -0.019050077 0.21800001 1.793385e-38
0.039319947 -0.018699206 0.21800001 1.7750178e-38
0.040021684 -0.018699206 0.21800001 1.6919695e-38
0.038969077 -0.0176466 0.21800001 1.7565784e-38
0.039319947 -0.017822035 0.21800001 1.7473948e-38
0.040372554 -0.017716775 0.21800001 1.7102287e-38
0.047389939 -0.0176466 0.21800001 1.5620324e-38
0.048208635 -0.017529642 0.21800001 1.5528849e-38
0.049846023 -0.0176466 0.21800001 1.5071467e-38
0.048091676 -0.015541385 0.21800001 1.5262335e-38
0.045460157 -0.013085301 0.21800001 1.4151668e-38
0.046688199 -0.013260735 0.21800001 1.2953487e-38
0.063880794 0.048667673 0.21800001 1.4286256e-38
0.061600141 0.049544845 0.21800001 1.5947201e-38
0.062652752 0.04936941 0.21800001 1.5578423e-38
0.059670363 0.050772887 0.21800001 1.4747601e-38
0.060372099 0.050597452 0.21800001 1.5208917e-38
0.061424714 0.050597448 0.21800001 1.493269e-38
0.058442321 0.051825494 0.21800001 1.4192274e-38
0.059494928 0.051474623 0.21800001 1.5391162e-38
0.060372103 0.051474623 0.21800001 1.5024169e-38
0.05779906 0.052761149 0.21800001 1.501808e-38
0.058442313 0.052527234 0.21800001 1.5479411e-38
0.059494928 0.052527234 0.21800001 1.5847829e-38
0.056600258 0.053842995 0.21800001 1.4190489e-38
0.057740584 0.053755276 0.21800001 1.5292872e-38
0.058442317 0.053755276 0.21800001 1.5014135e-38
0.055576891 0.054749411 0.21800001 1.391426e-38
0.057740584 0.054632451 0.21800001 1.3174184e-38
0.053705588 0.055685058 0.21800001 1.3363982e-38
0.05458276 0.055509623 0.21800001 1.3362173e-38
0.053424895 0.056456972 0.21800001 1.345293e-38
0.05458276 0.056386799 0.21800001 1.3083418e-38
0.052652977 0.05726397 0.21800001 1.3545125e-38
0.051863521 0.058579728 0.21800001 1.5756005e-38
0.052652974 0.058492016 0.21800001 1.4004295e-38
0.05167054 0.059614796 0.21800001 1.4925534e-38
0.049846023 0.060948096 0.21800001 1.5937159e-38
0.05040741 0.060667403 0.21800001 1.5108485e-38
0.046512764 0.061649837 0.21800001 1.5114272e-38
0.047039069 0.061649837 0.21800001 1.6033689e-38
0.049670588 0.061649837 0.21800001 1.4187609e-38
0.046512768 0.062176138 0.21800001 1.6309913e-38
0.047214504 0.062176138 0.21800001 1.6677601e-38
0.04851272 0.062211227 0.21800001 1.5477263e-38
0.044582982 0.06340418 0.21800001 1.4191964e-38
0.045372438 0.063316464 0.21800001 1.6861275e-38
0.04727298 0.063170262 0.21800001 1.6031156e-38
0.04370581 0.064456791 0.21800001 1.594006e-38
0.04446603 0.064339839 0.21800001 1.649106e-38
0.042360812 0.065392442 0.21800001 1.5664914e-38
0.043530375 0.065333955 0.21800001 1.6583611e-38
0.044232115 0.065158524 0.21800001 1.658325e-38
0.041600596 0.06664972 0.21800001 1.6399579e-38
0.042267244 0.066562012 0.21800001 1.6398858e-38
0.043530375 0.06664972 0.21800001 1.4554949e-38
0.044232115 0.066211134 0.21800001 1.4554947e-38
0.040442728 0.067684785 0.21800001 1.6399582e-38
0.041425161 0.067614615 0.21800001 1.6121909e-38
0.042126898 0.067263745 0.21800001 1.5568377e-38
0.038793642 0.068667218 0.21800001 1.5846776e-38
0.039319947 0.068491787 0.21800001 1.6123358e-38
0.04037255 0.068491787 0.21800001 1.584496e-38
0.041308206 0.068433307 0.21800001 1.5199956e-38
0.03791647 0.069719829 0.21800001 1.5938607e-38
0.038793642 0.06954439 0.21800001 1.6397775e-38
0.039319947 0.06954439 0.21800001 1.5752763e-38
0.040197119 0.06954439 0.21800001 1.3817028e-38
0.037799511 0.07030461 0.21800001 1.5660219e-38
0.038793642 0.07024613 0.21800001 1.501413e-38
0.039319947 0.07024613 0.21800001 1.3907782e-38
0.03686386 0.071825042 0.21800001 1.4830459e-38
0.0375656 0.071474165 0.21800002 1.4092898e-38
0.040910225 -0.024072163 0.21900001 1.9129511e-38
0.047607321 -0.0193137 0.219 1.5441677e-38
0.04866476 -0.019137463 0.21900001 1.5995931e-38
0.040733986 -0.018784983 0.21900001 1.7102279e-38
0.041262705 -0.018080026 0.21900001 1.7565062e-38
0.047607321 -0.018432505 0.219 1.5805788e-38
0.04866476 -0.018432505 0.21900001 1.5530639e-38
0.049134731 -0.018315012 0.21900003 1.5253336e-38
0.038442876 -0.017727548 0.21900001 1.7746582e-38
0.039676551 -0.017375069 0.21900001 1.7010455e-38
0.040910225 -0.017727548 0.21900001 1.793097e-38
0.04866476 -0.015965154 0.21900001 1.5261616e-38
0.049017239 -0.015965154 0.21900001 1.5172291e-38
0.047254845 -0.013145326 0.21900001 1.3228993e-38
0.045844927 -0.012792847 0.21900001 1.4337139e-38
0.046197407 -0.012792847 0.21900001 1.4431129e-38
0.072985791 0.038669039 0.21900001 1.4564673e-38
0.071575873 0.039550234 0.219 1.6038333e-38
0.070870921 0.040431432 0.21900001 1.6500036e-38
0.071575873 0.040431432 0.219 1.318138e-38
0.070588931 0.041559361 0.21900001 1.3274303e-38
0.068756044 0.042898782 0.21900001 1.576103e-38
0.066993654 0.043603741 0.21900001 1.7975155e-38
0.067698613 0.043603741 0.21900001 1.7975152e-38
0.068474062 0.043462753 0.21900001 1.6407483e-38
0.066876166 0.044543684 0.21900003 1.6591497e-38
0.067698613 0.044484936 0.21900001 1.5762454e-38
0.066817418 0.045366134 0.21900001 1.5301128e-38
0.065466247 0.046658557 0.21900003 1.622308e-38
0.066641174 0.046423566 0.219 1.4196244e-38
0.064761288 0.047715992 0.21900003 1.576246e-38
0.065348752 0.047598496 0.21900003 1.3641987e-38
0.063586362 0.048420947 0.21900003 1.659149e-38
0.064526305 0.048185963 0.21900001 1.5209298e-38
0.060649034 0.049948357 0.21900001 1.4747614e-38
0.061353993 0.049948357 0.21900001 1.5854652e-38
0.062058952 0.049243398 0.21900001 1.5946848e-38
0.058181684 0.052239466 0.21900001 1.3638745e-38
0.056419291 0.053473137 0.21900001 1.3179602e-38
0.05712425 0.053120662 0.21900001 1.3455824e-38
0.055009376 0.055235531 0.21900001 1.3087042e-38
0.051484589 0.057526641 0.21900001 1.3917532e-38
0.052189548 0.057526644 0.21900001 1.5022061e-38
0.05042715 0.058584079 0.219 1.4010092e-38
0.051484589 0.058584079 0.21900001 1.6494652e-38
0.05042715 0.059289042 0.219 1.649466e-38
0.051132109 0.059289038 0.21900001 1.6954904e-38
0.04866476 0.060522716 0.21900003 1.5758913e-38
0.049193475 0.060522709 0.219 1.6769442e-38
0.050309658 0.060405221 0.219 1.6767999e-38
0.047677819 0.061721139 0.21900001 1.6401386e-38
0.04866476 0.061756387 0.21900001 1.7044942e-38
0.049134731 0.061697643 0.21900003 1.6582888e-38
0.047959801 0.062285107 0.21900001 1.6954184e-38
0.042496383 0.065281175 0.21900001 1.318106e-38
0.043025099 0.065104939 0.21900001 1.3824982e-38
0.041262705 0.066691086 0.21900001 1.4650404e-38
0.040733986 0.067219809 0.21900001 1.5203222e-38
0.039265331 0.068394743 0.21900003 1.5019187e-38
0.037561677 0.069687158 0.21900001 1.3822457e-38
0.038090397 0.069687158 0.21900001 1.584678e-38
0.037526429 0.07032162 0.21900001 1.5662026e-38
0.035623048 0.071625784 0.21900001 1.4742244e-38
0.036504243 0.071625784 0.21900001 1.6028643e-38
0.034565609 0.072506994 0.219 1.4832994e-38
0.035623048 0.072506987 0.21900001 1.5567306e-38
0.036328003 0.072154507 0.21900001 1.5935727e-38
0.033367179 0.073634923 0.21900001 1.5569826e-38
0.034565613 0.073564425 0.219 1.5105965e-38
0.035505552 0.073329441 0.21900003 1.4829015e-38
0.03174578 0.074798092 0.21900001 1.501703e-38
0.032450736 0.074798092 0.21900001 1.5660935e-38
0.033331934 0.074798092 0.21900001 1.5844239e-38
0.034330625 0.074739344 0.21900003 1.473755e-38
0.031569541 0.075326815 0.21900001 1.5384357e-38
0.032450736 0.075326815 0.21900001 1.4830097e-38
0.033331934 0.075326815 0.21900001 1.3539e-38
0.031569541 0.076384254 0.219 1.4369118e-38
0.047588646 -0.02075923 0.22000001 1.6091374e-38
0.04835584 -0.0206412 0.22000001 1.6923292e-38
0.046762448 -0.019578936 0.22000001 1.6268209e-38
0.047470622 -0.019933024 0.22000001 1.5075774e-38
0.048414856 -0.019814996 0.22000001 1.7660134e-38
0.049382698 -0.01950812 0.22 1.5717912e-38
0.041805208 -0.018162584 0.22000001 1.7288475e-38
0.046762444 -0.01887076 0.22000001 1.6081663e-38
0.049772192 -0.018516671 0.22000001 1.470232e-38
0.041274078 -0.017631451 0.22000001 1.7470711e-38
0.040211812 -0.01674623 0.22000001 1.627325e-38
0.049949236 -0.016392142 0.22000001 1.4428255e-38
0.045346089 -0.014267613 0.22000001 1.515827e-38
0.046231311 -0.014798746 0.22000001 1.3504863e-38
0.047824707 -0.013382394 0.22000001 1.3321553e-38
0.045346089 -0.012851262 0.22000001 1.469981e-38
0.046762444 -0.012851262 0.22000001 1.3416977e-38
0.047116533 -0.012674218 0.22000001 1.3412305e-38
0.070840448 0.039907873 0.22000001 1.6867734e-38
0.069424093 0.040970135 0.22000001 1.7143965e-38
0.070309311 0.04061605 0.22000001 1.7606019e-38
0.069247052 0.041501269 0.22000001 1.7052122e-38
0.070250295 0.041442256 0.22000001 1.760565e-38
0.068715915 0.042386491 0.22000001 1.631528e-38
0.069188036 0.042268459 0.22000001 1.6591141e-38
0.07013227 0.042032402 0.22000001 1.6038326e-38
0.067653649 0.043448754 0.22000001 1.7883678e-38
0.068479858 0.043212693 0.22000001 1.6776976e-38
0.066591382 0.044688061 0.22000001 1.6775891e-38
0.06576518 0.045691311 0.22000001 1.6684063e-38
0.066237301 0.045573283 0.22000001 1.6776251e-38
0.064466856 0.046989635 0.22000001 1.7330504e-38
0.065411091 0.046517521 0.22000001 1.6315273e-38
0.064289808 0.047697812 0.22000001 1.7514527e-38
0.06340459 0.048228946 0.22000001 1.6684054e-38
0.064112768 0.048051901 0.22000001 1.7329412e-38
0.063050501 0.049114164 0.22000001 1.6684413e-38
0.032421872 0.074254423 0.22000001 1.3821735e-38
0.03153665 0.07531669 0.22000001 1.4831553e-38
0.030474387 0.076555997 0.22000001 1.5752777e-38
0.029235076 0.077264175 0.22000001 1.4924103e-38
0.030474387 0.077264175 0.22000001 1.6027556e-38
0.029412121 0.078326434 0.22000001 1.4921207e-38
0.040572442 -0.023936303 0.22100002 1.8022443e-38
0.048397791 -0.022157814 0.22100002 1.7288828e-38
0.043773722 -0.021090722 0.22100002 1.6915745e-38
0.044307269 -0.021268571 0.22100002 1.7100495e-38
0.04537436 -0.021268571 0.22100002 1.5805076e-38
0.046619304 -0.021090722 0.22100002 1.5348054e-38
0.047330696 -0.021090722 0.22100002 1.6550913e-38
0.048397791 -0.021090722 0.22100002 1.6921137e-38
0.039149649 -0.020023629 0.22100002 1.7657263e-38
0.042528778 -0.020023629 0.22100002 1.7007575e-38
0.043595873 -0.020379327 0.22100002 1.5992703e-38
0.044247985 -0.020497894 0.22100002 1.608238e-38
0.045552209 -0.020497892 0.22100002 1.5896551e-38
0.046797153 -0.020735024 0.22100002 1.6731707e-38
0.040572442 -0.019312233 0.22100002 1.7287399e-38
0.041758101 -0.019430799 0.22100002 1.6732419e-38
0.042469498 -0.019430799 0.22100002 1.7377072e-38
0.043536589 -0.019549364 0.22100002 1.6270007e-38
0.046619304 -0.019490082 0.22100002 1.626749e-38
0.041995231 -0.018956536 0.22100002 1.7195553e-38
0.042350929 -0.018600838 0.22100002 1.7193763e-38
0.046619304 -0.018956536 0.22100002 1.6266054e-38
0.039149649 -0.017533746 0.22100002 1.6544086e-38
0.041995231 -0.017889442 0.22100002 1.7656181e-38
0.039327499 -0.016822349 0.22100002 1.6548755e-38
0.040661365 -0.016555578 0.22100002 1.6641671e-38
0.041639537 -0.016555578 0.22100002 1.6826421e-38
0.042469498 -0.01622952 0.22100002 1.7562909e-38
0.049820583 -0.016110955 0.22100002 1.4619118e-38
0.050413411 -0.01622952 0.22100002 1.4244583e-38
0.042350929 -0.015755257 0.22100002 1.7467121e-38
0.045907907 -0.015043861 0.22100002 1.4883122e-38
0.046619304 -0.015755257 0.22100002 1.4246744e-38
0.048753489 -0.015043861 0.22100002 1.4524051e-38
0.049346317 -0.015518125 0.22100002 1.4617323e-38
0.038616106 -0.014510315 0.22100002 1.5434853e-38
0.039149649 -0.014332466 0.22100002 1.5803634e-38
0.036304068 -0.013265373 0.22100002 1.4515419e-38
0.038793951 -0.013621071 0.22100002 1.4884552e-38
0.042706627 -0.013265373 0.22100002 1.6909987e-38
0.048397791 -0.013443222 0.22100002 1.3690336e-38
0.045730058 -0.012553979 0.22100002 1.4149512e-38
0.046797153 -0.012553979 0.22100002 1.4151668e-38
0.047686394 -0.012731828 0.22100002 1.3596697e-38
0.048397791 -0.012731828 0.22100002 1.3505223e-38
0.045907907 -0.011842583 0.22100002 1.3595983e-38
0.046797149 -0.011664734 0.22100002 1.3504148e-38
0.047508545 -0.011664735 0.22100002 1.4057676e-38
0.048397791 -0.011664735 0.22100002 1.3229356e-38
0.062981397 0.049337413 0.22100002 1.6315631e-38
0.028478719 0.077793226 0.22100002 1.3543344e-38
0.043614484 -0.025473841 0.22200002 1.6459059e-38
0.044507753 -0.025473841 0.22200002 1.6369376e-38
0.045043714 -0.025473841 0.22200002 1.6369733e-38
0.041470643 -0.024044612 0.22200002 1.7839491e-38
0.042513333 -0.024252843 0.22260001 1.6912137e-38
0.043540001 -0.024468897 0.22214289 1.7376348e-38
0.044507757 -0.024401918 0.22200002 1.7932397e-38
0.045380156 -0.024539011 0.22260001 1.7379582e-38
0.040398721 -0.023329997 0.22200002 1.7745857e-38
0.041298531 -0.023435088 0.223 1.7472143e-38
0.042550147 -0.023280419 0.22266668 1.8485942e-38
0.043614484 -0.023329997 0.22200002 1.7192325e-38
0.044701498 -0.023280419 0.22266668 1.663951e-38
0.042690031 -0.022584347 0.22240002 1.8302991e-38
0.043614488 -0.022615382 0.22200002 1.6455119e-38
0.044512283 -0.022564296 0.22220001 1.6548755e-38
0.045413546 -0.022487666 0.22250001 1.7841294e-38
0.04639896 -0.022308208 0.22250001 1.5714312e-38
0.047567468 -0.022324918 0.22266668 1.5256926e-38
0.041657448 -0.021281587 0.223 1.6274673e-38
0.042430505 -0.021428965 0.22266668 1.7657262e-38
0.043495383 -0.021424359 0.22200002 1.7657266e-38
0.046234738 -0.021424359 0.22200002 1.5620685e-38
0.047455534 -0.021454133 0.22200002 1.5902665e-38
0.048735887 -0.021424359 0.22200002 1.6738542e-38
0.049553614 -0.021281587 0.223 1.6647424e-38
0.039563999 -0.020653194 0.22266668 1.7839135e-38
0.040401239 -0.020563755 0.223 1.7287037e-38
0.04154798 -0.020473851 0.22280002 1.6825336e-38
0.042486265 -0.020860121 0.22233336 1.7194126e-38
0.044686407 -0.020114234 0.22200002 1.6363992e-38
0.045401022 -0.020114234 0.22200002 1.6086688e-38
0.046294287 -0.020471539 0.22200002 1.5528848e-38
0.052066032 -0.020204838 0.223 1.6002405e-38
0.040398721 -0.019756926 0.22200002 1.7657262e-38
0.041291989 -0.019756926 0.22200002 1.6732424e-38
0.042899869 -0.019399619 0.22200002 1.700865e-38
0.043679971 -0.019190006 0.22233336 1.6732783e-38
0.044592153 -0.01952319 0.22260001 1.6365791e-38
0.045464274 -0.019644216 0.22275001 1.6088486e-38
0.046184879 -0.01942821 0.22233336 1.672847e-38
0.05059864 -0.019190006 0.22233336 1.4243857e-38
0.052305307 -0.019726282 0.223 1.5263048e-38
0.042899869 -0.018327698 0.22200002 1.6824626e-38
0.043571666 -0.018290615 0.223 1.6915023e-38
0.050989281 -0.018410254 0.223 1.5164378e-38
0.038612183 -0.017613083 0.22200002 1.5255152e-38
0.041827951 -0.017613083 0.22200002 1.7471793e-38
0.042721219 -0.017791737 0.22200002 1.6454767e-38
0.043452028 -0.017692421 0.223 1.6360773e-38
0.051348198 -0.017692421 0.223 1.4519735e-38
0.03847206 -0.016570808 0.22300002 1.6176022e-38
0.039460011 -0.016380733 0.22225001 1.655019e-38
0.040398721 -0.016183855 0.22200002 1.7010452e-38
0.041470643 -0.016302958 0.22200002 1.7288479e-38
0.042780768 -0.016779365 0.22200002 1.691754e-38
0.043549825 -0.016499827 0.22240002 1.6269655e-38
0.051264826 -0.016560191 0.22225001 1.4703053e-38
0.037350446 -0.015538922 0.223 1.4977835e-38
0.038340501 -0.015504349 0.22250001 1.5989827e-38
0.039505452 -0.01546924 0.22200002 1.6268568e-38
0.040398721 -0.01546924 0.22200002 1.6545158e-38
0.041470643 -0.015469239 0.22200002 1.6730991e-38
0.042780768 -0.015350138 0.22200002 1.6173861e-38
0.043614484 -0.015469241 0.22200002 1.6081304e-38
0.046115637 -0.015826548 0.22200002 1.5345542e-38
0.037624009 -0.014608802 0.22250001 1.5251543e-38
0.038254876 -0.014754626 0.22200002 1.5250463e-38
0.039565001 -0.014635523 0.22200002 1.5804353e-38
0.040311053 -0.014608802 0.22250001 1.5990902e-38
0.041547984 -0.01466423 0.22280002 1.5715753e-38
0.042580247 -0.014553212 0.22220001 1.5711804e-38
0.043614484 -0.014575973 0.22200002 1.5066795e-38
0.044428937 -0.014609205 0.22250001 1.4698011e-38
0.045401022 -0.014575973 0.22200002 1.4881683e-38
0.048974093 -0.014575973 0.22200002 1.4430419e-38
0.049553614 -0.014821089 0.223 1.4154192e-38
0.036991529 -0.013385422 0.223 1.4607614e-38
0.03753468 -0.013444737 0.22250001 1.488384e-38
0.038429309 -0.013305326 0.22266668 1.5439525e-38
0.039504953 -0.013344869 0.22233336 1.5438088e-38
0.040329274 -0.01344488 0.22280002 1.5715396e-38
0.041477989 -0.013744338 0.223 1.5441321e-38
0.042500339 -0.013608786 0.22225001 1.5712163e-38
0.043614484 -0.013504051 0.22200002 1.4887801e-38
0.044507753 -0.013504051 0.22200002 1.4793806e-38
0.048974093 -0.013504051 0.22200002 1.3599939e-38
0.036761839 -0.012867925 0.22233336 1.4147714e-38
0.037624009 -0.012817841 0.22250001 1.4608692e-38
0.038247738 -0.01266759 0.223 1.4976754e-38
0.042780768 -0.012848988 0.22200002 1.5525974e-38
0.043614484 -0.012789438 0.22200002 1.53459e-38
0.044507757 -0.012789438 0.22200002 1.5070033e-38
0.045043714 -0.012789438 0.22200002 1.3962608e-38
0.048974093 -0.012789438 0.22200002 1.3231881e-38
0.043631487 -0.011949756 0.223 1.451398e-38
0.044507753 -0.01189617 0.22200002 1.4422863e-38
0.045469191 -0.011794393 0.22233336 1.3778574e-38
0.046115637 -0.011538863 0.22200002 1.322792e-38
0.037350446 -0.010155173 0.223 1.3044249e-38
0.037350446 -0.0096167978 0.223 1.2952772e-38
0.04581004 -0.024261231 0.22400001 1.8300825e-38
0.046531092 -0.024441494 0.22400001 1.5993054e-38
0.047432408 -0.024261231 0.22400001 1.5804337e-38
0.040582411 -0.023179654 0.22400001 1.7746939e-38
0.041603904 -0.023299828 0.22400002 1.7471787e-38
0.042204779 -0.023359917 0.22400001 1.7932768e-38
0.045449514 -0.023179654 0.22400001 1.7193405e-38
0.046531092 -0.023359917 0.22400001 1.7284876e-38
0.047432408 -0.023359917 0.22400001 1.562318e-38
0.048333723 -0.023359917 0.22400001 1.5077195e-38
0.0406425 -0.022578776 0.22400002 1.7838417e-38
0.041483726 -0.022638865 0.22400001 1.7285958e-38
0.042204779 -0.022638865 0.22400001 1.7748737e-38
0.046531092 -0.022819128 0.22400001 1.6456196e-38
0.047432408 -0.022819128 0.22400001 1.5347675e-38
0.048513986 -0.022819128 0.22400001 1.4983928e-38
0.039681096 -0.021557286 0.22400001 1.8389077e-38
0.040582411 -0.021557286 0.22400001 1.6639871e-38
0.041363552 -0.021617373 0.22400002 1.691753e-38
0.050857406 -0.020295445 0.22400001 1.4520082e-38
0.051578458 -0.020295445 0.22400001 1.5260164e-38
0.050857406 -0.019934919 0.22400001 1.4059823e-38
0.051578458 -0.019754656 0.22400001 1.4154177e-38
0.037878465 -0.018132288 0.22400001 1.7378165e-38
0.044187672 -0.018312551 0.22400001 1.6823184e-38
0.037878465 -0.017411236 0.22400001 1.6637722e-38
0.038599517 -0.017771762 0.22400001 1.5623934e-38
0.044007409 -0.017411236 0.22400001 1.6269297e-38
0.051938985 -0.017411236 0.22400001 1.4334626e-38
0.052299511 -0.01705071 0.22400001 1.6090656e-38
0.03643636 -0.016329657 0.22400001 1.5806874e-38
0.037397761 -0.016449833 0.22400002 1.5436293e-38
0.037157413 -0.015608605 0.22400001 1.4977476e-38
0.04581004 -0.015248079 0.22400001 1.5064993e-38
0.050136354 -0.015248079 0.22400001 1.4249262e-38
0.037157413 -0.01470729 0.22400001 1.5160787e-38
0.045449514 -0.014887553 0.22400001 1.5157191e-38
0.036165964 -0.01353558 0.22400001 1.451506e-38
0.037157413 -0.013805974 0.22400001 1.4975318e-38
0.040762674 -0.013084921 0.22400001 1.5438091e-38
0.041483726 -0.013445448 0.22400001 1.5717193e-38
0.042204779 -0.013265185 0.22400001 1.5250823e-38
0.036256097 -0.012724395 0.22400001 1.405552e-38
0.037698202 -0.012003343 0.22400001 1.3687456e-38
0.038839865 -0.012243693 0.22400002 1.4516855e-38
0.039500833 -0.012724395 0.22400001 1.4884915e-38
0.042745568 -0.012363869 0.22400001 1.4421784e-38
0.037698202 -0.011462553 0.22400001 1.3227558e-38
0.038599517 -0.011642816 0.22400001 1.3503788e-38
0.045449514 -0.011642816 0.22400001 1.3870049e-38
0.037698202 -0.010561238 0.22400001 1.2951693e-38
0.051578458 0.041715048 0.22400001 1.3094662e-38
0.052479774 0.041715048 0.22400001 1.3002463e-38
0.046376683 -0.02436954 0.22500001 1.839302e-38
0.046286151 -0.023464201 0.22500001 1.7932407e-38
0.039858241 -0.02273993 0.22500001 1.8297237e-38
0.040220376 -0.022920998 0.22500001 1.8115364e-38
0.049635906 -0.02273993 0.22500001 1.4983213e-38
0.049998041 -0.021834591 0.22500001 1.6002055e-38
0.045290276 -0.019299641 0.22500001 1.6366146e-38
0.046014547 -0.019299641 0.22500001 1.6547669e-38
0.051808719 -0.018213235 0.22500001 1.4337141e-38
0.037685428 -0.017126828 0.22500001 1.5437372e-38
0.044566005 -0.017126828 0.22500001 1.5531369e-38
0.05253299 -0.017851099 0.22500001 1.5074704e-38
0.036508486 -0.016312024 0.22500001 1.5899071e-38
0.044837609 -0.016493091 0.22500001 1.6453323e-38
0.045290276 -0.01622149 0.22500001 1.7467834e-38
0.046014547 -0.016040422 0.22500001 1.5342305e-38
0.035512615 -0.01531615 0.22500001 1.5346257e-38
0.036417954 -0.01531615 0.22500001 1.5808672e-38
0.044928141 -0.01531615 0.22500001 1.5433056e-38
0.045290276 -0.01531615 0.22500001 1.5525252e-38
0.035512615 -0.014954015 0.22500001 1.5345537e-38
0.036417954 -0.014772947 0.22500001 1.5437731e-38
0.041306786 -0.013143335 0.22500001 1.5899069e-38
0.036780089 -0.012056929 0.22500001 1.3596339e-38
0.039677173 -0.012056929 0.22500001 1.4423942e-38
0.040582515 -0.0127812 0.22500001 1.4976393e-38
0.036840443 -0.011574081 0.22500001 1.3688535e-38
0.038409699 -0.011332657 0.22500001 1.3319397e-38
0.039315037 -0.011513726 0.22500001 1.3503788e-38
0.044747073 -0.011694794 0.22500001 1.4331025e-38
0.036961157 -0.010427319 0.22500001 1.3320476e-38
0.03913397 -0.010427319 0.22500001 1.2952772e-38
0.03913397 -0.0098841153 0.22500001 1.2952772e-38
0.037685428 0.028864397 0.22500001 1.3000668e-38
0.050722312 0.042263415 0.22500001 1.3279053e-38
0.034607276 0.051678941 0.22500001 1.3001391e-38
0.035512615 0.051678941 0.22500001 1.3370168e-38
0.036599021 0.051678941 0.22500001 1.3185057e-38
0.048401527 -0.024477849 0.22600001 1.534946e-38
0.04912902 -0.023386614 0.22600001 1.4986083e-38
0.050402127 -0.02302287 0.22600001 1.4427515e-38
0.051311489 -0.02302287 0.22600001 1.3970489e-38
0.050584 -0.022659125 0.22600001 1.4426798e-38
0.051311489 -0.022659125 0.22600001 1.4152003e-38
0.050584 -0.021931633 0.22600001 1.5165449e-38
0.044764075 -0.018294184 0.22600001 1.6639508e-38
0.045400631 -0.018566992 0.22600001 1.6639866e-38
0.037489172 -0.017930437 0.22600001 1.5438091e-38
0.044764075 -0.017930437 0.22600001 1.6547316e-38
0.04512782 -0.017202947 0.22600001 1.5162586e-38
0.035670448 -0.016111713 0.22600001 1.507039e-38
0.050584 -0.015020477 0.22600001 1.4249262e-38
0.035670448 -0.014656732 0.22600001 1.4609412e-38
0.050402127 -0.014656732 0.22600001 1.4338943e-38
0.041854117 -0.013201751 0.22600001 1.5345896e-38
0.050220255 -0.013565496 0.22600001 1.3968723e-38
0.036397938 -0.012110515 0.22600001 1.4148434e-38
0.040581007 -0.012110515 0.22600001 1.4607614e-38
0.041672245 -0.01247426 0.22600001 1.4424301e-38
0.042339113 -0.012353011 0.22600001 1.4146995e-38
0.04985651 -0.012110515 0.22600001 1.350847e-38
0.050220255 -0.012838005 0.22600001 1.3785056e-38
0.03657981 -0.011564897 0.22600001 1.378037e-38
0.040399134 -0.011564898 0.22600003 1.4056243e-38
0.044036586 -0.01174677 0.22600001 1.4329946e-38
0.04985651 -0.01174677 0.22600001 1.3599946e-38
0.036761682 -0.010473662 0.22600001 1.3320476e-38
0.040217262 -0.010655534 0.22600001 1.3320836e-38
0.038944155 -0.0095642991 0.22600001 1.3044249e-38
0.037367925 0.046331197 0.22600001 1.3001749e-38
0.0373073 0.047543678 0.22600003 1.3277255e-38
0.049529083 -0.023672773 0.22700001 1.4986439e-38
0.051903885 -0.023307417 0.22700001 1.3971206e-38
0.052451923 -0.023307417 0.22700001 1.3329794e-38
0.051903885 -0.022759385 0.22700001 1.4152003e-38
0.05245192 -0.022759385 0.22700001 1.3602425e-38
0.045571074 -0.018131562 0.22700001 1.5716837e-38
0.045692857 -0.017279066 0.22700001 1.5072909e-38
0.051173177 -0.014721585 0.22700001 1.5354174e-38
0.035828281 -0.01362552 0.22700001 1.3872568e-38
0.050807822 -0.013808198 0.22700001 1.4246752e-38
0.035828281 -0.012529457 0.22700001 1.4147355e-38
0.050625145 -0.012164102 0.22700001 1.3785417e-38
0.035828281 -0.011798747 0.22700001 1.3780731e-38
0.036193635 -0.011433392 0.22700001 1.3780731e-38
0.0413086 -0.01161607 0.22700001 1.3689258e-38
0.043866083 -0.011798747 0.22700001 1.4238829e-38
0.04971176 -0.011433392 0.22700001 1.2954207e-38
0.050625145 -0.01161607 0.22700001 1.3415914e-38
0.039847184 -0.010337329 0.22700001 1.3044968e-38
0.040821463 -0.010459113 0.22700001 1.322864e-38
0.050625145 0.035697352 0.22700001 1.3553841e-38
0.050564256 0.03618449 0.22700001 1.3645318e-38
0.051173177 0.036062706 0.22700001 1.3553837e-38
0.049196824 -0.024694467 0.22800002 1.599483e-38
0.046261113 -0.018456077 0.22800002 1.7099771e-38
0.035252187 -0.014786437 0.22800002 1.4885999e-38
0.035986114 -0.01148376 0.22800002 1.3689254e-38
0.041857541 -0.011850724 0.22800002 1.405768e-38
0.042958435 -0.011850724 0.22800002 1.3962964e-38
0.043325398 -0.011850724 0.22800002 1.3962964e-38
0.045894146 -0.01148376 0.22800002 1.359526e-38
0.046261113 -0.01148376 0.22800002 1.359526e-38
0.036353081 -0.010749832 0.22800002 1.3504507e-38
0.041398838 -0.010291127 0.22800002 1.3137523e-38
0.048462898 0.03071711 0.22800002 1.337053e-38
0.049563784 0.03071711 0.228 1.3001747e-38
0.049563784 0.031451039 0.22800003 1.3001387e-38
0.041490581 0.039524246 0.22800003 1.3002468e-38
0.042774949 0.039524253 0.22800003 1.3093942e-38
0.050368741 -0.024170719 0.23 1.5816557e-38
0.035561416 -0.014175776 0.23 1.4610491e-38
0.035509881 -0.013416474 0.22966667 1.4242068e-38
0.034821052 -0.01232486 0.23 1.3600299e-38
0.035406802 -0.012271274 0.22900002 1.4057318e-38
0.034697656 -0.011707888 0.23 1.3690697e-38
0.035406802 -0.011718414 0.22900002 1.3781454e-38
0.042286843 -0.011656985 0.22900002 1.3596704e-38
0.044717766 -0.011559311 0.22950001 1.4055874e-38
0.045358289 -0.011534127 0.22900002 1.396404e-38
0.034697656 -0.010720734 0.23 1.3784691e-38
0.035668664 -0.010450639 0.2295 1.3414108e-38
0.036512524 -0.01024412 0.22900002 1.3136444e-38
0.042287145 -0.010443854 0.22933334 1.341411e-38
0.035746507 -0.0097335791 0.23 1.3596344e-38
0.035931602 -0.0089932131 0.23 1.3503788e-38
0.035775375 -0.0071112439 0.22900002 1.3689251e-38
0.045926545 0.025433812 0.23 1.3000668e-38
0.046296727 0.025433812 0.23 1.3092864e-38
0.055593655 0.025273556 0.22966667 1.3370173e-38
0.054455228 0.026531359 0.22988889 1.3093584e-38
0.046648301 0.030483263 0.22900002 1.3092867e-38
0.035808206 0.03160353 0.23 1.300031e-38
0.048306879 0.03122041 0.22900002 1.3554918e-38
0.035746507 0.032467291 0.23 1.3000668e-38
0.036301784 0.032467291 0.23 1.3000668e-38
0.034821052 0.03339275 0.23 1.3000668e-38
0.04065514 0.033320021 0.2295 1.3186137e-38
0.037412334 0.0345033 0.23 1.318506e-38
0.033710502 0.035428755 0.23 1.3092864e-38
0.032846738 0.036786094 0.23 1.3184704e-38
0.028453901 0.038464256 0.22999999 1.3001387e-38
0.029453395 0.03857531 0.23 1.3646398e-38
0.030563945 0.03857531 0.23 1.3276897e-38
0.029509623 0.042646192 0.22900002 1.3092863e-38
0.034972448 -0.013307929 0.23100001 1.4704486e-38
0.034786552 -0.010333588 0.23100001 1.378541e-38
0.034972448 -0.0094041061 0.23100001 1.3782891e-38
0.035344239 -0.0090323137 0.23100001 1.3688898e-38
0.036087826 -0.008288729 0.23100001 1.3044968e-38
0.035344239 -0.007173351 0.23100001 1.4885996e-38
0.036645513 -0.0075451434 0.23100001 1.2952769e-38
0.045196742 0.024800809 0.23100001 1.3001391e-38
0.044639055 0.025358498 0.23100001 1.300103e-38
0.045196742 0.025358498 0.23100001 1.3092865e-38
0.046312124 0.025172601 0.23100001 1.3000312e-38
0.044639055 0.026287979 0.23100001 1.3001747e-38
0.045010846 0.026287979 0.23100001 1.3000668e-38
0.040549338 0.028704632 0.23100001 1.3000668e-38
0.034600653 0.030191803 0.23099999 1.3368372e-38
0.035344239 0.030191801 0.23100001 1.3092864e-38
0.036087826 0.031121284 0.23100001 1.3092864e-38
0.033485278 0.032608457 0.23100001 1.3277255e-38
0.032741692 0.033723831 0.23100001 1.3369451e-38
0.033299379 0.033537935 0.23100001 1.3461647e-38
0.034414757 0.033537935 0.23100001 1.3000668e-38
0.031874176 0.03471528 0.23100001 1.3092864e-38
0.032741692 0.034653313 0.23100001 1.3092864e-38
0.033299379 0.034653313 0.23100001 1.3092864e-38
0.034228861 0.034467418 0.23100001 1.3092864e-38
0.031700671 0.035434075 0.23099999 1.3000312e-38
0.032741692 0.035396896 0.23100001 1.3000311e-38
0.033237413 0.03533493 0.23100001 1.3000668e-38
0.032741692 0.036512278 0.23100001 1.3000312e-38
0.033113483 0.036326379 0.23100001 1.3092508e-38
0.023446877 0.038928926 0.23100001 1.3091782e-38
0.030510936 0.038185343 0.23100001 1.318506e-38
0.049313124 -0.025501106 0.23200001 1.6173476e-38
0.050495565 -0.025438873 0.23200001 1.5904436e-38
0.035123844 -0.014299044 0.23200001 1.5348775e-38
0.034750439 -0.01355224 0.23200001 1.4519733e-38
0.035123844 -0.013925642 0.23200001 1.5440971e-38
0.04352539 -0.011685229 0.23200001 1.3688176e-38
0.044085495 -0.011685229 0.23200001 1.3687456e-38
0.034377038 -0.01019162 0.23200001 1.360174e-38
0.043463156 -0.010813958 0.23200001 1.3228639e-38
0.034750439 -0.0098182186 0.23200001 1.3692495e-38
0.035422564 -0.0085486518 0.23200002 1.3872929e-38
0.03661745 -0.0086980127 0.23200001 1.3504507e-38
0.034750439 -0.0075778062 0.23200001 1.4978192e-38
0.035403896 -0.0074844561 0.23200001 1.4426096e-38
0.044832297 0.024534769 0.23200001 1.3092508e-38
0.045392402 0.024534769 0.23200001 1.3276899e-38
0.041658379 0.027895387 0.23200001 1.3092864e-38
0.040724874 0.02826879 0.23200001 1.3277255e-38
0.041658379 0.02826879 0.23200001 1.3000668e-38
0.033630233 0.029762398 0.23200001 1.3737154e-38
0.033630233 0.030322501 0.23200001 1.3921546e-38
0.033630233 0.031442709 0.23200001 1.3184341e-38
0.032510027 0.032376211 0.23200001 1.3000668e-38
0.033256833 0.032189511 0.23200001 1.3000668e-38
0.028776007 0.033869822 0.23200001 1.3460568e-38
0.029522812 0.033683121 0.23200001 1.3368732e-38
0.030394083 0.033745352 0.23200001 1.3092864e-38
0.033256833 0.033123016 0.23200001 1.3553842e-38
0.026908997 0.034616627 0.23200001 1.4750943e-38
0.028776007 0.034990028 0.23200001 1.3092864e-38
0.02952281 0.034803327 0.23200001 1.3000668e-38
0.030456316 0.034803327 0.23200001 1.3092864e-38
0.031389821 0.034990028 0.23200001 1.3092864e-38
0.024668584 0.035736833 0.23200001 1.318506e-38
0.025415389 0.035736833 0.23200001 1.3276894e-38
0.030456318 0.035550132 0.23200001 1.3000312e-38
0.031389821 0.035363428 0.23200001 1.3000312e-38
0.022428172 0.036857039 0.23200001 1.3552403e-38
0.02362306 0.036707677 0.23200002 1.3552763e-38
0.024668584 0.036670335 0.23200001 1.3276176e-38
0.022241469 0.037603844 0.23200001 1.3368371e-38
0.023548378 0.03760384 0.23200001 1.3460206e-38
0.024668584 0.03760384 0.23200001 1.3276176e-38
0.025415389 0.03760384 0.23200001 1.3184339e-38
0.019814357 0.038724046 0.23200001 1.3368369e-38
0.020374458 0.038537346 0.23200001 1.3183978e-38
0.021494666 0.038537346 0.23200001 1.2999587e-38
0.023548378 0.038537346 0.23200001 1.3091784e-38
0.024668584 0.038350645 0.23200001 1.3276176e-38
0.025041986 0.038350645 0.23200001 1.3276176e-38
0.020374458 0.039470851 0.23200001 1.2999587e-38
0.037150297 -0.0083604921 0.23300001 1.3136444e-38
0.044463024 0.022765465 0.23300001 1.3001391e-38
0.045400552 0.023890499 0.23300001 1.3001391e-38
0.046338081 0.024640523 0.23300001 1.3000312e-38
0.033025168 0.029890686 0.23300001 1.3460568e-38
0.033025168 0.030453205 0.23300001 1.4013741e-38
0.026274959 0.031765744 0.23300001 1.3737154e-38
0.033025168 0.031578239 0.23300001 1.3553123e-38
0.032650158 0.032140754 0.23300001 1.3092864e-38
0.026274959 0.033640802 0.23300001 1.3000312e-38
0.024399901 0.034765836 0.23300001 1.3276176e-38
0.025599938 0.034465827 0.23300001 1.2999952e-38
0.026274959 0.034390822 0.23300001 1.382971e-38
0.027024984 0.034015812 0.23300001 1.3000668e-38
0.028712537 0.034765836 0.23300001 1.31847e-38
0.028675038 0.035590861 0.23300001 1.3184341e-38
0.019149739 0.038890962 0.23300001 1.3276174e-38
0.019149739 0.039265975 0.23300001 1.3183978e-38
0.044842161 -0.011032722 0.23400001 1.3597055e-38
0.045595407 -0.011032722 0.23400001 1.405875e-38
0.056517415 0.010434678 0.23400001 1.3368366e-38
0.042959057 0.020603444 0.23400001 1.3553842e-38
0.04352399 0.020415135 0.23400001 1.3092508e-38
0.042770747 0.021544997 0.23400001 1.3184702e-38
0.04352399 0.021544997 0.23400001 1.3092507e-38
0.050114859 0.021356687 0.23400001 1.3000668e-38
0.045595404 0.022486551 0.23400001 1.3001391e-38
0.046474189 0.022612089 0.23400001 1.3001391e-38
0.045670729 0.023541087 0.23400001 1.3001033e-38
0.039192844 0.027382623 0.23400001 1.3000668e-38
0.041452572 0.027382623 0.23400001 1.3092864e-38
0.031660423 0.030395592 0.23400001 1.3552763e-38
0.032639638 0.030470913 0.23400001 1.3552763e-38
0.024755703 0.031650994 0.23400001 1.382935e-38
0.025634484 0.031713765 0.23400001 1.3737154e-38
0.026136646 0.031650994 0.23400001 1.3921546e-38
0.031660423 0.031525455 0.23400001 1.3552763e-38
0.032601975 0.031713765 0.23400001 1.3461286e-38
0.021491652 0.034538426 0.23400001 1.4289965e-38
0.022370435 0.034663964 0.23400001 1.4105574e-38
0.021491652 0.035291664 0.23400001 1.419777e-38
0.022244895 0.035291664 0.23400001 1.3921183e-38
0.050329022 -0.026209092 0.23500001 1.5715729e-38
0.056002483 0.01047927 0.23500001 1.3552397e-38
0.055529691 0.011613962 0.23500001 1.3645676e-38
0.056191597 0.011613962 0.23500001 1.3092503e-38
0.042197064 0.027121413 0.23500001 1.318506e-38
0.029652419 0.028508261 0.23500001 1.3276902e-38
0.038603876 0.028256105 0.23500001 1.3184704e-38
0.026311381 0.029769028 0.23500001 1.3644956e-38
0.028769881 0.029390797 0.23500001 1.3000308e-38
0.029715456 0.029390797 0.23500001 1.3738235e-38
0.03040888 0.029516874 0.23500001 1.429069e-38
0.023852881 0.030903719 0.23500001 1.3276176e-38
0.024836279 0.030601135 0.23500001 1.3368012e-38
0.025365805 0.030525489 0.23500001 1.3644599e-38
0.026500495 0.030525489 0.23500003 1.3369092e-38
0.027256958 0.030525489 0.23500001 1.3553842e-38
0.028769881 0.030147258 0.23500001 1.3369451e-38
0.029753279 0.030449841 0.23500001 1.3921906e-38
0.030471919 0.030525489 0.23500001 1.4382524e-38
0.031543568 0.030777643 0.23500001 1.3644959e-38
0.021394383 0.033929564 0.23500001 1.4289965e-38
0.024735419 0.03367741 0.23500001 1.3183979e-38
0.02025969 0.034307793 0.23500001 1.4382161e-38
0.021205267 0.034307793 0.23500001 1.4289965e-38
0.019597787 0.035442486 0.23500001 1.3275815e-38
0.02025969 0.035442486 0.23500001 1.3921186e-38
0.021205267 0.035253368 0.23500001 1.4197772e-38
0.049783509 -0.02632062 0.23600002 1.5990524e-38
0.037628628 0.026856983 0.23600002 1.3369095e-38
0.042186707 0.026856983 0.23600002 1.3092508e-38
0.030031826 0.027616663 0.23600002 1.3277255e-38
0.037502017 0.027363434 0.23600002 1.3369094e-38
0.030221745 0.028566264 0.23600002 1.3737876e-38
0.037502013 0.028502956 0.23600002 1.3185062e-38
0.030791506 0.029136023 0.23600002 1.4290328e-38
0.04714093 -0.011221315 0.23800001 1.3412664e-38
0.045225635 -0.010646727 0.23800001 1.3044609e-38
0.042746916 0.026780061 0.23700002 1.3000312e-38
0.03041343 0.027600665 0.23750001 1.3461286e-38
0.036643721 0.027733684 0.23700002 1.3277255e-38
0.03740662 0.027733684 0.23700002 1.3369451e-38
0.030731253 0.028687309 0.23700002 1.3922625e-38
0.031052452 0.028616821 0.23800001 1.3738233e-38
0.045800328 -0.01069146 0.23900001 1.3046045e-38
0.046378236 -0.010929335 0.24000001 1.4243867e-38
0.030927116 0.027698465 0.24000001 1.3737154e-38
0.031443864 0.027813876 0.24100001 1.4013741e-38
0.031702459 0.028460355 0.24100001 1.382971e-38
0.031831753 0.029365426 0.24100001 1.401482e-38
