# .PCD v0.7 - Point Cloud Data file format
VERSION 0.7
FIELDS x y z rgb
SIZE 4 4 4 4
TYPE F F F F
COUNT 1 1 1 1
WIDTH 395
HEIGHT 1
VIEWPOINT 0 0 0 1 0 0 0
POINTS 395
DATA ascii
0.014689953 -0.023058482 0.17200001 1.3779652e-38
0.020832341 -0.032086398 0.193 1.5533166e-38
0.021142973 -0.032086398 0.193 1.5533166e-38
0.020628039 -0.033189375 0.19400001 1.6081666e-38
0.020628039 -0.032721013 0.19400001 1.5714322e-38
0.021408644 -0.03240877 0.19400001 1.5348774e-38
0.02073437 -0.033988152 0.19500001 1.589835e-38
0.021152837 -0.033151217 0.19500001 1.5623204e-38
0.02115616 -0.034162454 0.19600001 1.5899069e-38
0.021471621 -0.033531532 0.19600001 1.5622485e-38
0.02020978 -0.03274288 0.19600001 1.5345537e-38
0.02020978 -0.031954229 0.19600001 1.3602813e-38
0.021581169 -0.034336749 0.19700001 1.5806874e-38
0.02031289 -0.033544075 0.19700001 1.5712523e-38
0.02189824 -0.033385541 0.19700001 1.5162586e-38
0.021372041 -0.034829728 0.19800001 1.580795e-38
0.019778643 -0.03339567 0.19800001 1.5344459e-38
0.022328079 -0.033555012 0.19800001 1.4885999e-38
0.019778643 -0.032917652 0.19800001 1.4610488e-38
0.022328079 -0.032917652 0.19800001 1.5072906e-38
0.016437545 -0.036147241 0.2 1.6270363e-38
0.022337086 -0.036377966 0.19950001 1.5445284e-38
0.016598495 -0.035342492 0.2 1.6363638e-38
0.017510539 -0.035288844 0.2 1.6364355e-38
0.021720197 -0.035405993 0.19900002 1.5902305e-38
0.022440845 -0.035432685 0.19900002 1.498107e-38
0.023519309 -0.035181545 0.2 1.4705924e-38
0.016598495 -0.034537748 0.2 1.6732064e-38
0.017564189 -0.034537748 0.2 1.6640946e-38
0.018154336 -0.034430448 0.2 1.6362922e-38
0.01965653 -0.034215849 0.2 1.5803639e-38
0.022547608 -0.034471821 0.19900002 1.4701967e-38
0.02356049 -0.03443915 0.1998 1.4888157e-38
0.016598495 -0.03389395 0.2 1.6362922e-38
0.017596379 -0.033636428 0.2 1.6454041e-38
0.018207986 -0.033572052 0.2 1.6453322e-38
0.019173682 -0.033572052 0.2 1.5531008e-38
0.022761134 -0.03340419 0.19900002 1.4702686e-38
0.023486169 -0.03352432 0.1997143 1.4979991e-38
0.018368935 -0.032606356 0.2 1.5992347e-38
0.019408634 -0.032552015 0.19966668 1.4613368e-38
0.016843239 -0.036327973 0.20100001 1.6270363e-38
0.018137271 -0.036651481 0.20100001 1.5806155e-38
0.02298989 -0.036813237 0.20100001 1.479955e-38
0.023529068 -0.036435809 0.20100002 1.4706636e-38
0.024607427 -0.036489725 0.20099999 1.4432566e-38
0.018299025 -0.035195693 0.20100001 1.6361482e-38
0.02374474 -0.035573121 0.20100002 1.4705562e-38
0.024514994 -0.035403661 0.20099999 1.4153825e-38
0.018784286 -0.034386925 0.20100001 1.5992344e-38
0.019431302 -0.034386925 0.20100001 1.5620687e-38
0.024283919 -0.034225173 0.20100001 1.5073627e-38
0.016735403 -0.033632074 0.20100002 1.6361845e-38
0.017166747 -0.033416402 0.20100001 1.6361126e-38
0.017382419 -0.032661553 0.20100002 1.6084541e-38
0.018379901 -0.032526761 0.20100001 1.5899431e-38
0.019431302 -0.032445882 0.20100001 1.4796322e-38
0.023591943 -0.037321508 0.20200001 1.5168689e-38
0.024567295 -0.037321508 0.20200001 1.4801347e-38
0.025054971 -0.037158947 0.20200001 1.3787555e-38
0.017414713 -0.036671273 0.20200001 1.5901582e-38
0.023754502 -0.03683383 0.20200001 1.4892463e-38
0.018877741 -0.035208244 0.20200001 1.6082739e-38
0.019365417 -0.035208244 0.20200001 1.6080224e-38
0.016276803 -0.033582654 0.20200001 1.6361129e-38
0.016439361 -0.032932419 0.20200001 1.6361129e-38
0.017577272 -0.032444745 0.20200001 1.6176378e-38
0.018715182 -0.032282185 0.20200001 1.553029e-38
0.043911777 0.02493846 0.20200001 1.5024171e-38
0.044345271 0.025480323 0.20200001 1.4193699e-38
0.017010834 -0.037016172 0.20300001 1.6270007e-38
0.017664287 -0.036689445 0.20300001 1.5809385e-38
0.018317742 -0.036362719 0.20300001 1.5900503e-38
0.016520744 -0.032768723 0.20300001 1.6361128e-38
0.017664287 -0.032441996 0.20300001 1.6083463e-38
0.012436659 -0.026234189 0.20300001 1.322792e-38
0.01349852 -0.02631587 0.20300001 1.3687819e-38
0.014331673 -0.026626263 0.20300002 1.3687819e-38
0.04445589 0.024408465 0.20300001 1.5392968e-38
0.043802436 0.025552008 0.20300001 1.5669542e-38
0.044673711 0.025170827 0.20300001 1.5023815e-38
0.045109343 0.025552008 0.20300001 1.3364664e-38
0.043802436 0.02653219 0.20300001 1.5853208e-38
0.043802436 0.02702228 0.20300001 1.4377723e-38
0.01807964 -0.036541849 0.20400001 1.6084894e-38
0.016437959 -0.032601811 0.20400001 1.6361128e-38
0.017094631 -0.032601811 0.20400001 1.6361129e-38
0.016109623 -0.031945139 0.20400001 1.617494e-38
0.015617117 -0.029482618 0.20400001 1.5251896e-38
0.014467941 -0.028169272 0.20400001 1.4606891e-38
0.015452949 -0.028333439 0.20400001 1.4514336e-38
0.014467941 -0.027348431 0.20400001 1.3871491e-38
0.015452948 -0.027184263 0.20400001 1.3872206e-38
0.016109623 -0.027348431 0.20400001 1.396404e-38
0.014467941 -0.026363421 0.20400001 1.3596702e-38
0.015234058 -0.026582314 0.20400001 1.3504147e-38
0.044018213 0.024528705 0.20400001 1.4285567e-38
0.045331556 0.02444662 0.20400001 1.539296e-38
0.043689877 0.025349544 0.20400001 1.5762101e-38
0.045714617 0.025513714 0.20400001 1.3273211e-38
0.043689877 0.02748373 0.20400001 1.4009669e-38
0.039749838 0.033393782 0.20400001 1.3262798e-38
0.018828157 -0.036226057 0.20500001 1.6359326e-38
0.019323077 -0.036061082 0.20500001 1.608166e-38
0.016518537 -0.032101732 0.20500001 1.5990549e-38
0.017508375 -0.032101732 0.205 1.6081666e-38
0.018168267 -0.032101732 0.20500001 1.5897274e-38
0.016271077 -0.031524327 0.20500001 1.5343382e-38
0.016188592 -0.030287029 0.20500001 1.5252981e-38
0.016188592 -0.029627139 0.20500001 1.552777e-38
0.016188592 -0.028472327 0.205 1.4697649e-38
0.016408555 -0.027262529 0.205 1.3872923e-38
0.015858645 -0.026822599 0.20500001 1.3780731e-38
0.016188592 -0.026822599 0.20500001 1.3689974e-38
0.044728905 0.024318997 0.20500001 1.5208582e-38
0.045883719 0.024318997 0.20500001 1.5300408e-38
0.046213664 0.024648942 0.20500001 1.4102229e-38
0.043574095 0.02728851 0.20500001 1.5485503e-38
0.038954854 0.034217369 0.20500001 1.3447174e-38
0.016599115 -0.03142944 0.20600002 1.4974598e-38
0.016599115 -0.030434772 0.20600002 1.5345177e-38
0.016599115 -0.029771663 0.20600002 1.571216e-38
0.016599115 -0.02861122 0.20600002 1.4697289e-38
0.016599115 -0.026953442 0.20600002 1.3505583e-38
0.045444429 0.02410607 0.20600002 1.5484803e-38
0.046439096 0.024437627 0.20600002 1.4470647e-38
0.043786652 0.026426958 0.20600002 1.6499309e-38
0.043786652 0.027090067 0.20600002 1.6221633e-38
0.039476436 0.033721171 0.20600002 1.4828665e-38
0.040471099 0.033389617 0.20600002 1.3263502e-38
0.025882665 0.04864116 0.20600002 1.4093603e-38
0.017374491 -0.032133415 0.20733334 1.5711088e-38
0.017429821 -0.031901967 0.208 1.5341226e-38
0.017012859 -0.028416943 0.20700002 1.4513977e-38
0.01575595 -0.026880352 0.208 1.3412311e-38
0.016258109 -0.026880352 0.208 1.3320476e-38
0.056598417 0.0077687851 0.208 1.4103357e-38
0.057535779 0.0078022629 0.20799999 1.6130176e-38
0.056598417 0.0086057205 0.208 1.5208955e-38
0.057267964 0.0087731071 0.208 1.668334e-38
0.057267964 0.0092752688 0.208 1.6037973e-38
0.052413736 0.013627335 0.20799999 1.4287741e-38
0.051409412 0.014631657 0.208 1.3273954e-38
0.052357942 0.014520065 0.208 1.5669209e-38
0.051409416 0.015468593 0.208 1.5300069e-38
0.052246351 0.015468594 0.208 1.6314557e-38
0.050572474 0.016640304 0.20799999 1.4840903e-38
0.051409412 0.016640304 0.20799999 1.6037974e-38
0.052246351 0.016472917 0.208 1.5576275e-38
0.049568158 0.017644625 0.20799999 1.391859e-38
0.050572477 0.017644625 0.208 1.5392978e-38
0.051242027 0.017309852 0.208 1.6222011e-38
0.049568158 0.018481562 0.20799999 1.5484455e-38
0.050572477 0.01848156 0.208 1.5299695e-38
0.048396442 0.01965327 0.20799999 1.4839458e-38
0.049456563 0.019541681 0.20799999 1.6591144e-38
0.050237704 0.019318497 0.208 1.5761383e-38
0.047559507 0.020657595 0.208 1.3918579e-38
0.048229057 0.02032282 0.208 1.5116396e-38
0.046555188 0.021494528 0.20799999 1.2997731e-38
0.047559507 0.02149453 0.208 1.4840519e-38
0.046555188 0.022498852 0.20799999 1.5392626e-38
0.047559511 0.022498852 0.208 1.6498947e-38
0.045532856 0.02340891 0.20766668 1.4287367e-38
0.046523213 0.023271475 0.20785713 1.5484802e-38
0.047224734 0.0231684 0.208 1.6221996e-38
0.045216091 0.024005337 0.208 1.447103e-38
0.046804179 0.024251943 0.20725001 1.4102233e-38
0.043471903 0.025526464 0.20766668 1.3459427e-38
0.043319035 0.026237166 0.208 1.4103345e-38
0.043374825 0.027353078 0.20799999 1.5116027e-38
0.041868348 0.028692175 0.208 1.3456878e-38
0.042314712 0.028580582 0.208 1.4010408e-38
0.043374833 0.028524786 0.208 1.530076e-38
0.041533574 0.029194336 0.208 1.3089177e-38
0.042314708 0.029138541 0.208 1.4471731e-38
0.043430626 0.029138541 0.208 1.4563193e-38
0.041533571 0.03019866 0.208 1.3917472e-38
0.042203121 0.03019866 0.208 1.4470996e-38
0.039524928 0.033713788 0.208 1.5384704e-38
0.040397242 0.033422187 0.20775001 1.4555303e-38
0.038855378 0.034718111 0.208 1.4554591e-38
0.039190151 0.034048561 0.208 1.5107402e-38
0.038761973 0.035135206 0.20750001 1.381703e-38
0.031657733 0.043087468 0.208 1.4093971e-38
0.025799178 0.048611242 0.208 1.5384342e-38
0.026572086 0.048493989 0.20750001 1.3817023e-38
0.025464404 0.049113404 0.208 1.529179e-38
0.017850002 -0.032055341 0.20900001 1.5433422e-38
0.018186385 -0.032391723 0.20900001 1.5711088e-38
0.017177233 -0.031718954 0.20900001 1.4882406e-38
0.017177233 -0.029027885 0.20900001 1.4790564e-38
0.056450039 0.0088993814 0.20900001 1.4656141e-38
0.055356793 0.0094880527 0.20900001 1.327504e-38
0.056534138 0.0094880527 0.20900001 1.5393695e-38
0.055524986 0.010329012 0.20900001 1.548446e-38
0.056534138 0.010329012 0.20900001 1.5668835e-38
0.053170297 0.013524659 0.20900001 1.4932744e-38
0.053170297 0.014365618 0.20900001 1.594579e-38
0.051488381 0.01806584 0.20900001 1.4470661e-38
0.048797309 0.020420525 0.20900001 1.5668835e-38
0.048460927 0.021429678 0.20900001 1.5024546e-38
0.048460927 0.022438828 0.20900001 1.5484796e-38
0.047788158 0.023279786 0.20900001 1.61298e-38
0.047788158 0.024120746 0.20900001 1.3364314e-38
0.042742401 0.028493736 0.20900001 1.4286626e-38
0.042742401 0.029502887 0.20900001 1.5024171e-38
0.043078784 0.029502887 0.20900001 1.5024171e-38
0.04126231 0.030646592 0.20900002 1.327284e-38
0.042742401 0.030343845 0.20900001 1.4194767e-38
0.040387712 0.031689383 0.20900001 1.373201e-38
0.041329589 0.031723022 0.20900002 1.4377364e-38
0.039546758 0.032362148 0.20900001 1.3177417e-38
0.040387712 0.032362148 0.20900001 1.4559602e-38
0.041396867 0.032362152 0.20900001 1.4191175e-38
0.038369413 0.033539493 0.20900001 1.3085597e-38
0.039513119 0.033472218 0.20900002 1.5201748e-38
0.040387712 0.033203106 0.20900001 1.5110264e-38
0.041396867 0.033203106 0.20900001 1.3175246e-38
0.037360258 0.03454864 0.20900001 1.2994507e-38
0.038302135 0.034481365 0.20900002 1.4096859e-38
0.037360258 0.035389602 0.20900001 1.3638056e-38
0.03820122 0.035389602 0.20900001 1.4556393e-38
0.034669191 0.038417056 0.20900001 1.2993747e-38
0.032482695 0.039594401 0.20900001 1.29945e-38
0.033660039 0.039594397 0.20900001 1.4466719e-38
0.034669191 0.039594397 0.20900001 1.30827e-38
0.031809926 0.040603552 0.20900001 1.3914287e-38
0.032482695 0.040603552 0.20900001 1.5203207e-38
0.033592761 0.040536277 0.20900002 1.5109921e-38
0.031809926 0.04144451 0.20900001 1.529504e-38
0.032482695 0.04144451 0.20900001 1.5846763e-38
0.033323653 0.041276317 0.20900001 1.5293235e-38
0.030632585 0.042621851 0.20900001 1.4926621e-38
0.031809926 0.042621851 0.20900001 1.5201035e-38
0.032314502 0.042621851 0.20900001 1.4185804e-38
0.029623432 0.043631006 0.20900001 1.4742229e-38
0.030632585 0.043631002 0.20900001 1.5477982e-38
0.028782472 0.044471964 0.20900001 1.4925545e-38
0.029511305 0.044415902 0.20900001 1.5662372e-38
0.030632585 0.044303771 0.20900001 1.4647501e-38
0.026932362 0.045985691 0.20900001 1.3360404e-38
0.027605131 0.045649305 0.20900001 1.4464574e-38
0.028698377 0.04556521 0.20900001 1.6029354e-38
0.026708106 0.046770588 0.20900001 1.437238e-38
0.027605131 0.046658456 0.20900001 1.5476546e-38
0.028782472 0.046658456 0.20900001 1.4370555e-38
0.025811085 0.04755548 0.20900001 1.3911399e-38
0.02659598 0.047499415 0.20900001 1.5108129e-38
0.027605129 0.047499418 0.20900001 1.4738976e-38
0.025698958 0.048228249 0.20900001 1.4831903e-38
0.02659598 0.048003994 0.20900001 1.5291431e-38
0.027605131 0.048172183 0.20900001 1.3172021e-38
0.024577677 0.049147695 0.20900002 1.428018e-38
0.025586829 0.049013145 0.20900001 1.5384707e-38
0.017428419 -0.030349752 0.21000001 1.5437015e-38
0.018273402 -0.030180756 0.21000001 1.4515782e-38
0.017428419 -0.02950477 0.21000001 1.5158267e-38
0.053086713 0.012744386 0.21000001 1.3367241e-38
0.05207273 0.017814286 0.21000001 1.4746884e-38
0.048354805 0.023391174 0.21000001 1.5852867e-38
0.034497079 0.04045983 0.21000001 1.3819547e-38
0.034328081 0.041135818 0.21000001 1.2989433e-38
0.032807112 0.042656787 0.21000001 1.3357498e-38
0.031117145 0.044853743 0.21000001 1.3080542e-38
0.029089186 0.045867722 0.21000001 1.6029708e-38
0.029089186 0.046205714 0.21000001 1.5937513e-38
0.026047247 0.047219697 0.21000001 1.3174924e-38
0.024695273 0.049585648 0.21000001 1.4740064e-38
0.023246732 0.050551347 0.21000002 1.3359678e-38
0.024357282 0.050261635 0.21000001 1.4831896e-38
0.025202263 0.050261635 0.21000001 1.492301e-38
0.021991327 0.054317556 0.21000001 1.3538644e-38
0.022329321 0.054317556 0.21000001 1.3077666e-38
0.03330294 0.042010911 0.21100001 1.5200313e-38
0.029737111 0.045406938 0.21100001 1.5937517e-38
0.029567309 0.046765346 0.21100001 1.4279807e-38
0.023794062 0.050840579 0.21100001 1.4464213e-38
0.023794062 0.051180184 0.21100001 1.5108493e-38
0.020737637 0.053897001 0.21100001 1.3725924e-38
0.02124704 0.053727202 0.21100001 1.4370569e-38
0.022367733 0.053693242 0.21100001 1.4829733e-38
0.021303641 0.054349806 0.21100001 1.4737902e-38
0.022265851 0.054236606 0.21100001 1.3723388e-38
0.052909877 0.015595459 0.21200001 1.6037973e-38
0.049156539 0.023613948 0.21200001 1.4377737e-38
0.034484409 0.041868798 0.21200001 1.3173825e-38
0.033631377 0.042551227 0.21200001 1.3633363e-38
0.023224406 0.052105166 0.21200001 1.4647518e-38
0.023224406 0.053811226 0.21200001 1.3723385e-38
0.051788159 0.018754419 0.21300001 1.5576642e-38
0.050074052 0.020468527 0.21300001 1.6313128e-38
0.049731229 0.021154171 0.21300001 1.5668835e-38
0.049388409 0.023211101 0.21300001 1.5668109e-38
0.03430425 0.042409118 0.21300001 1.354117e-38
0.030876033 0.045494512 0.21300001 1.4831531e-38
0.029847568 0.046865799 0.21300001 1.4740417e-38
0.030533211 0.046180155 0.21300001 1.4463111e-38
0.022991134 0.052693769 0.21300001 1.4738988e-38
0.053409025 0.016431449 0.21400002 1.6222e-38
0.029987697 0.046741392 0.21400002 1.538506e-38
0.030473867 0.047305852 0.215 1.3910656e-38
0.024630271 0.051758558 0.21433334 1.5292154e-38
0.023787936 0.052596726 0.21400002 1.5291793e-38
0.024591176 0.052496463 0.215 1.5199956e-38
0.023670495 0.053237066 0.21450001 1.4830817e-38
0.052517571 0.018670915 0.21600001 1.5576642e-38
0.050431669 0.021799767 0.21600001 1.5208933e-38
0.050431669 0.022321243 0.21600001 1.4562844e-38
0.050431669 0.023538018 0.21600001 1.4193719e-38
0.030963257 0.047178231 0.21600001 1.3449693e-38
0.025400853 0.052219156 0.21600001 1.5015205e-38
0.026269978 0.05221916 0.21600001 1.3079468e-38
0.024473786 0.053551819 0.21600001 1.3816303e-38
0.025227029 0.053088281 0.21600001 1.4553868e-38
0.022724371 0.054032583 0.21700001 1.4370931e-38
0.053354718 0.018492926 0.21800001 1.5669558e-38
0.0512495 0.021650748 0.21800001 1.576103e-38
0.0512495 0.022352487 0.21800001 1.4102226e-38
0.0512495 0.023580529 0.21800001 1.3271757e-38
0.011302016 0.00095382112 0.21900001 1.3183618e-38
0.012006974 0.00095382112 0.21900001 1.2999226e-38
0.010949537 0.0014825391 0.21900001 1.3275813e-38
0.011302016 0.0014825391 0.21900001 1.3183618e-38
0.012006974 0.0014825391 0.21900001 1.2999226e-38
0.011302016 0.0023637358 0.21900001 1.3460203e-38
0.012288956 0.0024342318 0.21900001 1.3183616e-38
0.010949537 0.0032449325 0.21900001 1.3460202e-38
0.011302016 0.0032449325 0.21900001 1.3552397e-38
0.012183214 0.0032449325 0.21900001 1.3368006e-38
0.054304417 0.016815362 0.21900001 1.603762e-38
0.010645446 0.0014893087 0.22000001 1.3275813e-38
0.012415887 0.0016663527 0.22000001 1.2999226e-38
0.010645446 0.0034367936 0.22000001 1.3552397e-38
0.010338137 0.0023853225 0.22100002 1.3368008e-38
0.010338137 0.0030967176 0.22100002 1.3368006e-38
0.0078482535 0.006653694 0.22100002 1.3460202e-38
0.052310467 0.021948693 0.22100002 1.5300052e-38
0.052310467 0.022482241 0.22100002 1.3733102e-38
0.010027609 0.0016815014 0.22200002 1.3183618e-38
0.0093129948 0.0023961156 0.22200002 1.2999224e-38
0.010027609 0.0023961156 0.22200002 1.3183615e-38
0.010027609 0.0031107301 0.22200002 1.3275811e-38
0.012641631 0.00097559788 0.22400001 1.2999226e-38
0.053381085 0.021525586 0.22400001 1.5852856e-38
0.053381085 0.022607164 0.22400002 1.3640901e-38
0.053981531 0.020535275 0.22500001 1.6222364e-38
0.053981531 0.022345955 0.22500001 1.3733468e-38
0.054461367 0.021813875 0.22700001 1.5484799e-38
0.054701284 0.021543007 0.22800002 1.6590068e-38
0.054810937 0.020991616 0.23 1.6222731e-38
0.055551302 0.021731982 0.23 1.5852503e-38
0.055494066 0.022006068 0.22900002 1.4194437e-38
0.056650899 0.022015441 0.23300001 1.4562509e-38
0.056894034 0.021733308 0.23400001 1.4746528e-38
0.057270654 0.022109929 0.23400001 1.3271771e-38
0.056860548 0.020104693 0.23700002 1.4655421e-38
0.057483524 0.020189522 0.23800001 1.5116399e-38
0.058632702 0.020955641 0.23800001 1.3917134e-38
0.057241999 0.02163049 0.23700002 1.5669191e-38
0.058318801 0.021676123 0.23750001 1.3641271e-38
0.058318801 0.022058379 0.23750001 1.3087744e-38
0.058109723 0.020274352 0.23900001 1.5485166e-38
0.059263729 0.02065902 0.23900001 1.3917488e-38
0.058352858 0.01881407 0.24000001 1.474762e-38
0.059897967 0.020552322 0.24000001 1.327358e-38
0.060207613 0.018888488 0.24600001 1.4655071e-38
0.06005482 0.019760359 0.24700001 1.5300788e-38
0.060297951 0.018642899 0.24800001 1.3088118e-38
0.061342619 0.019118834 0.24900001 1.5484446e-38
0.062393717 0.020000363 0.25 1.5761386e-38
0.062487274 0.017726814 0.252 1.3458704e-38
0.06345126 0.01954172 0.25100002 1.5300056e-38
0.06345126 0.020080365 0.25100002 1.4101531e-38
0.064364053 0.019425966 0.25300002 1.5392604e-38
0.063392021 0.018276315 0.25400001 1.5576642e-38
0.063641593 0.017527429 0.25500003 1.4287369e-38
0.064052016 0.017937848 0.25500003 1.5668851e-38
0.064462438 0.019169109 0.25500003 1.6222717e-38
0.065588474 0.017664898 0.257 1.5945786e-38
0.066698976 0.017630531 0.25650001 1.4470664e-38
0.064715229 0.018214207 0.25600001 1.631456e-38
0.065461278 0.018249381 0.25650001 1.6222006e-38
0.06636335 0.018008193 0.25600001 1.4378831e-38
0.066515751 0.017385511 0.259 1.5853229e-38
0.065979198 0.016259529 0.26100001 1.3919326e-38
0.066908076 0.016384123 0.26300001 1.4380304e-38
0.067360416 0.016425118 0.26366666 1.4840544e-38
0.068012297 0.016871326 0.264 1.5762122e-38
0.068269916 0.016508717 0.26500002 1.557738e-38
0.068527542 0.016356952 0.266 1.5393339e-38
0.069300406 0.016324952 0.26900002 1.5301516e-38
0.070427157 0.014647389 0.27000001 1.4380655e-38
0.069340751 0.015299233 0.27000001 1.3551267e-38
0.070572011 0.015226807 0.27000001 1.5301868e-38
