# .PCD v0.7 - Point Cloud Data file format
VERSION 0.7
FIELDS x y z rgb
SIZE 4 4 4 4
TYPE F F F F
COUNT 1 1 1 1
WIDTH 104
HEIGHT 1
VIEWPOINT 0 0 0 1 0 0 0
POINTS 104
DATA ascii
0.052720342 0.018839298 0.164 1.3688179e-38
0.053072285 0.018795304 0.164 1.387257e-38
0.052702744 0.01956078 0.164 1.3137525e-38
0.053204264 0.019631168 0.16400002 1.322936e-38
0.053661466 0.018777128 0.16500001 1.4241353e-38
0.053860642 0.01930826 0.16500001 1.3873649e-38
0.05392703 0.020104958 0.16500001 1.3138242e-38
0.054387443 0.018890928 0.16600001 1.4242072e-38
0.054521032 0.019291691 0.16600001 1.4058041e-38
0.063728742 0.018666049 0.19000001 1.415276e-38
0.064238414 0.018717017 0.19000001 1.3324078e-38
0.063974619 0.018402454 0.19150001 1.4887808e-38
0.059840932 0.017768396 0.19700001 1.5534606e-38
0.055507645 0.022101684 0.19700001 1.4702687e-38
0.058976207 0.017274346 0.19800001 1.664383e-38
0.059422355 0.01736995 0.19800001 1.562824e-38
0.060250923 0.017274346 0.19800001 1.5810474e-38
0.059454229 0.018389722 0.19800001 1.5442773e-38
0.059754498 0.016560867 0.19900002 1.5904826e-38
0.06023493 0.016560867 0.19900002 1.5718278e-38
0.065258801 0.017824382 0.2 1.5809041e-38
0.06023493 0.018802889 0.19900002 1.5258742e-38
0.059583139 0.019332174 0.19950001 1.5074708e-38
0.060323026 0.019326573 0.2 1.5166905e-38
0.064722404 0.017536078 0.20100001 1.5068958e-38
0.06536942 0.017697832 0.20100001 1.5806523e-38
0.066016436 0.017697832 0.20100001 1.5164751e-38
0.065531172 0.018668355 0.20100001 1.5531015e-38
0.066016436 0.018452683 0.20100002 1.5163672e-38
0.060840309 0.019638879 0.20100001 1.5443489e-38
0.059869785 0.020609401 0.20100002 1.4705565e-38
0.060516804 0.020609401 0.20099999 1.4797759e-38
0.060193293 0.021256417 0.20100001 1.4703403e-38
0.063743934 0.01664797 0.20200001 1.5255861e-38
0.064231612 0.01656669 0.20200001 1.5072184e-38
0.063743934 0.017623322 0.20200001 1.525371e-38
0.064394176 0.017623322 0.20200001 1.5161154e-38
0.06471929 0.018110998 0.20200001 1.5161154e-38
0.065044403 0.018273557 0.20200001 1.5068958e-38
0.059517413 0.020549377 0.20200001 1.470305e-38
0.059517413 0.021037053 0.20200001 1.470305e-38
0.060817882 0.021362171 0.20200001 1.4611928e-38
0.061143 0.021362171 0.20200001 1.4796319e-38
0.064549588 0.018527383 0.20300001 1.5252634e-38
0.06307932 0.019507563 0.20300001 1.6089937e-38
0.06177241 0.021304561 0.20300001 1.5073267e-38
0.057633866 0.032794453 0.20300001 1.2959239e-38
0.058341779 0.032739997 0.20300001 1.295888e-38
0.059450019 0.019931996 0.20400001 1.4887441e-38
0.063718393 0.019931996 0.20400001 1.5536761e-38
0.059450019 0.020752836 0.20400001 1.4702331e-38
0.06207671 0.020917006 0.20400001 1.5350214e-38
0.064195707 0.018215001 0.20500001 1.5808681e-38
0.059741437 0.019534783 0.20500001 1.5072551e-38
0.064360678 0.019369809 0.205 1.5440618e-38
0.065680467 0.019369811 0.20500001 1.5068602e-38
0.059411492 0.021019539 0.20500001 1.4702331e-38
0.062710948 0.021349486 0.20500001 1.4981432e-38
0.059369754 0.019464297 0.20600002 1.5627167e-38
0.059369754 0.020458963 0.20600002 1.5163666e-38
0.063569456 0.020569483 0.20600002 1.5351291e-38
0.06434308 0.020458963 0.20600002 1.5441335e-38
0.06341473 0.021254696 0.20600002 1.5073627e-38
0.063182637 0.022116739 0.20600002 1.4611928e-38
0.056385756 0.033389617 0.20600002 1.2959599e-38
0.057048865 0.033389617 0.20600002 1.3234028e-38
0.064322263 0.01855929 0.20700002 1.6918263e-38
0.063989095 0.019558784 0.20700002 1.6182133e-38
0.064433314 0.019336674 0.20700002 1.6366527e-38
0.065588281 0.019758683 0.20700002 1.5068602e-38
0.063293904 0.020992368 0.208 1.5259098e-38
0.056659471 0.03321854 0.20700002 1.2959599e-38
0.056365944 0.033875875 0.20900001 1.3331266e-38
0.056618232 0.034380451 0.20900001 1.2962842e-38
0.057543289 0.03454864 0.20900001 1.2959239e-38
0.058832597 0.018490272 0.21000001 1.38794e-38
0.059508584 0.018659268 0.21000001 1.5353813e-38
0.060184572 0.018828265 0.21000001 1.673639e-38
0.059846576 0.019673247 0.21000001 1.5720439e-38
0.059846576 0.020349234 0.21000001 1.5164747e-38
0.063902497 0.020180238 0.21000001 1.5626801e-38
0.066268452 0.020518232 0.21000001 1.488529e-38
0.059846576 0.021363214 0.21000001 1.4334263e-38
0.058433544 0.018917924 0.21100001 1.4612649e-38
0.05911275 0.018917924 0.21100001 1.369429e-38
0.059339151 0.01971033 0.21100001 1.4060557e-38
0.064511091 0.021054855 0.21200001 1.5443489e-38
0.058987416 0.019782884 0.21300001 1.4334623e-38
0.059501648 0.020297118 0.21300001 1.3966562e-38
0.05967306 0.021325581 0.21300001 1.4333904e-38
0.060233373 0.018584477 0.215 1.4064871e-38
0.059541289 0.020660721 0.215 1.4425021e-38
0.06374196 0.020220192 0.21400002 1.5811916e-38
0.059747256 0.021647576 0.21450001 1.4517217e-38
0.059470579 0.020409167 0.21600001 1.4610491e-38
0.059818231 0.021799767 0.21600001 1.4700529e-38
0.059818231 0.022147417 0.21600001 1.4517217e-38
0.059163805 0.020736491 0.21700001 1.4516138e-38
0.059396643 0.021551432 0.21700001 1.4792722e-38
0.11141829 0.036507159 0.40000001 1.3785765e-38
0.11141829 0.037150957 0.40000001 1.3783612e-38
0.11266494 0.036598425 0.40100002 1.3785767e-38
0.11234224 0.037889238 0.40100002 1.3966924e-38
0.11391643 0.037336711 0.40200001 1.507543e-38
