# .PCD v0.7 - Point Cloud Data file format
VERSION 0.7
FIELDS x y z rgb
SIZE 4 4 4 4
TYPE F F F F
COUNT 1 1 1 1
WIDTH 966
HEIGHT 1
VIEWPOINT 0 0 0 1 0 0 0
POINTS 966
DATA ascii
0.051610198 -0.0052912994 0.18475001 1.737167e-38
0.052126471 -0.0054471358 0.185 1.755678e-38
0.061571348 -0.0052164579 0.18475001 1.4721337e-38
0.050935447 -0.0048516239 0.185 1.7737216e-38
0.051530957 -0.0048516239 0.185 1.7554622e-38
0.056592815 -0.0033628442 0.185 1.8115712e-38
0.062547937 -0.0036606002 0.185 1.4529401e-38
0.057188325 -0.0026184542 0.185 1.8761084e-38
0.050935447 -0.0014274302 0.185 1.8387271e-38
0.051530957 -0.0012785522 0.185 1.8112118e-38
0.050797783 -0.00045948685 0.18450001 1.8017409e-38
0.051594354 -0.0005042922 0.1848 1.7186205e-38
0.050546452 0.00050760462 0.18466668 1.7190875e-38
0.051688638 0.0003577325 0.18450001 1.7373119e-38
0.052126471 0.00035910544 0.185 1.737563e-38
0.057634961 0.00021022744 0.185 1.6259573e-38
0.052437 0.0018378966 0.18400002 1.7744414e-38
0.053317498 0.0017982591 0.185 1.7190517e-38
0.052140854 0.0025782627 0.18400002 1.7561815e-38
0.059293643 -0.0075721378 0.186 1.6473773e-38
0.050612044 -0.0060753105 0.186 1.76479e-38
0.061089836 -0.0060753105 0.186 1.5644731e-38
0.050312676 -0.0054765795 0.186 1.7367e-38
0.052408237 -0.0051772143 0.186 1.7555701e-38
0.05151014 -0.0021835596 0.186 1.8756767e-38
0.053705484 -0.0023831367 0.186 1.8484486e-38
0.05420443 -0.0021835596 0.186 1.9129867e-38
0.051659822 -0.0015848288 0.186 1.89426e-38
0.052408237 -0.0014351461 0.186 1.7929521e-38
0.057796814 -0.0015848288 0.186 1.7469989e-38
0.058096182 -0.0012854633 0.186 1.6454401e-38
0.052408237 -0.00058694405 0.186 1.7189074e-38
0.056898717 -8.8001638e-05 0.186 1.7189805e-38
0.057497445 -0.00058694405 0.186 1.7189445e-38
0.058195967 -0.00058694399 0.186 1.6079861e-38
0.050312676 0.0002113638 0.186 1.700612e-38
0.057397664 0.00041094076 0.186 1.6353564e-38
0.054354113 0.001708191 0.186 1.6727736e-38
0.055102523 0.001708191 0.186 1.6631947e-38
0.052707601 0.0029056529 0.186 1.7377424e-38
0.053456016 0.0023069219 0.186 1.7283072e-38
0.052707601 0.0032050184 0.186 1.7193753e-38
0.060515355 -0.0070108981 0.18699999 1.5461783e-38
0.052389026 -0.0061079734 0.18700001 1.783337e-38
0.060816329 -0.0061079734 0.18700001 1.655985e-38
0.060515352 -0.0052050487 0.18700001 1.6269243e-38
0.061719254 -0.0055060238 0.18700001 1.5272711e-38
0.05088415 -0.0049040737 0.18700001 1.7640704e-38
0.051486101 -0.004302124 0.18700001 1.7826533e-38
0.052389026 -0.0045027738 0.18699999 1.7831209e-38
0.062622182 -0.0041516367 0.18700001 1.425281e-38
0.056000728 -0.0033991991 0.18700001 1.8576693e-38
0.057355117 -0.0037001742 0.18700001 1.8023513e-38
0.051486101 -0.0024962742 0.18700001 1.8292552e-38
0.052449219 -0.002375884 0.18700001 1.7929517e-38
0.05339228 -0.0022956242 0.18699999 1.793167e-38
0.057505604 -0.0021952991 0.18700001 1.7931323e-38
0.053517684 -0.0015181057 0.18700001 1.8114271e-38
0.057656091 -0.0012923746 0.18700001 1.7655455e-38
0.058709502 -0.001442862 0.18700001 1.6358964e-38
0.05901048 -0.001442862 0.18700001 1.6174213e-38
0.05720463 -0.00084091211 0.18700001 1.737779e-38
0.058709502 -0.00069042464 0.18700001 1.6079142e-38
0.05901048 -0.00099139963 0.18700001 1.60813e-38
0.050583176 0.0005134751 0.18700001 1.7377061e-38
0.050583176 0.0011154249 0.18700001 1.7746927e-38
0.053291954 0.0029212746 0.18700001 1.7283433e-38
0.054646343 0.0020183499 0.18700001 1.7099392e-38
0.052820474 -0.0064432211 0.18800001 1.8109955e-38
0.05055109 -0.0055354675 0.18800001 1.690602e-38
0.052971765 -0.0058380519 0.18800001 1.7648976e-38
0.053274348 -0.0056867599 0.18800001 1.7187998e-38
0.06083896 -0.0055354675 0.18800001 1.6180643e-38
0.061141547 -0.0052328832 0.18800001 1.6638026e-38
0.052669179 -0.0042646131 0.18800001 1.8015242e-38
0.053274348 -0.0041738376 0.18800001 1.9123747e-38
0.057409674 -0.004123407 0.18800001 1.7654002e-38
0.058115702 -0.0040225456 0.18800001 1.7285581e-38
0.060536377 -0.0040225456 0.18800001 1.6543326e-38
0.052568316 -0.0035686688 0.18800001 1.8477299e-38
0.053576931 -0.0035686688 0.18800001 1.921954e-38
0.054182105 -0.0034173767 0.18800001 1.9591564e-38
0.060536377 -0.0035686688 0.18800001 1.6453287e-38
0.062654465 -0.003518238 0.18800001 1.4889196e-38
0.051458843 -0.0026609157 0.18800001 1.7830134e-38
0.05256832 -0.0028122079 0.18800001 1.8295064e-38
0.053576931 -0.0028122079 0.18800001 1.8299012e-38
0.054333396 -0.0028122079 0.18800001 1.8575967e-38
0.05539244 -0.0022070389 0.18800001 1.8759292e-38
0.057207949 -0.0023583311 0.18800001 1.7096887e-38
0.058418285 -0.0022070389 0.18800001 1.7930966e-38
0.05967905 -0.0024087618 0.18800001 1.5900129e-38
0.060385086 -0.0025852695 0.18800001 1.553565e-38
0.062503174 -0.0025096233 0.18800001 1.5161115e-38
0.053879518 -0.0012992856 0.18800001 1.7561099e-38
0.054484688 -0.0016018701 0.18800001 1.8944033e-38
0.056905363 -0.0012992856 0.18800001 1.7097244e-38
0.057308812 -0.0015010085 0.18800001 1.7007206e-38
0.062351882 -0.0016018701 0.18800001 1.5256914e-38
0.053274348 -0.00059325527 0.18800001 1.7650052e-38
0.056905363 -0.00069411675 0.18800001 1.7560023e-38
0.050248504 0.00036492877 0.18800001 1.7007925e-38
0.057207949 0.00021363654 0.18800001 1.7186921e-38
0.050248504 0.0012726821 0.18800001 1.5814417e-38
0.054571707 -0.0072886772 0.18900001 1.7560736e-38
0.055484291 -0.0073900758 0.18900001 1.6819565e-38
0.056396872 -0.0074914731 0.18900001 1.6910312e-38
0.05842483 -0.0070858812 0.18900001 1.7563578e-38
0.059033219 -0.0070858812 0.18900001 1.7749405e-38
0.060249995 -0.0070858812 0.18900001 1.7298494e-38
0.061770964 -0.0070858812 0.18900001 1.3072614e-38
0.053405631 -0.0066295899 0.18900001 1.8018837e-38
0.05842483 -0.006781687 0.18900001 1.7009332e-38
0.059185315 -0.0066295904 0.18900001 1.7285913e-38
0.050515786 -0.0057170084 0.18900001 1.6815984e-38
0.053557727 -0.0052607176 0.18900001 1.7647897e-38
0.059134617 -0.0057677072 0.18900001 1.6914264e-38
0.050819978 -0.0049565239 0.18900001 1.7087533e-38
0.051124174 -0.004348136 0.18900001 1.6995335e-38
0.052036755 -0.0040439419 0.18900001 1.7827975e-38
0.053709824 -0.0045002326 0.18900001 1.8665286e-38
0.056903861 -0.0040439419 0.18900001 1.8300456e-38
0.058120638 -0.004348136 0.18900001 1.7285216e-38
0.060478143 -0.0042720875 0.18900001 1.6449331e-38
0.06278494 -0.0044495338 0.18900001 1.4894942e-38
0.063291937 -0.0049565239 0.18900001 1.4718461e-38
0.052036755 -0.0034355542 0.18900001 1.8290032e-38
0.056802463 -0.0036383502 0.18900001 1.8484493e-38
0.058120638 -0.0034355542 0.18900001 1.8300819e-38
0.060249995 -0.0035876511 0.18900001 1.6357861e-38
0.062480748 -0.003536952 0.18900001 1.5534209e-38
0.051428366 -0.0028271663 0.18900001 1.7182605e-38
0.05561104 -0.002751118 0.18900001 1.8760724e-38
0.056637697 -0.0024849479 0.18900001 1.7558588e-38
0.05751225 -0.0028271663 0.18900001 1.7927007e-38
0.058120638 -0.0026750695 0.18900001 1.8300106e-38
0.059337411 -0.0026243704 0.18900001 1.6638064e-38
0.060858384 -0.0023708753 0.18900001 1.5627488e-38
0.06136537 -0.0024215744 0.18900001 1.5812955e-38
0.062422808 -0.0025229722 0.18900001 1.5532415e-38
0.063393332 -0.0025229724 0.18900001 1.497852e-38
0.05386192 -0.0010020027 0.18900001 1.7561452e-38
0.055484291 -0.0016103905 0.18900001 1.8391584e-38
0.056599665 -0.0014075948 0.18900001 1.6820303e-38
0.062075157 -0.0016103906 0.18900001 1.5995919e-38
0.056903861 -8.9421017e-05 0.18900001 1.7372399e-38
0.049755298 0.00036686985 0.18900001 1.7560382e-38
0.053557727 0.0002147729 0.18900001 1.7466745e-38
0.05751225 0.00051896682 0.18900001 1.6724499e-38
0.049603205 0.0012794517 0.18900001 1.5257287e-38
0.055991281 0.0014315486 0.18900001 1.6722704e-38
0.056903861 0.0017357424 0.18900001 1.672342e-38
0.05386192 0.0032567119 0.18900001 1.7191237e-38
0.053535294 -0.0071233725 0.19000001 1.811427e-38
0.054146901 -0.0071233725 0.19000001 1.8207187e-38
0.058733955 -0.0077349795 0.19000001 1.7752638e-38
0.059549432 -0.0073272414 0.19000001 1.7293462e-38
0.052617885 -0.0065117655 0.19000001 1.7648979e-38
0.054391541 -0.0066952473 0.19000001 1.8019199e-38
0.05567592 -0.0068175695 0.19000001 1.6911041e-38
0.059957169 -0.0066646673 0.19000001 1.7379185e-38
0.060415871 -0.0066646673 0.19000001 1.7290584e-38
0.061486185 -0.0066646677 0.19000001 1.6195385e-38
0.062403597 -0.006817569 0.19000001 1.4175003e-38
0.054146901 -0.0055943555 0.19000001 1.7834442e-38
0.059880719 -0.0055943555 0.19000001 1.6636599e-38
0.060415875 -0.0055943555 0.19000001 1.6544398e-38
0.061180383 -0.005900159 0.19000001 1.7007527e-38
0.050783064 -0.004371142 0.19000001 1.7183682e-38
0.051700473 -0.0040653385 0.19000001 1.7455953e-38
0.054146901 -0.0046769455 0.19000001 1.8850757e-38
0.056899134 -0.0040653385 0.19000001 1.8668883e-38
0.057663642 -0.0046769455 0.19000001 1.7101898e-38
0.060415871 -0.0049827485 0.19000001 1.635857e-38
0.06158812 -0.0046259784 0.19000001 1.6635875e-38
0.062525913 -0.0045546242 0.19000001 1.5902624e-38
0.051700473 -0.0034537318 0.19000001 1.7548511e-38
0.058733955 -0.0034537318 0.19000001 1.8393015e-38
0.06179199 -0.0036066333 0.19000001 1.7100096e-38
0.062403597 -0.003759535 0.19000001 1.6362177e-38
0.050783064 -0.0025363215 0.19000001 1.7094373e-38
0.051394671 -0.0028421248 0.19000001 1.6816341e-38
0.059345558 -0.0028421248 0.19000001 1.756038e-38
0.06179199 -0.0025363215 0.19000001 1.5998065e-38
0.063932613 -0.0026892233 0.19000001 1.4521138e-38
0.064238414 -0.0023834198 0.19000001 1.4796287e-38
0.054758508 -0.0013131078 0.19000001 1.7652216e-38
0.05567592 -0.0013131077 0.19000001 1.8575975e-38
0.056593329 -0.0010073044 0.19000001 1.691358e-38
0.06179199 -0.0016189113 0.19000001 1.6088111e-38
0.054146901 -0.00039569757 0.19000001 1.728558e-38
0.056899134 -0.00039569757 0.19000001 1.7188368e-38
0.049254045 0.00052171265 0.19000001 1.6540473e-38
0.054146901 0.00021590927 0.19000001 1.7378133e-38
0.057204936 0.00021590927 0.19000001 1.7185845e-38
0.053535294 0.0011333195 0.19000001 1.8575973e-38
0.054452706 0.0028152382 0.19000001 1.7191237e-38
0.055981722 0.0020507297 0.19000001 1.7465301e-38
0.056287527 0.0020507297 0.19000001 1.7096518e-38
0.051781155 -0.0065803104 0.192 1.6819221e-38
0.052244689 -0.0065803104 0.192 1.7372392e-38
0.053171758 -0.006889333 0.192 1.7740095e-38
0.055798449 -0.0065803104 0.192 1.7279829e-38
0.056880027 -0.006889333 0.192 1.7003231e-38
0.050333049 -0.0056237993 0.19100003 1.7091853e-38
0.0547393 -0.0056237997 0.19100001 1.8387617e-38
0.055544402 -0.0052368431 0.19183333 1.8573808e-38
0.056374043 -0.0052226572 0.19133334 1.7652204e-38
0.058428258 -0.0051626801 0.19100001 1.6917141e-38
0.059452966 -0.0051114443 0.191 1.7007183e-38
0.051337689 -0.0040974333 0.19150001 1.7366637e-38
0.0547393 -0.0042404416 0.19100001 1.9866351e-38
0.055798449 -0.0042626425 0.192 1.9130227e-38
0.056571007 -0.0042626429 0.192 1.8760002e-38
0.057343557 -0.004417154 0.192 1.8392652e-38
0.059657913 -0.0043172948 0.19100001 1.6728806e-38
0.051518448 -0.0035439762 0.19159999 1.7552107e-38
0.052279994 -0.0037793221 0.19100001 1.7825098e-38
0.055531859 -0.0036642714 0.19140001 1.9222781e-38
0.056374043 -0.0036834467 0.19133334 1.885328e-38
0.059606671 -0.0036256155 0.191 1.7098677e-38
0.050742932 -0.0025496704 0.19100001 1.7555351e-38
0.051338494 -0.0025555403 0.19150001 1.7186205e-38
0.0547393 -0.001012606 0.19100001 1.7008278e-38
0.055798449 -0.0010179075 0.192 1.8297229e-38
0.056276366 -0.001012606 0.19100001 1.7928452e-38
0.063987546 -0.0016359524 0.192 1.5069644e-38
0.064451076 -0.0016359524 0.192 1.4884891e-38
0.050081532 -9.0840396e-05 0.192 1.8105644e-38
0.0547393 -0.00039778018 0.19100001 1.6917157e-38
0.0556481 -0.00033796369 0.1918 1.74671e-38
0.056430072 -0.00039778018 0.19100001 1.7557512e-38
0.054534357 0.00042198753 0.19100003 1.7285227e-38
0.055473574 0.00034055996 0.19119999 1.7189071e-38
0.056583781 0.00037075207 0.191 1.7092934e-38
0.057198606 0.00052445848 0.19100001 1.6905665e-38
0.049154464 0.0014542716 0.192 1.6354284e-38
0.054431885 0.0011392843 0.19100001 1.7746572e-38
0.05535413 0.0011392843 0.19100003 1.7095445e-38
0.05666063 0.001369844 0.19100001 1.6906017e-38
0.057189047 0.0011452491 0.192 1.6720548e-38
0.055499434 0.0027606105 0.19150001 1.7560733e-38
0.056891192 0.002061523 0.19100001 1.7093644e-38
0.057498071 0.0020723164 0.192 1.6724862e-38
0.0547393 0.0032911745 0.19100001 1.7099042e-38
0.055345327 0.0032997902 0.19150001 1.7652216e-38
0.050549462 -0.0066145831 0.193 1.6640594e-38
0.05127427 -0.0066145831 0.193 1.6544436e-38
0.05655501 -0.0066145831 0.193 1.7003236e-38
0.049721111 -0.0059933192 0.193 1.6362924e-38
0.050031744 -0.005838003 0.193 1.6818147e-38
0.055623114 -0.005838003 0.193 1.8018474e-38
0.056451466 -0.0055791433 0.193 1.7465657e-38
0.057486907 -0.0050614234 0.193 1.7746196e-38
0.059350695 -0.005838003 0.193 1.7191572e-38
0.059971962 -0.0041295281 0.193 1.7281986e-38
0.05655501 0.0027043733 0.193 1.7838755e-38
0.056244377 0.0031703212 0.193 1.7746205e-38
0.056535803 -0.010083511 0.19400001 1.4719948e-38
0.057264369 -0.010291672 0.19400001 1.454059e-38
0.01844235 -0.009459028 0.19400001 1.5395231e-38
0.056535803 -0.0096151484 0.19400001 1.6000606e-38
0.057316408 -0.0096151484 0.19400001 1.5815492e-38
0.017817866 -0.0085223028 0.19400001 1.5487427e-38
0.018598469 -0.0085223028 0.19400001 1.5395231e-38
0.049978733 -0.0075855795 0.19400001 1.3349641e-38
0.050290976 -0.0072733383 0.19400001 1.5730878e-38
0.047793042 -0.0060243728 0.19400001 1.3811697e-38
0.048573647 -0.0060243728 0.19400001 1.5183463e-38
0.049393281 -0.006609825 0.19400001 1.5180949e-38
0.057160284 -0.0066488553 0.19400001 1.691247e-38
0.05778477 -0.0053998898 0.19400001 1.7195884e-38
0.058409251 -0.0050876485 0.19400001 1.7194089e-38
0.049978733 0.00022045472 0.19400001 1.6904221e-38
0.050707132 -0.0069969785 0.19500001 1.6094619e-38
0.051177908 -0.0069969785 0.19500001 1.6366524e-38
0.053061012 -0.0069969785 0.19500001 1.7003969e-38
0.050864056 -0.0054277242 0.19500001 1.6723792e-38
0.051177908 -0.0051138736 0.19500001 1.7091489e-38
0.048667099 -0.001661514 0.19500001 1.7461713e-38
0.057434108 -0.0060864794 0.19600001 1.7002881e-38
0.057434108 -0.005771019 0.19600001 1.700396e-38
0.047339376 -0.0035627966 0.19599999 1.4630299e-38
0.048916675 -0.0011968442 0.19600001 1.7184406e-38
0.049547598 -0.0015123044 0.19600001 1.7092211e-38
0.050178517 -0.0015123044 0.19600001 1.6999295e-38
0.049863055 0.0005381878 0.19600001 1.6628353e-38
0.049863055 0.0011691086 0.19600001 1.6262088e-38
0.050809439 0.0018000293 0.19600001 1.6079495e-38
0.057434108 0.003219601 0.19600001 1.7746205e-38
0.046392992 0.0065319347 0.19600001 1.4888875e-38
0.046392992 0.0074783158 0.19600001 1.4703406e-38
0.047129065 0.0076886229 0.19600002 1.4699807e-38
0.047339372 0.0085035609 0.19600001 1.4515057e-38
0.051385742 -0.0073858122 0.19700001 1.52699e-38
0.052019879 -0.0070687425 0.19700001 1.6182133e-38
0.048215043 -0.0032639047 0.19700001 1.6000626e-38
0.04694676 -0.0029468348 0.19700001 1.3073778e-38
0.047580902 -0.0029468348 0.19700001 1.5911675e-38
0.049166251 -0.0023126951 0.19700001 1.7552474e-38
0.051385742 -0.0029468348 0.19700001 1.8197839e-38
0.048373576 -0.0012029505 0.19700001 1.6728104e-38
0.049483322 -0.0010444155 0.19700001 1.6999653e-38
0.065336816 -0.0013614855 0.19700001 1.5902648e-38
0.049800392 -0.00041027588 0.19700001 1.6904221e-38
0.050117459 -9.3206036e-05 0.19700001 1.6995337e-38
0.05820274 0.0027604226 0.19700001 1.7653292e-38
0.058149893 0.0031831823 0.19700001 1.7653295e-38
0.046312623 0.0056140516 0.19700001 1.4432218e-38
0.046312623 0.0065652607 0.19700001 1.4431141e-38
0.046471156 0.0074372031 0.19700001 1.4520098e-38
0.047897972 0.0091018192 0.19700001 1.442322e-38
0.051965259 -0.007423304 0.19800001 1.6093897e-38
0.059613567 -0.005829907 0.19800001 1.682638e-38
0.051646583 -0.00439585 0.19800001 1.7091489e-38
0.051646583 -0.003917831 0.19800001 1.7736858e-38
0.046866391 -0.0029617932 0.19800001 1.3165974e-38
0.048459787 -0.0029617932 0.19800001 1.60903e-38
0.047822427 -0.0010497172 0.19800001 1.6547313e-38
0.047663089 -0.00041235849 0.19800001 1.6270007e-38
0.048619129 -0.00041235849 0.19800001 1.6819577e-38
0.050371863 -0.00041235849 0.19800001 1.6904221e-38
0.050053183 0.00022500019 0.19800001 1.6719829e-38
0.049415827 0.0014997175 0.19800001 1.7462429e-38
0.046653938 0.005855002 0.19800001 1.4890312e-38
0.047185071 0.0059612286 0.19800001 1.5349846e-38
0.047185071 0.0065985871 0.19800001 1.498107e-38
0.046229031 0.0078733042 0.19800001 1.4705571e-38
0.047185071 0.0072359457 0.19800001 1.4519735e-38
0.046866391 0.0085106632 0.19800001 1.4887078e-38
0.047185071 0.0088293422 0.19800001 1.4610488e-38
0.052547999 -0.0084216613 0.19900002 1.4081801e-38
0.053133961 -0.0084639816 0.2 1.4997992e-38
0.052761525 -0.0073540322 0.19900002 1.6090655e-38
0.053508863 -0.0071405065 0.19900002 1.6729183e-38
0.059914641 -0.0061796401 0.19900002 1.682638e-38
0.049723949 -0.0058789807 0.19966668 1.5366055e-38
0.050946556 -0.0055390624 0.19900002 1.7095815e-38
0.051846366 -0.0033136085 0.2 1.755247e-38
0.047288213 -0.0026609127 0.19933335 1.3624068e-38
0.04835853 -0.0025536132 0.19933335 1.6458724e-38
0.049024824 -0.0026564631 0.19900002 1.7187647e-38
0.047271699 -0.0012887331 0.1997143 1.4538099e-38
0.048505813 -0.0015397123 0.19950001 1.6728826e-38
0.049024824 -0.0010550189 0.19900002 1.6727022e-38
0.050626267 -0.0010550189 0.19900002 1.6907098e-38
0.047228072 -0.00022296821 0.1998 1.4899681e-38
0.048627388 -9.4625422e-05 0.2 1.6544792e-38
0.049630046 -0.00041548244 0.19950001 1.6539391e-38
0.046213143 0.0015148662 0.2 1.2980134e-38
0.047440756 0.001753994 0.19975001 1.5440969e-38
0.048412785 0.0016221657 0.2 1.6358241e-38
0.049665403 0.001187003 0.19900002 1.7000732e-38
0.050946556 0.0018275807 0.19900002 1.6353924e-38
0.047259312 0.0025610356 0.2 1.5074706e-38
0.046248987 0.003215499 0.19900002 1.3428867e-38
0.046052195 0.004090053 0.2 1.3617579e-38
0.049271178 0.0044119512 0.2 1.5710712e-38
0.046189506 0.0055822097 0.19966668 1.2968254e-38
0.046097212 0.0077728061 0.19950001 1.3152641e-38
0.046235248 0.0087468326 0.19975001 1.3794051e-38
0.047017891 0.0089185275 0.2 1.452118e-38
0.047743667 0.0091942241 0.19900002 1.4515416e-38
0.047738239 -0.0023596531 0.20100001 1.3897415e-38
0.048223503 -0.0023596531 0.20100001 1.6093544e-38
0.047738239 -0.0017126376 0.20100001 1.4812885e-38
0.048223503 -0.0015508838 0.20100001 1.6180334e-38
0.050488058 -9.5098541e-05 0.20100001 1.6812741e-38
0.049841043 0.00055191712 0.20100001 1.6356079e-38
0.046605963 0.0014685226 0.20099999 1.3527187e-38
0.047576487 0.0015224406 0.20100001 1.5807953e-38
0.049679287 0.004110503 0.20100001 1.5710712e-38
0.046929471 0.0050810263 0.20100001 1.4709161e-38
0.047576487 0.0092866281 0.20100001 1.4978192e-38
0.053340182 -0.0078983866 0.20200001 1.545321e-38
0.054315533 -0.0075732693 0.20200001 1.6456193e-38
0.060167648 -0.007248152 0.20200001 1.7096136e-38
0.049763892 -9.5571668e-05 0.20200001 1.6817057e-38
0.047325514 0.0003921043 0.20200001 1.4351189e-38
0.048463423 0.00039210427 0.20200001 1.6269291e-38
0.049113657 0.00055466295 0.20200001 1.6635187e-38
0.047488071 0.0012048976 0.20200001 1.3793688e-38
0.048300862 0.0012048976 0.20200001 1.5991982e-38
0.049763892 0.0012048976 0.20200001 1.6632669e-38
0.048463423 0.0025053669 0.20200001 1.6083089e-38
0.04878854 0.0093328301 0.20200001 1.4515416e-38
0.049113657 0.0090077128 0.20200001 1.4515416e-38
0.050990429 -0.0056504006 0.20300001 1.6003141e-38
0.05981205 -0.0059771272 0.20300001 1.6823512e-38
0.050336976 -9.6044794e-05 0.20300001 1.6356079e-38
0.049520157 0.000230682 0.20300001 1.6542991e-38
0.050336976 0.000230682 0.20300001 1.6171688e-38
0.049356788 0.0013197713 0.20300001 1.6358241e-38
0.048049886 0.0028444964 0.20300001 1.5440246e-38
0.047559798 0.0033345865 0.20300001 1.4801358e-38
0.049356792 0.0041514034 0.20300001 1.5988378e-38
0.046742979 0.009379033 0.20300001 1.4163916e-38
0.047396433 0.009379033 0.20300001 1.4520098e-38
0.046089526 0.011012667 0.20300001 1.3347479e-38
0.054524977 -0.0087974295 0.20400001 1.4263311e-38
0.054360807 -0.0079765888 0.20400001 1.5910578e-38
0.060352944 -0.0064169914 0.20400001 1.7190496e-38
0.066509247 -0.0010815267 0.20400001 1.6271794e-38
0.067001753 -0.0010815267 0.20400001 1.6548383e-38
0.048614923 0.010081908 0.20400001 1.4884199e-38
0.050173014 0.00056290056 0.20500001 1.6450796e-38
0.04885323 0.0028725208 0.20500001 1.5255855e-38
0.047533445 0.0048521957 0.20500001 1.2970768e-38
0.049183175 0.0041923039 0.20500001 1.571431e-38
0.04951312 0.0084815994 0.20500001 1.4607612e-38
0.050337985 0.0088115456 0.20500001 1.4974593e-38
0.050337985 0.0093064643 0.20500001 1.4699086e-38
0.04769842 0.010131328 0.20500001 1.3879051e-38
0.04951312 0.010131328 0.20500001 1.4515416e-38
0.05116285 0.016070353 0.20500001 1.4428959e-38
0.019914668 -0.01302812 0.20600002 1.5672897e-38
0.051080871 -0.005733904 0.20600002 1.4907246e-38
0.048096873 0.0055389754 0.20600002 1.4709884e-38
0.050086204 0.0085229734 0.20600002 1.4790924e-38
0.050086204 0.01018075 0.20600002 1.442322e-38
0.046770651 0.011838526 0.20600002 1.325528e-38
0.05406487 0.014822523 0.20600002 1.341014e-38
0.051578201 0.015319856 0.20600002 1.5252964e-38
0.052572869 0.015319856 0.20600002 1.4423927e-38
0.053235978 0.015319856 0.20600002 1.3687083e-38
0.05174398 0.016148744 0.20600002 1.4428959e-38
0.052407093 0.016148744 0.20600002 1.4151297e-38
0.020677671 -0.010259463 0.20700002 1.5303035e-38
0.021510581 -0.010426044 0.20700002 1.4934613e-38
0.022176914 -0.010259463 0.20700002 1.4934254e-38
0.020560231 -0.0094493199 0.20750001 1.5395231e-38
0.021562943 -0.0094493199 0.20750001 1.521084e-38
0.049233381 0.0034167194 0.208 1.5532442e-38
0.048340648 0.0043652463 0.208 1.3428144e-38
0.049591869 0.0045829145 0.20775001 1.5347688e-38
0.050237704 0.0049232035 0.208 1.534553e-38
0.048563834 0.0059275264 0.208 1.4708805e-38
0.04761257 0.010755836 0.20750001 1.3247001e-38
0.048340648 0.010725957 0.208 1.3787214e-38
0.049568158 0.010614366 0.208 1.4792003e-38
0.050631959 0.010358236 0.20733334 1.4515056e-38
0.047559507 0.011618689 0.208 1.3983124e-38
0.046997692 0.012395741 0.20700002 1.3438953e-38
0.046997692 0.013228654 0.20700002 1.3439674e-38
0.05345583 0.014930454 0.20750001 1.3686726e-38
0.05099567 0.015560807 0.20700002 1.5072523e-38
0.05099567 0.016227137 0.20700002 1.4522233e-38
0.051576801 0.016640304 0.208 1.4154174e-38
0.05258112 0.016640304 0.208 1.3693557e-38
0.053630769 0.016392404 0.20740001 1.3229708e-38
0.021213839 -0.0091812452 0.20900001 1.5487427e-38
0.05047923 0.0036013378 0.20900001 1.6083092e-38
0.048797309 0.0046104891 0.20900001 1.4709158e-38
0.049301885 0.0047786809 0.20900001 1.4891028e-38
0.050546505 0.0077724955 0.20900002 1.5067868e-38
0.051488381 0.0078061339 0.20900001 1.5432335e-38
0.050815612 0.010665396 0.20900001 1.4606533e-38
0.051656574 0.010665396 0.20900001 1.4606533e-38
0.048685182 0.011450292 0.20900001 1.4428984e-38
0.049301885 0.01100178 0.20900001 1.4978195e-38
0.050142843 0.01100178 0.20900001 1.4607612e-38
0.051824763 0.01100178 0.20900001 1.4882757e-38
0.048460927 0.012010931 0.20900001 1.3973764e-38
0.048460927 0.014702002 0.20900001 1.4433653e-38
0.04862912 0.015038386 0.20900001 1.4706996e-38
0.049335524 0.015307492 0.20900002 1.5072172e-38
0.05047923 0.015374769 0.20900001 1.5257636e-38
0.051600512 0.015150513 0.20900001 1.5346233e-38
0.052329339 0.015038386 0.20900001 1.516005e-38
0.053170297 0.015038386 0.20900001 1.4146981e-38
0.050703485 0.016496047 0.20900001 1.4245292e-38
0.051488381 0.016720304 0.20900001 1.424637e-38
0.051656574 0.01722488 0.20900001 1.3970504e-38
0.052329339 0.01722488 0.20900001 1.3603521e-38
0.053506684 0.01722488 0.20900001 1.3141109e-38
0.051824763 0.018234031 0.20900001 1.3142902e-38
0.020639354 -0.0092251748 0.21000001 1.5395231e-38
0.049199786 0.0049705422 0.21000001 1.4524767e-38
0.049537778 0.011730406 0.21000001 1.5531727e-38
0.050720755 0.01105442 0.21000001 1.4515416e-38
0.048354805 0.01409636 0.21000001 1.4896429e-38
0.049284287 0.01460335 0.21000001 1.5533151e-38
0.054438684 0.014772346 0.21000001 1.3778204e-38
0.047678817 0.015786326 0.21000001 1.3254194e-38
0.04818581 0.01561733 0.21000001 1.3060801e-38
0.049143452 0.015673662 0.20999999 1.4888502e-38
0.055452663 0.015448333 0.21000001 1.3226828e-38
0.048354805 0.016462313 0.21000001 1.4161382e-38
0.04936878 0.016631309 0.21000002 1.4246014e-38
0.050270099 0.016687641 0.20999999 1.4060542e-38
0.049368784 0.017476292 0.21000002 1.3513486e-38
0.050382763 0.017476292 0.21000001 1.387867e-38
0.051058751 0.017476292 0.21000001 1.387831e-38
0.049368784 0.018490272 0.21000002 1.3428129e-38
0.050382763 0.018490272 0.21000002 1.3606039e-38
0.051227748 0.018490272 0.21000002 1.3695717e-38
0.05207273 0.018828265 0.21000001 1.3052867e-38
0.04936878 0.019673249 0.21000002 1.4090418e-38
0.049368784 0.020349236 0.21000002 1.4744797e-38
0.051301885 0.0036358002 0.21100001 1.5899054e-38
0.051301885 0.0049942113 0.21100001 1.5896183e-38
0.050283078 0.011786265 0.21100001 1.5715754e-38
0.051301885 0.01110706 0.21100001 1.4422141e-38
0.048585065 0.012635272 0.21100001 1.4895357e-38
0.048585065 0.013654081 0.21100001 1.5080101e-38
0.050283078 0.014842691 0.21100001 1.5624265e-38
0.050862599 0.011842124 0.21200001 1.4610486e-38
0.050862599 0.014913036 0.21200001 1.5624262e-38
0.019905739 -0.0095283734 0.21300001 1.5487427e-38
0.051788159 -0.0052431016 0.21300001 1.3899576e-38
0.051788159 0.0026417975 0.21300001 1.6452225e-38
0.050074052 0.0057271933 0.21300001 1.4248906e-38
0.051445335 0.0074413014 0.21300001 1.5346249e-38
0.051445339 0.011897984 0.21300001 1.4149508e-38
0.049559817 0.012412217 0.21300001 1.4798482e-38
0.049388409 0.013954915 0.21300001 1.4803515e-38
0.051445339 0.01498338 0.21300001 1.5532066e-38
0.021130769 -0.0090987803 0.215 1.5395231e-38
0.051236313 0.0033586849 0.215 1.5255855e-38
0.052620474 0.0047428478 0.215 1.5711791e-38
0.029781785 0.0054349289 0.215 1.3091782e-38
0.05082579 0.0057540815 0.21400002 1.5165455e-38
0.052966516 0.0050888881 0.215 1.5802908e-38
0.05019819 0.0071651321 0.215 1.406272e-38
0.052031297 0.011953843 0.21400002 1.4331744e-38
0.02666742 0.012528763 0.215 1.3091782e-38
0.050599705 0.012327008 0.21450001 1.5623561e-38
0.025975339 0.013739906 0.215 1.3091782e-38
0.049852148 0.013393865 0.215 1.4618767e-38
0.050599705 0.014398425 0.21450001 1.5440955e-38
0.052325886 0.015088897 0.21450001 1.5253682e-38
0.054786749 0.015053725 0.21400002 1.3686727e-38
0.025802318 0.016508233 0.215 1.2999587e-38
0.025802318 0.017373335 0.215 1.3091782e-38
0.022687951 0.018584475 0.21500002 1.3183978e-38
0.023380034 0.018584477 0.21500002 1.3183978e-38
0.025802318 0.0204877 0.215 1.2999587e-38
0.025802318 0.021525821 0.215 1.355204e-38
0.021476811 0.023429044 0.21500002 1.2999587e-38
0.021476811 0.024640188 0.21500002 1.2999587e-38
0.021476811 0.02533227 0.21500002 1.2999587e-38
0.020265667 0.03450235 0.21500002 1.3091778e-38
0.020186098 -0.0091411006 0.21600001 1.5487427e-38
0.03073149 -0.0061281323 0.21600001 1.3183978e-38
0.031484734 -0.006359899 0.21600001 1.3091782e-38
0.029920306 -0.0053169485 0.21600001 1.3828987e-38
0.030615605 -0.0053169485 0.21600001 1.3368369e-38
0.031484731 -0.0053169485 0.21600001 1.3183978e-38
0.032353856 -0.0053169485 0.21600001 1.2999947e-38
0.02835588 -0.0042739981 0.21600001 1.3921543e-38
0.02961611 -0.0045781918 0.21599999 1.3737152e-38
0.030615605 -0.0046216482 0.21600001 1.3368369e-38
0.026791453 -0.0032310472 0.21600001 1.4013378e-38
0.027486753 -0.0034048725 0.21600001 1.4013018e-38
0.02835588 -0.0034048723 0.21600001 1.3921543e-38
0.029572656 -0.0034048723 0.21600001 1.3644956e-38
0.030615605 -0.0034048723 0.21600001 1.3368369e-38
0.031484734 -0.0034048725 0.21600001 1.3091782e-38
0.026791453 -0.002883397 0.21600001 1.3921183e-38
0.027486753 -0.0025357469 0.21600001 1.3921183e-38
0.02835588 -0.0025357469 0.21600001 1.3829347e-38
0.029572656 -0.0025357469 0.21600001 1.3644956e-38
0.030615605 -0.0025357469 0.21600001 1.3276174e-38
0.027556282 -0.0015623264 0.21600001 1.3829346e-38
0.028355882 -0.0014927961 0.21600001 1.3737152e-38
0.029572656 -0.0014927961 0.21599999 1.3644956e-38
0.030615605 -0.0014927961 0.21600001 1.3184338e-38
0.032353856 -0.0014927961 0.21600001 1.2999945e-38
0.027834404 -0.00027602052 0.21600001 1.3460205e-38
0.02835588 -0.00027602052 0.21600001 1.3183979e-38
0.029572656 -0.00027602052 0.21600001 1.3460568e-38
0.030615605 -0.00027602055 0.21600001 1.3184698e-38
0.027834404 0.00059310492 0.21600001 1.3460205e-38
0.02835588 0.00059310498 0.21600001 1.3275815e-38
0.029572656 0.00059310492 0.21600001 1.3276175e-38
0.030615605 0.00059310498 0.21600001 1.3092503e-38
0.032006208 0.00024545475 0.21600001 1.3000668e-38
0.026791453 0.0019837057 0.21600001 1.3644596e-38
0.027486751 0.0016360554 0.21600001 1.3460205e-38
0.02835588 0.0016360554 0.21600001 1.3276174e-38
0.029572656 0.0016360555 0.21599999 1.3183978e-38
0.030615605 0.0016360556 0.21600001 1.3091782e-38
0.026791453 0.002679006 0.21600001 1.3368369e-38
0.027486753 0.002679006 0.21600001 1.3183978e-38
0.02835588 0.002679006 0.21600001 1.3276174e-38
0.029572656 0.002679006 0.21600001 1.3276174e-38
0.030615605 0.002679006 0.21600001 1.3091782e-38
0.031484731 0.002679006 0.21600001 1.2999587e-38
0.026617628 0.0032004812 0.21600001 1.3460565e-38
0.027486755 0.0032004814 0.21600001 1.3183978e-38
0.02835588 0.0032004814 0.21600001 1.3183978e-38
0.029572656 0.0032004814 0.21600001 1.3183978e-38
0.030615605 0.0032004814 0.21600001 1.2999587e-38
0.031426791 0.0031425394 0.21600001 1.3091782e-38
0.025400853 0.0047649071 0.21600001 1.3368009e-38
0.026443802 0.0044172574 0.21599999 1.3368009e-38
0.027486751 0.0044172569 0.21600001 1.3091782e-38
0.02835588 0.0044172569 0.21600001 1.2999587e-38
0.029572656 0.0044172574 0.21599999 1.3276174e-38
0.025227029 0.0054602074 0.21600001 1.3368009e-38
0.026443804 0.0054602069 0.21600001 1.3275813e-38
0.029398829 0.0054602074 0.21600001 1.3183978e-38
0.024473786 0.0063872742 0.21600001 1.3368369e-38
0.025227029 0.0063293325 0.21600001 1.3460205e-38
0.026443802 0.0063293329 0.21600001 1.3183978e-38
0.02835588 0.0063293325 0.21600001 1.2999587e-38
0.029225005 0.0063293325 0.21600001 1.3091782e-38
0.023546716 0.0077778758 0.21600001 1.3091782e-38
0.0243579 0.0075461096 0.21600001 1.3276174e-38
0.025227027 0.0075461096 0.21600001 1.3368369e-38
0.026443802 0.0075461087 0.21599999 1.3091782e-38
0.027486751 0.0075461082 0.21600001 1.2999587e-38
0.028321113 0.0074765785 0.21600001 1.3091782e-38
0.05077932 0.0071984585 0.21600001 1.4339306e-38
0.022735534 0.0087049427 0.21600001 1.3275813e-38
0.023488775 0.0085890591 0.21600001 1.3276174e-38
0.024357902 0.0085890591 0.21600001 1.3183978e-38
0.025227029 0.0085890591 0.21600001 1.3183978e-38
0.026443804 0.00858906 0.21600001 1.2999587e-38
0.0087136421 0.00963201 0.21600001 1.5210121e-38
0.0090612918 0.00963201 0.21600001 1.5210121e-38
0.021808466 0.0095161265 0.21600001 1.3736792e-38
0.02261965 0.0094581842 0.21600001 1.3276174e-38
0.023488777 0.0094581842 0.21600001 1.3276174e-38
0.024357902 0.0094581842 0.21600001 1.3183978e-38
0.025227029 0.0094581842 0.21600001 1.2999587e-38
0.0087136421 0.01032731 0.21600001 1.521084e-38
0.0090612918 0.01032731 0.21600001 1.521084e-38
0.019838449 0.01067496 0.21600001 1.3183618e-38
0.020620663 0.010588047 0.21600001 1.3183618e-38
0.021750525 0.010501135 0.21600001 1.35524e-38
0.02261965 0.010501135 0.21600001 1.3183978e-38
0.023488775 0.010501135 0.21600001 1.3183978e-38
0.024357904 0.010501135 0.21600001 1.3091782e-38
0.018679613 0.011254378 0.21600001 1.3828987e-38
0.019490799 0.011196435 0.21600001 1.3368009e-38
0.020533748 0.011196435 0.21600001 1.3644596e-38
0.021750525 0.011196436 0.21600001 1.3368008e-38
0.02261965 0.011196435 0.21600001 1.3183618e-38
0.023488775 0.011196436 0.21600001 1.3091782e-38
0.024357904 0.011196436 0.21600001 1.2999587e-38
0.0087136421 0.012760862 0.21600001 1.4749862e-38
0.017752547 0.012413211 0.21600001 1.3920823e-38
0.018621672 0.012413211 0.21600001 1.3736792e-38
0.019490799 0.012413211 0.21600001 1.3368009e-38
0.02053375 0.012413211 0.21599999 1.3275813e-38
0.021750525 0.012413211 0.21600001 1.3552399e-38
0.02261965 0.012413211 0.21600001 1.3183618e-38
0.023488775 0.012413211 0.21600001 1.2999587e-38
0.026344476 0.012363547 0.21599999 1.2999587e-38
0.050431669 0.012760862 0.21600001 1.5531366e-38
0.017752547 0.013456162 0.21600001 1.3828987e-38
0.018621672 0.013456162 0.21600001 1.35524e-38
0.019490797 0.013456162 0.21600001 1.3460205e-38
0.02053375 0.013456162 0.21600001 1.3091422e-38
0.021750525 0.013456162 0.21600001 1.2999587e-38
0.02261965 0.013456162 0.21600001 1.2999587e-38
0.026096152 0.013108511 0.21600001 1.3183978e-38
0.018621672 0.014325288 0.21600001 1.3460565e-38
0.019490797 0.014325287 0.21600001 1.3368369e-38
0.02053375 0.014325288 0.21600001 1.3091782e-38
0.021750525 0.014325288 0.21600001 1.3368369e-38
0.02261965 0.014325288 0.21600001 1.2999587e-38
0.050431669 0.014151463 0.21600001 1.5534231e-38
0.018795498 0.015368238 0.21600001 1.3368369e-38
0.019490799 0.015542063 0.21600001 1.3183978e-38
0.02053375 0.015542064 0.21599999 1.3276174e-38
0.021750527 0.015542063 0.21600001 1.2999587e-38
0.019490797 0.016585015 0.21600001 1.3276174e-38
0.02053375 0.016585013 0.21600001 1.3368369e-38
0.018795498 0.017627966 0.21600001 1.3091782e-38
0.019490797 0.01745414 0.21600001 1.2999587e-38
0.020533748 0.01745414 0.21600001 1.3091782e-38
0.017404897 0.018670915 0.21600001 1.3276174e-38
0.018679613 0.018555032 0.21600001 1.2999587e-38
0.016477829 0.019250331 0.21600001 1.2999587e-38
0.017404897 0.019192392 0.21600001 1.3091782e-38
0.017404897 0.026493045 0.21600001 1.3183618e-38
0.03774254 -0.015470094 0.21700001 1.3092861e-38
0.03774254 -0.014596945 0.21700001 1.3092861e-38
0.019581033 -0.0091834208 0.21700001 1.5579622e-38
0.022375112 -0.0095326798 0.21700001 1.5395231e-38
0.026915489 -0.008135641 0.21700001 1.4934253e-38
0.027439378 -0.008135641 0.21700001 1.456547e-38
0.028487157 -0.008135641 0.21700001 1.4289962e-38
0.029185675 -0.008135641 0.21700001 1.4013376e-38
0.023422889 -0.0076117516 0.21700001 1.4934254e-38
0.024296042 -0.0076117516 0.21700001 1.4934256e-38
0.025518447 -0.007611752 0.21700001 1.484206e-38
0.02656623 -0.0076117516 0.21700001 1.4657669e-38
0.027439378 -0.0076117516 0.21700001 1.4381082e-38
0.028487157 -0.007611752 0.21700001 1.419777e-38
0.029185675 -0.007611752 0.21700001 1.4013377e-38
0.030408084 -0.007611752 0.21700001 1.2999585e-38
0.02359752 -0.0064766584 0.21700001 1.4934253e-38
0.02429604 -0.0063893422 0.21700001 1.4658386e-38
0.025518447 -0.0063893432 0.21700001 1.4658385e-38
0.02656623 -0.0063893427 0.21700001 1.4473994e-38
0.027439378 -0.0063893427 0.21700001 1.419741e-38
0.028487155 -0.0063893427 0.21700001 1.4289965e-38
0.029185675 -0.0063893427 0.21700001 1.4289965e-38
0.030291663 -0.0065057632 0.21700001 1.3460205e-38
0.024296042 -0.0053415638 0.21700001 1.4105574e-38
0.025518447 -0.0053415638 0.21700001 1.4197767e-38
0.02656623 -0.0053415638 0.21700001 1.4197767e-38
0.027439378 -0.0053415638 0.21700001 1.4197767e-38
0.028487157 -0.0053415638 0.21700001 1.419777e-38
0.029185675 -0.0053415638 0.21700001 1.419777e-38
0.02429604 -0.0046430449 0.21700001 1.4013018e-38
0.025518447 -0.0046430444 0.21700001 1.4197048e-38
0.02656623 -0.0046430449 0.21700001 1.4013376e-38
0.027439378 -0.0046430449 0.21700001 1.3921181e-38
0.028487157 -0.0048176744 0.21700001 1.4013739e-38
0.029011047 -0.0049923044 0.21700001 1.4105934e-38
0.024296042 -0.0034206356 0.21700001 1.4013376e-38
0.025518449 -0.0034206354 0.21700001 1.4105213e-38
0.026449809 -0.0034788456 0.21700001 1.4104854e-38
0.02447067 -0.0025474862 0.21700001 1.392118e-38
0.025518447 -0.0025474862 0.21700001 1.392154e-38
0.026449809 -0.0024310665 0.21700001 1.3829347e-38
0.02377215 -0.0011504476 0.21700001 1.4381082e-38
0.024330966 -0.0014298555 0.21700001 1.4196689e-38
0.025518447 -0.0014997072 0.21700001 1.3828986e-38
0.02656623 -0.0014997073 0.21700001 1.3552759e-38
0.027264748 -0.0011504476 0.21700001 1.3828987e-38
0.02353931 -0.00021908847 0.21700001 1.4013378e-38
0.024296042 -0.00027729839 0.21700001 1.3921543e-38
0.025518447 -0.00027729842 0.21700001 1.3736792e-38
0.02656623 -0.00027729839 0.21700001 1.3460205e-38
0.027264748 -0.00027729842 0.21700001 1.3460205e-38
0.022724371 0.00059585081 0.21700001 1.3828265e-38
0.023422889 0.00059585081 0.21700001 1.4013017e-38
0.024296042 0.00059585081 0.21700001 1.4013378e-38
0.025518449 0.00059585081 0.21700001 1.3736792e-38
0.02656623 0.00059585081 0.21700001 1.3644596e-38
0.027264748 0.00059585081 0.21700001 1.3644596e-38
0.021327332 0.0019928894 0.21700001 1.4382158e-38
0.022418769 0.0016872874 0.21700001 1.4013018e-38
0.023422889 0.0016436299 0.21700001 1.4012658e-38
0.02429604 0.0016436299 0.21700001 1.3736433e-38
0.025518447 0.0016436299 0.21700001 1.4013378e-38
0.026496377 0.001573778 0.21700001 1.3921183e-38
0.020978073 0.0026914089 0.21700001 1.392118e-38
0.021327332 0.0026914089 0.21700001 1.4196688e-38
0.022375112 0.0026914089 0.21700001 1.4288883e-38
0.023422889 0.0026914089 0.21700001 1.4012658e-38
0.024296042 0.0026914089 0.21700001 1.3644596e-38
0.025518449 0.0026914089 0.21700001 1.3644596e-38
0.026216969 0.0026914089 0.21700001 1.3644596e-38
0.019581033 0.003389928 0.21700001 1.4288883e-38
0.020698667 0.0032502245 0.21700001 1.4105571e-38
0.021327332 0.0032152983 0.21700001 1.4197407e-38
0.022375112 0.0032152983 0.21700001 1.4012297e-38
0.023422889 0.0032152985 0.21700001 1.3828267e-38
0.024296042 0.0032152985 0.21700001 1.3736792e-38
0.025518447 0.0032152983 0.21700001 1.3644596e-38
0.019441331 0.0045075589 0.21700001 1.4013377e-38
0.020628814 0.0044377064 0.21700001 1.3921181e-38
0.021327332 0.0044377069 0.21700001 1.4013376e-38
0.022375112 0.0044377074 0.21700001 1.3552399e-38
0.023422889 0.0044377074 0.21700001 1.373679e-38
0.02429604 0.0044377069 0.21700001 1.3828984e-38
0.025308892 0.0043678554 0.21700001 1.3460205e-38
0.019406404 0.0054854858 0.21700001 1.4104494e-38
0.020628812 0.0054854862 0.21700001 1.3644596e-38
0.021327332 0.0054854862 0.21700001 1.3828986e-38
0.022375112 0.0054854858 0.21700001 1.3552399e-38
0.023422889 0.0054854862 0.21700001 1.3644955e-38
0.024296042 0.0054854858 0.21700001 1.3460563e-38
0.019406404 0.0063586356 0.21700001 1.4104492e-38
0.020628812 0.0063586351 0.21700001 1.3827905e-38
0.021327332 0.0063586356 0.21700001 1.3828984e-38
0.022375112 0.0063586351 0.21700001 1.3460202e-38
0.023422889 0.0063586356 0.21700001 1.3368009e-38
0.024121411 0.0061840056 0.21700001 1.3368369e-38
0.051014408 0.0065332651 0.21700001 1.4524417e-38
0.017555328 0.0077905999 0.21700001 1.4012298e-38
0.018533254 0.0075810445 0.21700001 1.4104495e-38
0.019406404 0.0075810445 0.21700001 1.4104494e-38
0.020628814 0.0075810435 0.21700001 1.373643e-38
0.021327332 0.0075810445 0.21700001 1.3460203e-38
0.022375112 0.0075810445 0.21700001 1.3183616e-38
0.023306469 0.0073482045 0.21700001 1.3183615e-38
0.051363669 0.0072317845 0.21700001 1.4981426e-38
0.017485477 0.0086288229 0.21700001 1.4012299e-38
0.018533254 0.0086288229 0.21700001 1.419741e-38
0.019406404 0.0086288238 0.21700001 1.3828987e-38
0.020628814 0.0086288229 0.21700001 1.35524e-38
0.021327332 0.0086288229 0.21700001 1.3460205e-38
0.022142271 0.0085124038 0.21700001 1.3275813e-38
0.016437696 0.0095019732 0.21700001 1.4013018e-38
0.017485475 0.0095019732 0.21700001 1.4104495e-38
0.018533256 0.0095019722 0.21700001 1.4012299e-38
0.019406404 0.0095019722 0.21700001 1.35524e-38
0.020628812 0.0095019722 0.21700001 1.3460205e-38
0.021327332 0.0093273427 0.21700001 1.3921183e-38
0.0084047234 0.010607962 0.21700001 1.4934253e-38
0.014691398 0.010724382 0.21700001 1.4381082e-38
0.015389917 0.010549752 0.21700001 1.4105214e-38
0.016263068 0.010549752 0.21700001 1.419777e-38
0.017485477 0.010549751 0.21700001 1.3828987e-38
0.018533256 0.010549752 0.21700001 1.3736792e-38
0.019348195 0.010491543 0.21700001 1.3368009e-38
0.020454183 0.010375122 0.21700001 1.3091422e-38
0.014516767 0.011248272 0.21700001 1.4381082e-38
0.015389917 0.011248271 0.21700001 1.4196691e-38
0.016263068 0.011248271 0.21700001 1.4288886e-38
0.017485477 0.011248272 0.21700001 1.3920464e-38
0.018183995 0.011073641 0.21700001 1.3921183e-38
0.014516767 0.012470678 0.21700001 1.4288886e-38
0.015389916 0.01247068 0.21700001 1.4013018e-38
0.016263066 0.01247068 0.21700001 1.4013018e-38
0.017310847 0.012470678 0.21700001 1.3828628e-38
0.0087539833 0.013169199 0.21700001 1.456547e-38
0.014574978 0.01340204 0.21700001 1.4288886e-38
0.015389917 0.01351846 0.21700001 1.4197051e-38
0.016263068 0.013518459 0.21700001 1.4105214e-38
0.017310847 0.013518459 0.21700001 1.3828987e-38
0.050665151 0.013518459 0.21700001 1.5532441e-38
0.014691398 0.014216979 0.21700001 1.4196691e-38
0.015389917 0.014391609 0.21700001 1.3827908e-38
0.016263068 0.014391609 0.21700001 1.3828268e-38
0.017485477 0.014391609 0.21700001 1.3368369e-38
0.051014408 0.014216979 0.21700001 1.5257645e-38
0.015389916 0.015614018 0.21700001 1.3091422e-38
0.017485477 0.01561402 0.21700001 1.3091782e-38
0.018358625 0.015701333 0.21700001 1.3460565e-38
0.054507006 0.015264758 0.21700001 1.4883107e-38
0.015389917 0.016312538 0.21700001 1.3091422e-38
0.016263068 0.016312538 0.21700001 1.3091422e-38
0.017485475 0.016312538 0.21700001 1.35524e-38
0.018533256 0.016312538 0.21700001 1.35524e-38
0.014691398 0.017534945 0.21700001 1.3460205e-38
0.015389916 0.017360317 0.21700001 1.3183618e-38
0.016263068 0.017360315 0.21700001 1.35524e-38
0.017485477 0.017360315 0.21700001 1.419777e-38
0.018463403 0.017290462 0.21700001 1.3552399e-38
0.014574978 0.018640934 0.21700001 1.3091422e-38
0.015389917 0.018582724 0.21700001 1.3091782e-38
0.016263066 0.018582724 0.21700001 1.3183978e-38
0.017485477 0.018408095 0.21700001 1.3368369e-38
0.018183995 0.018408095 0.21700001 1.3368369e-38
0.016088437 0.019106615 0.21700001 1.3091782e-38
0.013992878 0.021900691 0.21700001 1.2999226e-38
0.016263068 0.026615698 0.21700001 1.3921544e-38
0.016263066 0.027488846 0.21700001 1.2999588e-38
0.035811253 -0.016243123 0.21800001 1.3644596e-38
0.036512993 -0.016418558 0.21800001 1.3000666e-38
0.036629949 -0.015775299 0.21800001 1.3185057e-38
0.03721473 -0.014839646 0.21800001 1.3092861e-38
0.02353083 -0.010278348 0.21800001 1.5026451e-38
0.024232568 -0.010278348 0.21800001 1.5210843e-38
0.029846476 -0.010278348 0.21800001 1.2999578e-38
0.021776484 -0.0092257401 0.21800001 1.521084e-38
0.02353083 -0.0097520445 0.21800001 1.4842779e-38
0.024232568 -0.0097520445 0.21800001 1.502681e-38
0.029495606 -0.0095766094 0.21800002 1.3552397e-38
0.020373007 -0.0085240016 0.21800001 1.5395231e-38
0.021425614 -0.0083485683 0.21800001 1.5303035e-38
0.022478223 -0.0083485674 0.21800001 1.5487427e-38
0.024583438 -0.0081731332 0.21800001 1.4934256e-38
0.02581148 -0.0081731332 0.21800001 1.4749862e-38
0.026337784 -0.0081731332 0.21800001 1.456547e-38
0.02879387 -0.0085240016 0.21800001 1.4289962e-38
0.029583324 -0.008436284 0.21800001 1.3737149e-38
0.021425614 -0.0074713943 0.21800001 1.5303035e-38
0.022653658 -0.0074713947 0.21800001 1.5303035e-38
0.023355395 -0.0074713947 0.21800001 1.502645e-38
0.019495834 -0.0060679177 0.21800001 1.5487427e-38
0.020256052 -0.0061848741 0.21800001 1.5118644e-38
0.021425614 -0.0064187865 0.21800002 1.5303035e-38
0.02265366 -0.0064187869 0.21800001 1.5026449e-38
0.023179961 -0.0062433523 0.21800001 1.4749863e-38
0.018443227 -0.005190745 0.21800001 1.4934253e-38
0.019495834 -0.005190745 0.21800001 1.4934253e-38
0.020197574 -0.005190745 0.21800001 1.4657666e-38
0.021425614 -0.005190745 0.21800001 1.4843136e-38
0.022653658 -0.005190745 0.21800001 1.4474355e-38
0.023355395 -0.005190745 0.21800001 1.4105214e-38
0.018618662 -0.0043135718 0.21800001 1.4749862e-38
0.019495834 -0.0044890065 0.21800001 1.4657666e-38
0.020197574 -0.0044890065 0.21800001 1.4473275e-38
0.021425614 -0.004489006 0.21800001 1.4382158e-38
0.022653658 -0.0044890065 0.21800001 1.4382158e-38
0.023355395 -0.0044890065 0.21800001 1.4197407e-38
0.018443227 -0.0034363989 0.21800001 1.4104492e-38
0.019495834 -0.0034363989 0.21800001 1.521084e-38
0.020197574 -0.0034363989 0.21800001 1.4566189e-38
0.021425614 -0.0034363987 0.21800001 1.4382158e-38
0.022653658 -0.0034363989 0.21800001 1.4382158e-38
0.023355395 -0.0034363989 0.21800001 1.4289962e-38
0.017683012 -0.0024422696 0.21800001 1.4841697e-38
0.018443227 -0.002559226 0.21800001 1.4381079e-38
0.019495834 -0.0025592258 0.21800001 1.5118644e-38
0.020197574 -0.0025592258 0.21800001 1.4657667e-38
0.021425614 -0.002559226 0.21800001 1.4658028e-38
0.022653658 -0.0025592258 0.21800001 1.4473635e-38
0.023355395 -0.0025592258 0.21800001 1.4566189e-38
0.024232568 -0.002559226 0.21800001 1.4197767e-38
0.016864315 -0.0011557492 0.21800001 1.5302317e-38
0.017566055 -0.0015066182 0.21800001 1.4841697e-38
0.018443227 -0.0015066182 0.21800001 1.4472916e-38
0.019495834 -0.0015066182 0.21800001 1.4749862e-38
0.020197574 -0.0015066182 0.21800001 1.4842057e-38
0.021425614 -0.0015066182 0.21800002 1.4842057e-38
0.022653656 -0.0015066182 0.21800001 1.4196689e-38
0.023320308 -0.0015767921 0.21800001 1.4473276e-38
0.024232568 -0.0018574875 0.21800001 1.4381079e-38
0.016864315 -0.00027857628 0.21800001 1.5118644e-38
0.017566055 -0.00027857628 0.21800001 1.4842057e-38
0.018443227 -0.00027857631 0.21800001 1.4473275e-38
0.019495834 -0.00027857631 0.21800001 1.4473275e-38
0.020197574 -0.00027857631 0.21800001 1.4657666e-38
0.021425614 -0.00027857628 0.21800001 1.4381079e-38
0.022653658 -0.00027857628 0.21800001 1.3828267e-38
0.023179961 -0.00045401088 0.21800001 1.3460205e-38
0.01668888 0.00059859664 0.21800001 1.4842057e-38
0.017566055 0.00059859664 0.21800001 1.4657666e-38
0.018443227 0.00059859664 0.21800001 1.456547e-38
0.019495834 0.00059859664 0.21800001 1.4288883e-38
0.020197574 0.00059859664 0.21800001 1.4288883e-38
0.021425614 0.0005985967 0.21800001 1.4196688e-38
0.022478223 0.00059859664 0.21800001 1.3920101e-38
0.016583618 0.0015108564 0.21800001 1.4749862e-38
0.017566055 0.0014757696 0.21800001 1.4381079e-38
0.018443227 0.0014757696 0.21800001 1.4288883e-38
0.019495834 0.0014757696 0.21800001 1.4381079e-38
0.020197574 0.0014757696 0.21800001 1.4196688e-38
0.021355441 0.0014406827 0.21800001 1.4197048e-38
0.015460839 0.0027038117 0.21800001 1.5026449e-38
0.016513444 0.0023529427 0.21800001 1.4842057e-38
0.017566055 0.0023529427 0.21800001 1.4658025e-38
0.018443227 0.0023529427 0.21800001 1.4197408e-38
0.019495834 0.0023529427 0.21800001 1.4381439e-38
0.020197574 0.0023529427 0.21800001 1.4197048e-38
0.021074746 0.0020020735 0.21800001 1.392118e-38
0.015343882 0.0032885934 0.21800001 1.5026449e-38
0.016513444 0.0032301154 0.21800001 1.456547e-38
0.017566055 0.0032301154 0.21800001 1.4657666e-38
0.018443227 0.0032301154 0.21800001 1.4289244e-38
0.019437356 0.0031716374 0.21800001 1.4289605e-38
0.020022139 0.003054681 0.21800001 1.4105571e-38
0.014583666 0.0045458749 0.21800001 1.4933894e-38
0.015285403 0.0044581573 0.21800001 1.4933893e-38
0.016513444 0.0044581573 0.21800002 1.4565472e-38
0.017566055 0.0044581569 0.21800001 1.4381082e-38
0.018443227 0.0044581569 0.21800001 1.4288886e-38
0.0193204 0.0041072881 0.21800001 1.4105571e-38
0.013706492 0.0055107651 0.21800001 1.4657666e-38
0.014408231 0.0055107651 0.21800001 1.4749502e-38
0.015285403 0.0055107651 0.21800001 1.4841697e-38
0.016513446 0.0055107647 0.21800001 1.4565472e-38
0.017566055 0.0055107651 0.21800001 1.4288885e-38
0.018443227 0.0055107651 0.21800001 1.4196689e-38
0.013589536 0.006446416 0.21800001 1.4657666e-38
0.014408231 0.0063879378 0.21800001 1.456547e-38
0.015285404 0.0063879378 0.21800001 1.4473275e-38
0.016513446 0.0063879378 0.21800001 1.4381079e-38
0.017566055 0.0063879378 0.21800001 1.4196688e-38
0.018443227 0.0063879378 0.21800001 1.4196688e-38
0.013531056 0.0076159802 0.21800001 1.4749862e-38
0.014408231 0.0076159802 0.21800001 1.4657666e-38
0.015285405 0.0076159802 0.21800001 1.4381079e-38
0.016469587 0.007572121 0.21800002 1.4104492e-38
0.017566055 0.007265111 0.21800001 1.3920102e-38
0.051951237 0.007265111 0.21800001 1.5073622e-38
