# .PCD v0.7 - Point Cloud Data file format
VERSION 0.7
FIELDS x y z rgb
SIZE 4 4 4 4
TYPE F F F F
COUNT 1 1 1 1
WIDTH 692
HEIGHT 1
VIEWPOINT 0 0 0 1 0 0 0
POINTS 692
DATA ascii
0.045278654 -0.011701899 0.20600002 1.4703407e-38
0.045383476 -0.012150283 0.208 1.461121e-38
0.046220411 -0.012150283 0.208 1.4979993e-38
0.045998197 -0.011758704 0.20700002 1.5440615e-38
0.046555188 -0.011815509 0.208 1.5443486e-38
0.04598885 -0.012605106 0.21000001 1.4794883e-38
0.046326842 -0.012605106 0.21000001 1.4703406e-38
0.045528639 -0.012665131 0.21100001 1.5161507e-38
0.047226653 -0.012325528 0.21100001 1.5073625e-38
0.045274548 0.067435101 0.21300001 1.4096136e-38
0.045180596 -0.01428939 0.215 1.6361841e-38
0.045659319 -0.013534065 0.21400002 1.5161506e-38
0.046435162 -0.013461418 0.21466668 1.4886357e-38
0.047775906 -0.012905228 0.215 1.4795601e-38
0.044521615 -0.015572628 0.21600001 1.5814065e-38
0.045216918 -0.015398803 0.21600001 1.7659415e-38
0.044521615 -0.014703503 0.21600001 1.571611e-38
0.045477655 -0.014442766 0.21600001 1.6546953e-38
0.046607517 -0.014355852 0.21600001 1.4703403e-38
0.045216918 -0.013312902 0.21600001 1.5989107e-38
0.047476642 -0.013312902 0.21600001 1.4795599e-38
0.048693419 -0.011574652 0.21600001 1.498359e-38
0.044727735 -0.016168613 0.21700001 1.6182849e-38
0.044378474 -0.015644724 0.21700001 1.5721871e-38
0.045426253 -0.015644724 0.21700001 1.7108044e-38
0.046124775 -0.014771574 0.21700001 1.5903383e-38
0.048918851 -0.012326757 0.21700001 1.4890312e-38
0.051363669 0.063811854 0.21700001 1.36366e-38
0.045775514 0.06835223 0.21700001 1.6031153e-38
0.046299405 0.06835223 0.21700001 1.4926258e-38
0.042981435 0.069749266 0.21700001 1.6675443e-38
0.043563534 0.069632851 0.21700001 1.6767639e-38
0.044588029 0.069469862 0.21700001 1.5753847e-38
0.045076992 0.069050752 0.21700001 1.630774e-38
0.041817237 0.07056421 0.21700001 1.6399941e-38
0.042806804 0.070447788 0.21700001 1.6122631e-38
0.043505326 0.070447788 0.21700001 1.5292517e-38
0.040885877 0.07149557 0.21700001 1.6767639e-38
0.041584399 0.071320936 0.21700001 1.6399217e-38
0.042806804 0.071320936 0.21700001 1.391067e-38
0.038615689 0.072892606 0.21700001 1.6031166e-38
0.039663468 0.07271798 0.21700001 1.6582886e-38
0.04053662 0.072543353 0.21700001 1.5753491e-38
0.037509698 0.073707543 0.21700001 1.5571636e-38
0.038441058 0.073591121 0.21700001 1.6030435e-38
0.039663468 0.073591128 0.21700001 1.501556e-38
0.036578342 0.074522488 0.21700001 1.6030084e-38
0.037393279 0.074464276 0.21700001 1.639814e-38
0.038441058 0.074464276 0.21700001 1.5199236e-38
0.036520131 0.075512059 0.21700001 1.5567661e-38
0.037393279 0.075512059 0.21700001 1.4645706e-38
0.035646982 0.076210573 0.21700001 1.5844246e-38
0.036520131 0.076210573 0.21700001 1.4460599e-38
0.034948461 0.077607617 0.21700001 1.4184006e-38
0.035472352 0.077432983 0.21700001 1.2987265e-38
0.044582985 -0.014664212 0.21800001 1.5806509e-38
0.049495153 -0.012383563 0.21800001 1.3876158e-38
0.049846023 -0.011681825 0.21800001 1.3415182e-38
0.059494928 0.056737665 0.21800001 1.4656106e-38
0.056512542 0.057439405 0.21800001 1.4006815e-38
0.057740584 0.057439405 0.21800001 1.5756354e-38
0.058442317 0.05726397 0.21800001 1.5758145e-38
0.059494928 0.05726397 0.21800001 1.3456142e-38
0.055459931 0.058492009 0.21800001 1.4006826e-38
0.056512542 0.058492012 0.21800002 1.5109922e-38
0.057740584 0.058492009 0.21800001 1.5383633e-38
0.058442313 0.058492009 0.21800001 1.3357142e-38
0.05458276 0.059544619 0.21800001 1.3823518e-38
0.055459935 0.059544619 0.21800001 1.372843e-38
0.056512538 0.059544623 0.21800001 1.4371281e-38
0.053354718 0.060597226 0.21800002 1.33629e-38
0.051600367 0.06164984 0.21800001 1.3272518e-38
0.052652977 0.061649837 0.21800001 1.4005736e-38
0.053354722 0.06164984 0.21800001 1.3545471e-38
0.051600367 0.062176138 0.21800001 1.3454371e-38
0.049670592 0.06340418 0.21800001 1.5758188e-38
0.050372321 0.06340418 0.21800001 1.6495732e-38
0.051556509 0.063360319 0.21800002 1.3913534e-38
0.048442546 0.064456798 0.21800001 1.5389409e-38
0.049670588 0.064456791 0.21800001 1.704638e-38
0.050372325 0.064456791 0.21800001 1.6216262e-38
0.0512495 0.06410592 0.21800001 1.4925527e-38
0.047214504 0.065333962 0.21800001 1.5114632e-38
0.048442546 0.065333955 0.21800001 1.6953467e-38
0.049670592 0.065333962 0.21800001 1.5754206e-38
0.050313845 0.065275483 0.21800001 1.4557475e-38
0.045460153 0.066562004 0.21800001 1.3088513e-38
0.046512764 0.066562004 0.21800001 1.6309912e-38
0.047214497 0.066562004 0.21800001 1.6954187e-38
0.048302196 0.066702351 0.21800001 1.5385789e-38
0.044582985 0.067614615 0.21800001 1.3917544e-38
0.045460157 0.067614615 0.21800001 1.6585055e-38
0.046512768 0.067614615 0.21800001 1.6585046e-38
0.047214504 0.067614615 0.21800001 1.5294672e-38
0.043530375 0.068491779 0.21800001 1.3824259e-38
0.044582982 0.068491787 0.21800001 1.6677252e-38
0.045401677 0.068433307 0.21800001 1.686127e-38
0.046512764 0.068316348 0.21800001 1.6031877e-38
0.042302333 0.06954439 0.21800001 1.3824621e-38
0.043460201 0.069509305 0.21800001 1.6399938e-38
0.044232115 0.069368958 0.21800001 1.7044226e-38
0.041425161 0.070246123 0.21800001 1.373098e-38
0.042302333 0.070070691 0.21800001 1.5755662e-38
0.040328693 0.071430311 0.21800002 1.4099403e-38
0.041074291 0.071123302 0.21800001 1.6308108e-38
0.038793642 0.072702214 0.21800001 1.4559303e-38
0.039319947 0.072526783 0.21800001 1.5572008e-38
0.040021684 0.072526783 0.21800001 1.6492497e-38
0.036396038 0.074398078 0.21800001 1.2993062e-38
0.035460383 0.0756846 0.21800001 1.4833718e-38
0.034232341 0.07638634 0.21800001 1.3453319e-38
0.035360135 0.076336212 0.21800002 1.5844974e-38
0.033355169 0.077614382 0.21800001 1.501703e-38
0.034232341 0.077614382 0.21800001 1.5751698e-38
0.035109516 0.077438951 0.21800001 1.5474749e-38
0.031717781 0.078608513 0.21800001 1.474116e-38
0.032477997 0.078491554 0.21800001 1.5293247e-38
0.033355169 0.078491554 0.21800001 1.510705e-38
0.034173861 0.078374594 0.21800001 1.4829378e-38
0.031951692 0.079368725 0.21800001 1.6305224e-38
0.032477994 0.079544164 0.21800001 1.6028638e-38
0.033284996 0.079473987 0.21800001 1.4553512e-38
0.030899085 0.080772206 0.21800001 1.446132e-38
0.030899085 0.081298508 0.21800001 1.3814508e-38
0.044258777 -0.016493872 0.21900001 1.6087059e-38
0.044082537 -0.015965154 0.21900001 1.6364366e-38
0.046902366 -0.014907718 0.21900001 1.498071e-38
0.068474062 0.046635054 0.21900001 1.6407113e-38
0.066993654 0.047833484 0.21900001 1.6592583e-38
0.067698613 0.047657244 0.21900001 1.5301125e-38
0.068403564 0.047657248 0.219 1.3181018e-38
0.066711672 0.048608936 0.21900001 1.7514178e-38
0.067698613 0.048538439 0.21900001 1.2998417e-38
0.064878777 0.049772117 0.21900001 1.6591866e-38
0.065442748 0.049666375 0.21900001 1.6499666e-38
0.066641182 0.049595878 0.219 1.4287711e-38
0.063821346 0.050653312 0.21900001 1.650039e-38
0.064702541 0.050653312 0.21900001 1.6592939e-38
0.0654075 0.050653312 0.21900001 1.6038693e-38
0.061706472 0.051358271 0.21900001 1.3274329e-38
0.062235191 0.051358271 0.21900001 1.6408593e-38
0.063468866 0.051182032 0.219 1.603869e-38
0.064702541 0.051182032 0.21900001 1.6500741e-38
0.0654075 0.051182032 0.21900001 1.5117106e-38
0.061706472 0.052415702 0.21900003 1.5670279e-38
0.062235191 0.05241571 0.219 1.6961008e-38
0.063468866 0.052415702 0.219 1.6407828e-38
0.064667299 0.052345209 0.21900001 1.3181376e-38
0.059944078 0.053825617 0.21900001 1.2999184e-38
0.060472794 0.053825617 0.21900001 1.4749415e-38
0.061530232 0.053473137 0.21900001 1.6224166e-38
0.062235191 0.053473137 0.21900001 1.6407828e-38
0.063398376 0.053402644 0.21900001 1.4379895e-38
0.060472794 0.054354336 0.21900001 1.5577718e-38
0.061530232 0.054354332 0.21900001 1.6223436e-38
0.062235191 0.054354332 0.21900001 1.5670267e-38
0.059591603 0.055588011 0.219 1.4840873e-38
0.060472798 0.055588011 0.219 1.5485866e-38
0.061530232 0.055588011 0.219 1.382672e-38
0.058534164 0.056645449 0.219 1.4839433e-38
0.059591599 0.05629297 0.21900001 1.5024893e-38
0.060472794 0.05629297 0.21900001 1.4471715e-38
0.057241738 0.057467896 0.21900003 1.4099012e-38
0.058181684 0.057350405 0.21900001 1.5481201e-38
0.04866476 0.066691086 0.21900001 1.5937877e-38
0.049017239 0.066691086 0.21900001 1.4926253e-38
0.04866476 0.067572288 0.21900001 1.3819549e-38
0.031181812 0.079627052 0.21900001 1.465005e-38
0.029807147 0.080614001 0.21900001 1.3729538e-38
0.030335866 0.080614001 0.21900001 1.4557846e-38
0.031393301 0.080261521 0.21900003 1.5476191e-38
0.029807147 0.081318952 0.21900001 1.5661304e-38
0.030335866 0.081495196 0.21900001 1.5291437e-38
0.044992004 -0.01674623 0.22000001 1.6182849e-38
0.046054266 -0.016038055 0.22000001 1.7476106e-38
0.044283826 -0.015683966 0.22000001 1.6270729e-38
0.046762444 -0.015683966 0.22000001 1.7293515e-38
0.044992004 -0.014267613 0.22000001 1.5804713e-38
0.047824707 -0.014444658 0.22000001 1.4245658e-38
0.048178796 -0.014267613 0.22000001 1.4521527e-38
0.049241062 -0.013205349 0.22000001 1.4889233e-38
0.049595147 -0.012851262 0.22000001 1.4704842e-38
0.049241062 -0.011434909 0.22000001 1.4982511e-38
0.038618416 -0.0093103806 0.22000001 1.5624991e-38
0.038618416 -0.0086022038 0.22000001 1.6173856e-38
0.034723446 -0.0043531461 0.22000001 1.3043529e-38
0.070722423 0.044747073 0.22000001 1.5761749e-38
0.071548618 0.04451102 0.22000001 1.3182826e-38
0.068715915 0.045927372 0.22000001 1.815847e-38
0.069306068 0.045691311 0.22000001 1.7421626e-38
0.070250295 0.045455251 0.22000001 1.5854665e-38
0.067535616 0.046871606 0.22000001 1.6776258e-38
0.068479858 0.046399489 0.22000001 1.7513455e-38
0.069070004 0.046281461 0.22000001 1.7882959e-38
0.066945471 0.047697812 0.22000001 1.6223082e-38
0.06729956 0.047697812 0.22000001 1.6223082e-38
0.06576518 0.048287958 0.22000001 1.6223824e-38
0.066473357 0.04816993 0.22000001 1.705392e-38
0.064348824 0.049704313 0.22000001 1.5302239e-38
0.065458305 0.0492558 0.22 1.6407837e-38
0.063522615 0.050648544 0.22000001 1.4380652e-38
0.064289808 0.05017643 0.22000001 1.6222378e-38
0.062696412 0.051238693 0.22000001 1.6224548e-38
0.061280064 0.052655045 0.22000001 1.2999891e-38
0.060925975 0.053363223 0.22000001 1.299954e-38
0.061280064 0.053009134 0.22000001 1.4104421e-38
0.040572442 -0.018956536 0.22100002 1.7748374e-38
0.044307269 -0.017533746 0.22100002 1.5716117e-38
0.045196511 -0.017533746 0.22100002 1.5350565e-38
0.043773722 -0.016466653 0.22100002 1.5620687e-38
0.045730058 -0.0166445 0.22100002 1.6552712e-38
0.046619304 -0.016110955 0.22100002 1.7663018e-38
0.04412942 -0.015043861 0.22100002 1.6174937e-38
0.047508545 -0.015399558 0.22100002 1.5627157e-38
0.039505348 -0.014332466 0.22100002 1.7379594e-38
0.040572442 -0.01442139 0.22100002 1.7194484e-38
0.044485115 -0.014688164 0.22100002 1.6173856e-38
0.039327499 -0.013443222 0.22100002 1.7655464e-38
0.040394593 -0.013443222 0.22100002 1.6545883e-38
0.049820583 -0.013265373 0.22100002 1.4428255e-38
0.039505348 -0.012909677 0.22100002 1.7655102e-38
0.040216744 -0.012909677 0.22100002 1.7190534e-38
0.050354127 -0.012909677 0.22100002 1.341518e-38
0.039505348 -0.011664735 0.22100002 1.7287402e-38
0.040216744 -0.011486886 0.22100002 1.7007578e-38
0.041995231 -0.011486886 0.22100002 1.6730991e-38
0.042439856 -0.011486886 0.22100002 1.6451887e-38
0.048397791 -0.011131188 0.22100002 1.4707722e-38
0.038616106 -0.010064095 0.22100002 1.6361115e-38
0.04863492 -0.010301227 0.22100002 1.4801364e-38
0.038556825 -0.0095898323 0.22100002 1.5900857e-38
0.039149649 -0.0095305489 0.22100002 1.5255488e-38
0.048516359 -0.0094712665 0.22100002 1.4985756e-38
0.049109187 -0.009708398 0.22100002 1.4339669e-38
0.038556825 -0.008404173 0.22100002 1.5344456e-38
0.039149649 -0.0084634554 0.22100002 1.5251541e-38
0.038793951 -0.007929909 0.22100002 1.4790924e-38
0.036304068 -0.0050843284 0.22100002 1.3044249e-38
0.071340293 0.04364625 0.22100002 1.7145394e-38
0.070569612 0.04459478 0.22100002 1.6591507e-38
0.07116244 0.044357646 0.22100002 1.6776256e-38
0.069561809 0.045246892 0.22100002 1.6868098e-38
0.070095353 0.045069043 0.22100002 1.6591867e-38
0.042542562 -0.021186154 0.22200002 1.6554125e-38
0.043452028 -0.021281587 0.223 1.6552685e-38
0.041649297 -0.020471539 0.22200002 1.7748364e-38
0.04225564 -0.020444116 0.223 1.7934193e-38
0.043452028 -0.020563757 0.223 1.6550532e-38
0.040398721 -0.019220965 0.22200002 1.8115719e-38
0.041395243 -0.019361289 0.22214289 1.7469632e-38
0.042195823 -0.019487005 0.223 1.7469629e-38
0.043380246 -0.019343439 0.223 1.7655813e-38
0.039773487 -0.018189518 0.22250001 1.8303347e-38
0.040488906 -0.018368976 0.22250001 1.7934565e-38
0.041470643 -0.018327698 0.22200002 1.6363284e-38
0.04225564 -0.018170977 0.223 1.6641669e-38
0.043452028 -0.018230796 0.223 1.719556e-38
0.044708237 -0.018410254 0.223 1.5348398e-38
0.045426071 -0.018051337 0.223 1.516545e-38
0.046323363 -0.018051337 0.223 1.5537108e-38
0.039326798 -0.017970391 0.22200002 1.7378147e-38
0.04045938 -0.017877733 0.22233336 1.7842372e-38
0.041384988 -0.017831406 0.22250001 1.6640952e-38
0.042195823 -0.017692421 0.223 1.784237e-38
0.043452028 -0.017692421 0.223 1.6455846e-38
0.044507753 -0.017970391 0.22200002 1.5439882e-38
0.046323363 -0.017692421 0.223 1.6921488e-38
0.041477989 -0.016256755 0.223 1.6266057e-38
0.04358815 -0.016729435 0.22260001 1.5896555e-38
0.04649286 -0.016830115 0.22266668 1.6922213e-38
0.047329262 -0.016352095 0.22266668 1.7199518e-38
0.048476864 -0.016256755 0.223 1.5166169e-38
0.049553614 -0.016256755 0.223 1.5354156e-38
0.039862864 -0.015180005 0.223 1.7193758e-38
0.040519502 -0.015396592 0.22266668 1.6915019e-38
0.041384991 -0.015504886 0.22250001 1.6360408e-38
0.042016365 -0.015538922 0.223 1.6362916e-38
0.043810945 -0.015538922 0.223 1.608561e-38
0.047902171 -0.015826548 0.22200002 1.5074701e-38
0.048582207 -0.015486257 0.22225001 1.4983936e-38
0.039444897 -0.014679833 0.22266668 1.71952e-38
0.040041413 -0.014754626 0.22200002 1.7103361e-38
0.041351542 -0.014635525 0.22200002 1.6732786e-38
0.042136002 -0.014581811 0.223 1.6826416e-38
0.043631487 -0.01464163 0.223 1.6548029e-38
0.04464842 -0.014581811 0.223 1.6082379e-38
0.048904937 -0.014609205 0.22250001 1.4338572e-38
0.038786113 -0.013026506 0.223 1.6548758e-38
0.041385125 -0.013354872 0.22250003 1.672812e-38
0.042195823 -0.013385423 0.223 1.6266781e-38
0.043212753 -0.013265784 0.223 1.7189456e-38
0.049331401 -0.013682704 0.22200002 1.4519732e-38
0.050696302 -0.01335541 0.22250001 1.3048195e-38
0.039445903 -0.012729886 0.22200002 1.7286678e-38
0.040517822 -0.012729886 0.22200002 1.6823186e-38
0.041532908 -0.01262972 0.22233336 1.6174944e-38
0.042721216 -0.012610784 0.22200002 1.6729559e-38
0.043452028 -0.01266759 0.223 1.7006146e-38
0.039325241 -0.011475122 0.22250001 1.7100491e-38
0.040470183 -0.011538863 0.22200003 1.6638794e-38
0.041425981 -0.011538863 0.22200002 1.6544802e-38
0.042899869 -0.011538863 0.22200002 1.6451889e-38
0.043478686 -0.01148787 0.22240002 1.562033e-38
0.048974093 -0.011181556 0.22200002 1.4891038e-38
0.038786113 -0.01051409 0.223 1.6267486e-38
0.039549388 -0.010323247 0.22275001 1.5897622e-38
0.04045938 -0.010363019 0.22233336 1.5710718e-38
0.041520618 -0.010412574 0.22275001 1.5249384e-38
0.042605907 -0.010363019 0.22233336 1.4973519e-38
0.043523811 -0.010298739 0.223 1.4882041e-38
0.047902171 -0.010109634 0.22200002 1.5539645e-38
0.048188712 -0.010311862 0.22250001 1.5448528e-38
0.049566012 -0.010300075 0.22225001 1.3970164e-38
0.050581977 -0.010288288 0.22200002 1.3418424e-38
0.039862864 -0.0096167978 0.223 1.5712154e-38
0.047777057 -0.009584656 0.22225001 1.4707727e-38
0.048974093 -0.0097523266 0.22200002 1.4892843e-38
0.049569607 -0.0095141223 0.22200002 1.3786134e-38
0.050581977 -0.0095736738 0.22200002 1.3051444e-38
0.03806828 -0.0085400483 0.223 1.5437731e-38
0.039862864 -0.0083605899 0.223 1.4973517e-38
0.047496077 -0.0083948793 0.22233336 1.3324438e-38
0.048616786 -0.0085017523 0.22200002 1.3231521e-38
0.049566012 -0.0085111251 0.22225001 1.2954933e-38
0.037897568 -0.007608484 0.22200002 1.4423943e-38
0.038373977 -0.0074893818 0.22200002 1.4332465e-38
0.039235912 -0.0076248152 0.22250001 1.4331386e-38
0.047783066 -0.0077275862 0.22200002 1.304857e-38
0.038367376 -0.0065660067 0.223 1.3873289e-38
0.034681804 -0.0051073343 0.22200002 1.3044249e-38
0.035217766 -0.0051073343 0.22200002 1.3044249e-38
0.037350446 -0.0054892567 0.223 1.3136444e-38
0.033761278 -0.0044125067 0.223 1.3412307e-38
0.0343755 -0.0045189545 0.22233336 1.295205e-38
0.042925831 -0.021737549 0.22400001 1.6554125e-38
0.042745568 -0.019934919 0.22400001 1.8208989e-38
0.043646883 -0.019574393 0.22400001 1.8208624e-38
0.044127584 -0.019574393 0.22400002 1.5902292e-38
0.045449514 -0.018492814 0.22400001 1.525728e-38
0.046891619 -0.018132288 0.22400001 1.5260521e-38
0.038960043 -0.017771762 0.22400001 1.710156e-38
0.039560918 -0.017531412 0.22400002 1.7102275e-38
0.040522322 -0.01729106 0.22400002 1.8117161e-38
0.041483726 -0.01705071 0.22400001 1.774838e-38
0.042385042 -0.01705071 0.22400001 1.6822107e-38
0.046891619 -0.017771762 0.22400001 1.6737096e-38
0.047252145 -0.017411236 0.22400001 1.6367235e-38
0.049295127 -0.01729106 0.22400002 1.3968342e-38
0.040582411 -0.01650992 0.22400001 1.7100131e-38
0.041483726 -0.016690183 0.22400001 1.6822466e-38
0.042565305 -0.01650992 0.22399999 1.6079503e-38
0.043646883 -0.016329657 0.22400001 1.6079142e-38
0.047612671 -0.016690183 0.22400001 1.7477185e-38
0.048694249 -0.016690183 0.22400001 1.4795227e-38
0.049235038 -0.016690183 0.22400001 1.5073972e-38
0.039500833 -0.015608605 0.22400001 1.6916455e-38
0.040402148 -0.015969131 0.22400001 1.7097613e-38
0.042745568 -0.015608605 0.22400001 1.6363632e-38
0.043646883 -0.015608605 0.22400001 1.6270003e-38
0.042805657 -0.014767378 0.22400002 1.645799e-38
0.043646883 -0.014887553 0.22400001 1.6639145e-38
0.044007409 -0.014527027 0.22400001 1.6549108e-38
0.042925831 -0.013805974 0.22400001 1.663736e-38
0.043646883 -0.013445448 0.22400001 1.7467121e-38
0.044187676 -0.013445449 0.22399999 1.645189e-38
0.045088988 -0.013625711 0.22400001 1.5896555e-38
0.050136354 -0.013805974 0.22400001 1.4429334e-38
0.038960043 -0.012724395 0.22400001 1.6549837e-38
0.044187672 -0.012363869 0.22400001 1.5991632e-38
0.038960043 -0.01128229 0.22400001 1.6174935e-38
0.044367936 -0.011462553 0.22400001 1.5254424e-38
0.050136354 -0.01128229 0.22400001 1.4337141e-38
0.038599517 -0.010561238 0.22400001 1.6451877e-38
0.040402148 -0.010200712 0.22400001 1.5896185e-38
0.041844252 -0.010200712 0.22400001 1.5158267e-38
0.042204779 -0.010200712 0.22400001 1.4790564e-38
0.044367936 -0.010561238 0.22400001 1.4423223e-38
0.047612671 -0.010200712 0.22400001 1.4431499e-38
0.037878465 -0.0094796596 0.22400001 1.5714312e-38
0.040402148 -0.0096599227 0.22400001 1.5712154e-38
0.044367936 -0.0094796596 0.22400001 1.4150226e-38
0.045269251 -0.0096599227 0.22400001 1.3047117e-38
0.047252145 -0.0094796596 0.22400001 1.406128e-38
0.037517939 -0.0082178181 0.22400001 1.4884917e-38
0.040402148 -0.0083980812 0.22400002 1.4881322e-38
0.047252145 -0.0087586073 0.22400001 1.3416274e-38
0.037517939 -0.0073165027 0.22400001 1.4148078e-38
0.039681096 -0.0073165027 0.22400001 1.3871847e-38
0.044367936 -0.0073165027 0.22400001 1.3320471e-38
0.047612671 -0.0073165027 0.22400001 1.3876886e-38
0.037638113 -0.00659545 0.22400002 1.3596702e-38
0.038960043 -0.0064151874 0.22400001 1.405768e-38
0.039320569 -0.0067757135 0.22400001 1.3873288e-38
0.045269251 -0.0065954509 0.22399999 1.2953491e-38
0.037157413 -0.0055138725 0.22400001 1.3136444e-38
0.038960043 -0.0053336094 0.22400001 1.3045329e-38
0.067225292 0.035513997 0.22400001 1.300391e-38
0.043479599 -0.022558862 0.22500001 1.6645251e-38
0.044686716 -0.020144626 0.22500001 1.5713221e-38
0.04480743 -0.019541064 0.22500001 1.5529551e-38
0.045290276 -0.019661777 0.22500001 1.5623536e-38
0.046014547 -0.019299641 0.22500001 1.5261944e-38
0.046376687 -0.01857537 0.22500001 1.5075763e-38
0.047583804 -0.018333947 0.22500001 1.4703385e-38
0.048368432 -0.018213235 0.22500001 1.4243481e-38
0.04927377 -0.018213235 0.22500001 1.3968334e-38
0.047825228 -0.017488964 0.22500001 1.4615518e-38
0.048368432 -0.017488964 0.22500001 1.4427161e-38
0.04927377 -0.017851099 0.22500001 1.405909e-38
0.039737526 -0.016402557 0.22500001 1.7101204e-38
0.048187364 -0.016764693 0.22500001 1.6550184e-38
0.038409699 -0.013143335 0.22500001 1.7102654e-38
0.044928141 -0.013143335 0.22500001 1.5806521e-38
0.050722312 -0.013867607 0.22500001 1.4152747e-38
0.03913397 -0.012056929 0.22500001 1.6919698e-38
0.044928141 -0.011332657 0.22500001 1.5069311e-38
0.044747073 -0.010246251 0.22500001 1.3962964e-38
0.045290276 -0.010246251 0.22500001 1.2954207e-38
0.047583804 -0.010487675 0.22500001 1.3971959e-38
0.040944651 -0.0097030476 0.22500001 1.589655e-38
0.041487854 -0.0098841153 0.22500001 1.5528488e-38
0.04257426 -0.0098841153 0.22500001 1.4515419e-38
0.043298531 -0.0098841153 0.22500001 1.4606535e-38
0.044475473 -0.0097935814 0.22500001 1.4239189e-38
0.046376687 -0.0097030476 0.22500001 1.2954927e-38
0.047463089 -0.0098841153 0.22500001 1.4154192e-38
0.036961157 -0.0084355725 0.22500001 1.4886355e-38
0.037685428 -0.008797708 0.22500001 1.516258e-38
0.043479599 -0.0082545048 0.22500001 1.4239192e-38
0.044611271 -0.0083903056 0.22500001 1.4242426e-38
0.045290276 -0.0084355725 0.22500001 1.3968356e-38
0.046376679 -0.0084355725 0.22500001 1.3413027e-38
0.040220376 -0.0073491656 0.22500001 1.4146636e-38
0.043479599 -0.0073491656 0.22500001 1.3778573e-38
0.044566005 -0.0073491656 0.22500001 1.3503784e-38
0.045290276 -0.0073491656 0.22500001 1.3597058e-38
0.046376687 -0.0073491656 0.22500001 1.3689255e-38
0.047463089 -0.0073491656 0.22500001 1.3508104e-38
0.037685428 -0.0069870302 0.22500001 1.3688179e-38
0.039767705 -0.0065343608 0.22500001 1.3597061e-38
0.040220376 -0.0066248947 0.22500001 1.3596339e-38
0.043479599 -0.0069870302 0.22500001 1.3319752e-38
0.046105079 -0.0067154285 0.22500001 1.3322272e-38
0.047825228 -0.0069870302 0.22500001 1.359922e-38
0.039737526 -0.0054177758 0.22500001 1.2953134e-38
0.033701934 -0.0037278098 0.22500001 1.31368e-38
0.06701842 0.035382837 0.22500001 1.3096107e-38
0.034607276 0.05729204 0.22500001 1.3553482e-38
0.045491569 -0.019385418 0.22600001 1.534911e-38
0.038944155 -0.017202947 0.22600001 1.682497e-38
0.0393079 -0.017202947 0.22600001 1.7009362e-38
0.0393079 -0.01665733 0.22600001 1.7195556e-38
0.050220255 -0.014656732 0.22600001 1.4522606e-38
0.038762283 -0.011564897 0.22600001 1.6730988e-38
0.041490372 -0.0095642991 0.22600001 1.6173498e-38
0.036761682 -0.0084730638 0.22600001 1.4886355e-38
0.043309096 -0.008109319 0.22600001 1.4607614e-38
0.044036586 -0.0088368095 0.22600001 1.424063e-38
0.037125427 -0.007381829 0.22600001 1.3964043e-38
0.040762879 -0.0071999561 0.22600001 1.3963324e-38
0.043309096 -0.007381829 0.22600001 1.405516e-38
0.046946548 -0.0070180837 0.22600001 1.341375e-38
0.047310293 -0.0070180837 0.22600001 1.3598141e-38
0.040762879 -0.006472466 0.22600001 1.35967e-38
0.043672841 -0.0062905937 0.22600001 1.3044968e-38
0.046704054 -0.00653309 0.22600001 1.3138963e-38
0.048037782 -0.0066543384 0.22600001 1.3047126e-38
0.03657981 0.051908623 0.22600001 1.3279053e-38
0.03657981 0.052636117 0.22600003 1.3001749e-38
0.039116472 -0.016183002 0.22700001 1.7841649e-38
0.038751118 -0.012894811 0.22700001 1.6918619e-38
0.037472378 -0.0096066194 0.22700001 1.5162216e-38
0.036193635 -0.0086932331 0.22700001 1.4884197e-38
0.0413086 -0.0086932331 0.22700001 1.5434494e-38
0.043135375 -0.0085105551 0.22700001 1.5345898e-38
0.037289701 -0.0070491373 0.22700001 1.3411592e-38
0.0413086 -0.0074144918 0.22700001 1.4422144e-38
0.037289701 -0.0066837827 0.22700001 1.322792e-38
0.0413086 -0.0065011056 0.22700001 1.3965837e-38
0.036193635 -0.0055877189 0.22700001 1.3044249e-38
0.048981048 0.040812317 0.22700001 1.3647117e-38
0.049529083 0.04062964 0.22700001 1.3370889e-38
0.049468189 0.041299459 0.22700001 1.3001745e-38
0.040760569 0.044831216 0.22700001 1.3000668e-38
0.0413086 0.044648539 0.22700001 1.3278334e-38
0.038463123 -0.016621258 0.22800002 1.8025324e-38
0.039288793 -0.01680474 0.22800002 1.7195556e-38
0.051215127 -0.014786437 0.22800002 1.4524045e-38
0.038554866 -0.011850724 0.22800002 1.6917537e-38
0.036536563 -0.0096489396 0.22800002 1.5251902e-38
0.042958435 -0.0096489396 0.22800002 1.4517217e-38
0.04350888 -0.0096489396 0.22800002 1.4331746e-38
0.035986114 -0.0087315291 0.22800002 1.4607975e-38
0.036353081 -0.008181083 0.22800002 1.4423939e-38
0.041490577 -0.008181083 0.22800002 1.4881683e-38
0.036720045 -0.0074471547 0.22800002 1.3778573e-38
0.041490577 -0.0070801903 0.22800002 1.4147352e-38
0.035986114 -0.0056123342 0.22800002 1.2952772e-38
0.03378433 -0.0034105496 0.22800002 1.3045324e-38
0.034518261 -0.0034105496 0.22800002 1.2953128e-38
0.047728967 0.036588535 0.22800002 1.3646035e-38
0.040206201 0.044478264 0.22800002 1.3093947e-38
0.041398838 0.044386525 0.22800002 1.3002108e-38
0.04002272 0.045028709 0.22800002 1.3646038e-38
0.038723964 -0.012271274 0.22900002 1.6643106e-38
0.034635961 -0.010288853 0.23 1.5161147e-38
0.035746507 -0.010288853 0.23 1.5160428e-38
0.036301784 -0.010288853 0.23 1.5159709e-38
0.037412334 -0.010103762 0.23 1.5343736e-38
0.034635961 -0.0097335791 0.23 1.4516138e-38
0.035591088 -0.0096912589 0.22900002 1.4791646e-38
0.042409703 -0.0096912589 0.22900002 1.5254782e-38
0.03446852 -0.0086972322 0.22950001 1.4055162e-38
0.035345372 -0.0084626814 0.22900002 1.4055521e-38
0.042256277 -0.008591787 0.22916667 1.5435574e-38
0.043367993 -0.008732968 0.22900002 1.5162226e-38
0.034635957 -0.007327389 0.23 1.40566e-38
0.035668798 -0.0073110578 0.22950001 1.3687816e-38
0.03663538 -0.0072341016 0.22900002 1.3502705e-38
0.042286377 -0.0073781982 0.22966667 1.4514699e-38
0.043146849 -0.0074798176 0.22900002 1.4515419e-38
0.034635957 -0.0065870229 0.23 1.3597058e-38
0.035707854 -0.0065800641 0.22975001 1.3412307e-38
0.03669681 -0.0065583838 0.22900002 1.3043526e-38
0.042224713 -0.0065870229 0.23 1.4334619e-38
0.035222515 -0.0056369496 0.22900002 1.3044968e-38
0.042041127 -0.0054526627 0.22900002 1.3047484e-38
0.033748221 -0.0030569348 0.22900002 1.3137516e-38
0.034635961 -0.0030702839 0.23 1.2953125e-38
0.032970134 -0.0023299176 0.23 1.5162936e-38
0.033710502 -0.0023299176 0.23 1.433462e-38
0.03445087 -0.0023299176 0.23 1.3228993e-38
0.032785043 -0.0019597346 0.23 1.4612641e-38
0.033710502 -0.0019597346 0.23 1.4150952e-38
0.046648297 0.03638044 0.22900002 1.3369808e-38
0.047385447 0.036196154 0.22900002 1.3647114e-38
0.039448339 0.037649855 0.23 1.3002109e-38
0.036301784 0.038390219 0.23 1.3001747e-38
0.039481048 0.038362134 0.22983335 1.3186139e-38
0.036301784 0.03968586 0.23 1.3001747e-38
0.032673988 0.040685356 0.22999999 1.3000312e-38
0.028527938 0.047644798 0.23 1.3001747e-38
0.036831409 -0.010519484 0.23100001 1.534374e-38
0.034228861 -0.007173351 0.23100001 1.3873645e-38
0.042780094 -0.007173351 0.23100001 1.4331744e-38
0.043151885 -0.007173351 0.23100001 1.4331744e-38
0.034228861 -0.006615662 0.23100001 1.350594e-38
0.033113483 -0.0015964627 0.23100001 1.4060549e-38
0.048728775 0.029634114 0.23100001 1.3462723e-38
0.042408302 0.030377699 0.23100001 1.3093227e-38
0.043337781 0.030377699 0.23100001 1.300067e-38
0.042408302 0.031493075 0.23099999 1.3185779e-38
0.043337781 0.031493079 0.23099999 1.3001029e-38
0.043337777 0.032608457 0.23100001 1.3001029e-38
0.039619856 0.033723831 0.23100001 1.3000668e-38
0.034600653 0.035396896 0.23100001 1.3000668e-38
0.034526296 0.036549456 0.23099999 1.3000668e-38
0.031998105 0.037813552 0.23100001 1.3369451e-38
0.033361346 0.03756569 0.23100001 1.3000668e-38
0.034600656 0.037441757 0.23099999 1.3000668e-38
0.031672787 0.038603611 0.23099998 1.3185423e-38
0.032741692 0.039672513 0.23100001 1.3001391e-38
0.031626314 0.040230203 0.23099999 1.3000312e-38
0.032741692 0.040044304 0.23100001 1.3092508e-38
0.030882729 0.041903269 0.23100001 1.3000312e-38
0.031440418 0.041531477 0.23099999 1.3000312e-38
0.030882729 0.04227506 0.23100001 1.3000312e-38
0.031254523 0.04227506 0.23100001 1.3092508e-38
0.027784457 0.0436383 0.23100001 1.3646039e-38
0.028503258 0.043464795 0.23099999 1.3554201e-38
0.027722491 0.044691712 0.23100001 1.318506e-38
0.035310544 -0.010938425 0.23200001 1.5622485e-38
0.04352539 -0.0064576003 0.23200001 1.3505936e-38
0.049313124 0.028642192 0.23200001 1.3462726e-38
0.04893972 0.029015595 0.23200001 1.4108095e-38
0.049313124 0.029388998 0.23200001 1.355492e-38
0.037364256 0.032376211 0.23200001 1.3277255e-38
0.039978072 0.032376211 0.23200001 1.3369451e-38
0.040538173 0.032189511 0.23200001 1.318506e-38
0.036990855 0.033683121 0.23200001 1.3461647e-38
0.037364256 0.033496417 0.23200001 1.3461647e-38
0.039604671 0.033309717 0.23200001 1.3092861e-38
0.033505768 0.035487898 0.23200001 1.3092864e-38
0.031763226 0.037977245 0.23200001 1.3277255e-38
0.032510027 0.037977245 0.23200001 1.3369451e-38
0.033256833 0.037230439 0.23200001 1.3000668e-38
0.031389821 0.038350645 0.23200001 1.3553842e-38
0.030518549 0.041586798 0.23200001 1.3000668e-38
0.030269615 0.042271368 0.23200001 1.3000668e-38
0.028215904 0.043204874 0.23200001 1.3000668e-38
0.036025263 -0.010985573 0.23300001 1.5253703e-38
0.033775192 -0.0016102848 0.23300001 1.3783962e-38
0.033525184 0.031640742 0.233 1.3645679e-38
0.034337711 0.031578239 0.23300001 1.3737873e-38
0.035462745 0.031578239 0.23300001 1.3460928e-38
0.032650158 0.032140754 0.23300001 1.3277255e-38
0.033400178 0.032515764 0.23300001 1.318506e-38
0.034337711 0.032515768 0.23300001 1.3369452e-38
0.035462745 0.032515764 0.23300001 1.3276898e-38
0.037275299 0.032390762 0.233 1.3000668e-38
0.039775379 0.032140754 0.23300001 1.3092864e-38
0.033525184 0.033390794 0.233 1.318506e-38
0.034337711 0.033453297 0.23300001 1.318506e-38
0.035462745 0.033453297 0.23300001 1.318506e-38
0.036212768 0.033453297 0.23300001 1.3092864e-38
0.037150297 0.033265792 0.23300001 1.3553839e-38
0.036212768 0.034015812 0.23300001 1.3092865e-38
0.032525156 0.035640862 0.233 1.3553842e-38
0.033025168 0.03589087 0.23300001 1.3277255e-38
0.032650158 0.036640894 0.23300001 1.3000668e-38
0.033025168 0.036640894 0.23300001 1.3000668e-38
0.031650126 0.037265912 0.233 1.3092864e-38
0.032525156 0.037265912 0.233 1.3000668e-38
0.0307751 0.038703457 0.23300001 1.3461289e-38
0.031150112 0.038140941 0.23300001 1.3277255e-38
0.0307751 0.039265975 0.23300001 1.3184704e-38
0.029650064 0.040766019 0.23300001 1.3092864e-38
0.030587595 0.040391009 0.23300001 1.3000668e-38
0.030400088 0.041516043 0.23300001 1.3000668e-38
0.022524843 0.042641077 0.233 1.3092864e-38
0.023649879 0.042641077 0.23300001 1.318506e-38
0.024212394 0.042641077 0.23300001 1.3092864e-38
0.023649879 0.04357861 0.23300001 1.3000668e-38
0.038439605 -0.012539206 0.23400001 1.6731707e-38
0.037686363 -0.010656101 0.23400001 1.5159349e-38
0.038062982 -0.010656101 0.23400001 1.5342659e-38
0.043335676 -0.0068898904 0.23400001 1.4242059e-38
0.032696132 0.033314407 0.23400001 1.318506e-38
0.033166908 0.033785183 0.23400001 1.3277255e-38
0.031660423 0.03660984 0.23400001 1.3461647e-38
0.032413665 0.03660984 0.23400001 1.318506e-38
0.032413665 0.037174769 0.23400001 1.3000668e-38
0.028270835 0.038681254 0.23400001 1.3277255e-38
0.029400697 0.038681254 0.23400001 1.318506e-38
0.030530561 0.038492944 0.23400001 1.318506e-38
0.027768673 0.039560039 0.23400001 1.3183979e-38
0.028270835 0.0394345 0.23400001 1.3092504e-38
0.029400697 0.0394345 0.23400001 1.3092864e-38
0.03015394 0.0394345 0.23400001 1.3092864e-38
0.02676435 0.040564362 0.23400001 1.3737152e-38
0.027705902 0.040564362 0.23400001 1.3183978e-38
0.029353619 0.040517282 0.234 1.3000668e-38
0.021491652 0.041694224 0.23400001 1.3460565e-38
0.021303341 0.042447466 0.23400001 1.3276892e-38
0.022621518 0.042259153 0.23400001 1.3460566e-38
0.023374759 0.042259157 0.23400001 1.3368371e-38
0.024128001 0.042447466 0.23400001 1.3368372e-38
0.035388917 -0.011836331 0.23500001 1.5899072e-38
0.036334492 -0.011836331 0.23500001 1.5162586e-38
0.03482157 -0.001624107 0.23500001 1.3230794e-38
0.026878728 0.034307793 0.23500001 1.3460568e-38
0.027256958 0.034307793 0.23500001 1.3460568e-38
0.026689611 0.035253368 0.23500001 1.3460568e-38
0.019692345 0.03771187 0.23500001 1.4105574e-38
0.018557653 0.03884656 0.23500001 1.4382161e-38
0.019566268 0.038720485 0.23500001 1.4289965e-38
0.020070575 0.03884656 0.23500001 1.4382161e-38
0.018368538 0.039603025 0.23500001 1.3736792e-38
0.019503228 0.039603025 0.23500001 1.4289965e-38
0.02025969 0.039603025 0.23500001 1.419777e-38
0.017801192 0.040359482 0.23500001 1.3091782e-38
0.018368538 0.040359482 0.23500001 1.3368369e-38
0.019503228 0.0405486 0.23500001 1.3737153e-38
0.02025969 0.0405486 0.23500001 1.3921544e-38
0.019692345 0.041115943 0.23500001 1.3460565e-38
0.02025969 0.041494172 0.23500001 1.3552762e-38
0.021205267 0.041494176 0.23500001 1.3460565e-38
0.038008466 -0.013026219 0.23600002 1.6268578e-38
0.038008466 -0.012646378 0.23600002 1.645189e-38
0.023954382 0.032174744 0.23600002 1.4566552e-38
0.025853584 0.033694103 0.23600002 1.355276e-38
0.026613265 0.033694103 0.23600002 1.3368372e-38
0.02554971 0.034301847 0.23600002 1.3368012e-38
0.026739879 0.03420056 0.23600002 1.3368372e-38
0.025663663 0.035213463 0.23600002 1.3460568e-38
0.026613265 0.035213463 0.23600002 1.3460568e-38
0.017497102 0.040911064 0.23600002 1.3091782e-38
0.018446703 0.040911064 0.23600002 1.3183978e-38
0.019016461 0.041290905 0.23600002 1.3091782e-38
0.037947513 -0.013519669 0.23800001 1.6176382e-38
0.036643721 -0.012318515 0.23700002 1.5162586e-38
0.037597343 -0.012699964 0.23700002 1.5713963e-38
0.033733863 -0.00087872229 0.23800001 1.3419498e-38
0.03733762 -0.014345813 0.23900001 1.5806876e-38
0.03733762 -0.013576476 0.23900001 1.5529929e-38
0.034260273 -0.0008824144 0.23900001 1.3142911e-38
0.036592524 -0.014148317 0.24000001 1.5714322e-38
0.035948731 -0.013247003 0.24000001 1.5529571e-38
0.036528148 -0.013247003 0.24000001 1.5345179e-38
0.036528148 -0.012860725 0.24000001 1.5622485e-38
0.034934852 -0.0005019111 0.24100001 1.3052514e-38
0.034300819 -0.00050399371 0.24200001 1.3236186e-38
