# .PCD v0.7 - Point Cloud Data file format
VERSION 0.7
FIELDS x y z rgb
SIZE 4 4 4 4
TYPE F F F F
COUNT 1 1 1 1
WIDTH 787
HEIGHT 1
VIEWPOINT 0 0 0 1 0 0 0
POINTS 787
DATA ascii
0.022122076 0.02926703 0.13600001 1.4189411e-38
0.022505237 0.029665979 0.13700001 1.4741862e-38
0.022431737 0.030143728 0.13700001 1.5016645e-38
0.002450963 -0.030634074 0.16800001 1.4884199e-38
0.0027375561 -0.031088425 0.16900001 1.5344098e-38
0.0034284825 -0.0311804 0.16950001 1.589799e-38
0.0027375561 -0.030680418 0.16900001 1.4884199e-38
0.0032918097 -0.030771054 0.16950001 1.5528489e-38
0.014329324 -0.037786465 0.171 1.489066e-38
0.0055221841 -0.033658121 0.171 1.6640229e-38
0.0038708455 -0.031181112 0.171 1.5990546e-38
0.0042378097 -0.031272855 0.171 1.5901223e-38
0.0038708455 -0.030905889 0.171 1.5806155e-38
0.0043754214 -0.030401312 0.171 1.5437727e-38
0.0055221841 -0.03008022 0.171 1.5622836e-38
0.0035956225 -0.029529775 0.171 1.5159701e-38
0.0044212919 -0.029529775 0.171 1.4976028e-38
0.0055221841 -0.029529775 0.171 1.5437365e-38
0.0062561128 -0.029438034 0.171 1.5623553e-38
0.0036873634 -0.028887587 0.171 1.4975311e-38
0.0044212919 -0.028704103 0.171 1.4792356e-38
0.005487781 -0.028738508 0.171 1.5068223e-38
0.0060726306 -0.028979328 0.171 1.5437725e-38
0.0045589032 -0.027878435 0.171 1.4607609e-38
0.005246961 -0.027878435 0.171 1.4699081e-38
0.01478223 -0.038376547 0.17200001 1.5354156e-38
0.014689953 -0.037730604 0.17200001 1.4616594e-38
0.014218476 -0.039063737 0.17300001 1.4612628e-38
0.014218476 -0.038506854 0.17300001 1.4705546e-38
0.011155613 -0.037671529 0.17300001 1.5717555e-38
0.01477536 -0.037671529 0.17300001 1.4615876e-38
0.015332244 -0.037578713 0.17300002 1.498646e-38
0.014682546 -0.035258364 0.17300002 1.4518653e-38
0.0058652135 -0.034330223 0.17300001 1.7101563e-38
0.014636138 -0.034608666 0.17300001 1.4334262e-38
0.015140818 -0.039289538 0.17400001 1.5354512e-38
0.015280845 -0.03858941 0.17400001 1.5632186e-38
0.014382851 -0.039797004 0.17500001 1.4703746e-38
0.015650326 -0.039515343 0.17500001 1.3510249e-38
0.015509496 -0.038952019 0.17500001 1.5540351e-38
0.0053696972 -0.034445442 0.17500001 1.6548033e-38
0.0031164084 -0.029093884 0.17500001 1.4606533e-38
0.013407707 -0.040251825 0.177 1.5903017e-38
0.010615883 -0.039226256 0.177 1.5807234e-38
0.011665783 -0.039570771 0.17650001 1.5535679e-38
0.012446788 -0.039570771 0.17650001 1.6830016e-38
0.010613023 -0.038586758 0.17633335 1.5897632e-38
0.011405718 -0.038721368 0.17600001 1.5534601e-38
0.01234051 -0.03889133 0.17600001 1.6644547e-38
0.015314851 -0.03775825 0.17600001 1.4431129e-38
0.0041491049 -0.036263507 0.177 1.7103008e-38
0.004861305 -0.035123985 0.177 1.6826418e-38
0.002850946 -0.029260132 0.17600001 1.4238832e-38
0.011382534 -0.046400022 0.17800002 1.5183407e-38
0.012051009 -0.046782006 0.178 1.2978623e-38
0.011334785 -0.045636047 0.17799999 1.5820144e-38
0.01119154 -0.040192746 0.178 1.534949e-38
0.012337498 -0.040479235 0.17800002 1.664454e-38
0.013483457 -0.040670227 0.17800002 1.5443835e-38
0.014342926 -0.040765725 0.178 1.4518635e-38
0.015202394 -0.040479235 0.178 1.4985009e-38
0.016061863 -0.039046787 0.178 1.4896061e-38
0.016061863 -0.038473811 0.178 1.5077936e-38
0.0043157912 -0.037327852 0.178 1.7748015e-38
0.0043157912 -0.036754873 0.178 1.747179e-38
0.0043874132 -0.035322424 0.178 1.6918612e-38
0.0043157912 -0.034462955 0.178 1.6640586e-38
0.011830612 -0.046324581 0.17900001 1.4815702e-38
0.012118711 -0.046324581 0.17900001 1.4447279e-38
0.011830612 -0.045748383 0.17900001 1.5269848e-38
0.010678216 -0.04041855 0.17900001 1.5532442e-38
0.011542513 -0.040706649 0.17900001 1.5350565e-38
0.012983008 -0.040994748 0.17900001 1.6737093e-38
0.0155759 -0.040706649 0.17900001 1.4985009e-38
0.0037638387 -0.038113758 0.17900001 1.7653663e-38
0.0037638387 -0.03753756 0.17900001 1.7378154e-38
0.0036197891 -0.036601238 0.17900001 1.68275e-38
0.0043400368 -0.035808966 0.17900001 1.7103005e-38
0.0052043339 -0.035232767 0.17900001 1.636544e-38
0.0048009953 -0.034541331 0.17900001 1.6824977e-38
0.0053483839 -0.034464505 0.17900001 1.654839e-38
0.0060686311 -0.034656569 0.17900001 1.6640585e-38
0.011830612 -0.03436847 0.17900001 1.4246022e-38
0.012118711 -0.034464505 0.17900001 1.4061271e-38
0.0052043339 -0.033792272 0.17900001 1.6456193e-38
0.0023233434 -0.030046986 0.17900001 1.4423223e-38
0.012186414 -0.046148811 0.18000001 1.5087973e-38
0.0087099113 -0.041223768 0.18000001 1.7194124e-38
0.009289328 -0.041223768 0.18000001 1.6918616e-38
0.011896705 -0.041223768 0.18000001 1.5537111e-38
0.012331268 -0.041223768 0.18000001 1.6091007e-38
0.013490102 -0.041513477 0.18000001 1.4797024e-38
0.0033985879 -0.040547784 0.18000001 1.7190887e-38
0.0055231173 -0.040644351 0.18000001 1.6824973e-38
0.0085650571 -0.04042707 0.18000001 1.673243e-38
0.009289328 -0.040547784 0.18000001 1.6455842e-38
0.011027579 -0.04093406 0.18000001 1.5624994e-38
0.016242333 -0.039775226 0.18000001 1.4711669e-38
0.016532041 -0.038616393 0.18000001 1.4340373e-38
0.0029157402 -0.037457556 0.18000001 1.673602e-38
0.0032054489 -0.037312701 0.18000001 1.6826775e-38
0.0029157402 -0.036009014 0.18000001 1.7010815e-38
0.0034951572 -0.036009014 0.18000001 1.6918615e-38
0.0043642828 -0.03658843 0.18000001 1.7103008e-38
0.012476122 -0.035139889 0.18000001 1.3601369e-38
0.013200394 -0.035139889 0.18000001 1.4243148e-38
0.0011774891 -0.027897177 0.18000001 1.3597058e-38
0.012545433 -0.046696514 0.18100001 1.3528919e-38
0.0055538011 -0.044074651 0.18100001 1.663627e-38
0.0055538006 -0.043637674 0.18100001 1.6821017e-38
0.0061364374 -0.043637674 0.18100001 1.7463508e-38
0.0049711652 -0.042035427 0.18100001 1.7747648e-38
0.005512184 -0.042493213 0.18100001 1.7470701e-38
0.0096322522 -0.042151954 0.18100001 1.664131e-38
0.010360548 -0.042181086 0.18100001 1.5716107e-38
0.011234502 -0.042035427 0.18100001 1.4890297e-38
0.012691092 -0.042035427 0.18100001 1.5998805e-38
0.014002024 -0.042035427 0.18100001 1.4242407e-38
0.0035145748 -0.041258577 0.18100001 1.7467836e-38
0.0048740595 -0.041258577 0.18100001 1.7286309e-38
0.0055538011 -0.041307133 0.18100001 1.7378864e-38
0.0084669814 -0.04116147 0.18100001 1.691754e-38
0.0097779119 -0.041307129 0.18100001 1.6179256e-38
0.010360548 -0.041307129 0.18100001 1.5530647e-38
0.011234502 -0.041452792 0.18100001 1.5349481e-38
0.015312955 -0.041452792 0.18100001 1.4614426e-38
0.016332569 -0.04116147 0.18100001 1.2956352e-38
0.0036602342 -0.040870152 0.18100001 1.7468193e-38
0.004679847 -0.040578838 0.18100001 1.7193756e-38
0.0056509073 -0.040481728 0.18100001 1.700972e-38
0.007884345 -0.040870152 0.18100001 1.673243e-38
0.0087582991 -0.040870152 0.18100001 1.6824626e-38
0.0097779119 -0.040578835 0.18100001 1.5901229e-38
0.010214889 -0.040870152 0.18100001 1.5438091e-38
0.016332569 -0.040287517 0.18100001 1.4065221e-38
0.0048740595 -0.039899092 0.18100001 1.7010079e-38
0.0055538006 -0.039704885 0.18100001 1.6456904e-38
0.0096322531 -0.03985054 0.18100001 1.5899788e-38
0.016696716 -0.039632052 0.18100001 1.3510249e-38
0.0056509073 -0.038733821 0.18100001 1.6272874e-38
0.002931939 -0.037374336 0.18100001 1.673602e-38
0.012321818 -0.046368647 0.18200001 1.554392e-38
0.011735963 -0.045782793 0.18200001 1.5812597e-38
0.012447357 -0.045448024 0.18200003 1.5445973e-38
0.0045885318 -0.044142399 0.18200001 1.7099765e-38
0.0055844849 -0.044611085 0.18200001 1.6819218e-38
0.0063168034 -0.044171691 0.18200001 1.7371313e-38
0.011735963 -0.044025227 0.18200001 1.5627849e-38
0.012419458 -0.044318158 0.18200003 1.5720409e-38
0.0047057024 -0.043439373 0.18200001 1.7377068e-38
0.0061703399 -0.043146446 0.18200001 1.737455e-38
0.01085718 -0.043146446 0.18200001 1.5165438e-38
0.011443036 -0.043439373 0.18200001 1.5443101e-38
0.012419459 -0.043439373 0.18200003 1.553674e-38
0.013200601 -0.043146446 0.18200001 1.4979972e-38
0.014811702 -0.043146446 0.18200001 1.3603506e-38
0.015544022 -0.043146446 0.18200001 1.3329075e-38
0.0038269197 -0.042267665 0.18200001 1.7744058e-38
0.0045592389 -0.042560592 0.18200003 1.7469624e-38
0.0055844849 -0.042560592 0.18200001 1.7655455e-38
0.0061703399 -0.042560592 0.182 1.7654016e-38
0.0085137598 -0.042267665 0.18200001 1.7010086e-38
0.0093925428 -0.042755876 0.182 1.738031e-38
0.010637484 -0.042780288 0.18200001 1.5256203e-38
0.011501621 -0.042619176 0.18200001 1.5167599e-38
0.012363664 -0.042644288 0.18200003 1.553782e-38
0.01349353 -0.042707056 0.18200003 1.4611549e-38
0.014665239 -0.042560596 0.18200003 1.38765e-38
0.015544021 -0.042560592 0.18200003 1.3602788e-38
0.003680456 -0.041681807 0.18200001 1.7836618e-38
0.0042174901 -0.041584164 0.182 1.7468909e-38
0.0061703399 -0.04138888 0.182 1.8025324e-38
0.0082208328 -0.041681807 0.18200001 1.6732427e-38
0.015836949 -0.041681807 0.18200001 1.406305e-38
0.016276341 -0.041681807 0.18200001 1.3048545e-38
0.0061703399 -0.040363636 0.18200001 1.7285242e-38
0.0083672963 -0.040217172 0.18200001 1.6731708e-38
0.0090996148 -0.040217172 0.18200001 1.6547316e-38
0.0061703399 -0.039533675 0.182 1.6730981e-38
0.0083672963 -0.039924245 0.18200001 1.6547677e-38
0.0090996148 -0.039924245 0.18200001 1.5994862e-38
0.0061703399 -0.038752533 0.18200001 1.6454749e-38
0.0023622822 -0.037873752 0.18200001 1.6000976e-38
0.00265521 -0.036994971 0.18200001 1.6736023e-38
0.012536788 -0.046328887 0.18300001 1.5174779e-38
0.01238952 -0.045739811 0.18300001 1.5629284e-38
0.0035534098 -0.044267129 0.18300001 1.6821026e-38
0.004437021 -0.044708934 0.18300001 1.7099768e-38
0.0056151692 -0.044856202 0.18300001 1.6728464e-38
0.011358641 -0.044414397 0.18300001 1.5534216e-38
0.013567669 -0.044267129 0.18300001 1.442859e-38
0.0034797757 -0.043383516 0.18300001 1.6912502e-38
0.0041424837 -0.043481696 0.18300001 1.7282e-38
0.0088550756 -0.04308898 0.18300001 1.7840926e-38
0.0097386874 -0.043383516 0.18300001 1.7101563e-38
0.01042594 -0.043579876 0.18300001 1.5349117e-38
0.013714937 -0.043678053 0.18300001 1.4243842e-38
0.014254923 -0.043776233 0.18300001 1.397013e-38
0.015334892 -0.043972593 0.18300001 1.3057518e-38
0.0029643357 -0.042499907 0.18300001 1.6362208e-38
0.0033570519 -0.042696267 0.18300001 1.7466038e-38
0.0041424837 -0.042794444 0.18300001 1.7282001e-38
0.0067933169 -0.041321758 0.18300001 1.8026409e-38
0.0073087565 -0.041469026 0.18300001 1.7010816e-38
0.0074805696 -0.040634502 0.18300001 1.6917543e-38
0.0026697989 -0.037492778 0.18300001 1.6644547e-38
0.0058254153 -0.047132969 0.185 1.6455837e-38
0.0067186831 -0.047132969 0.185 1.6179962e-38
0.0073141949 -0.047132969 0.185 1.6273952e-38
0.0083563412 -0.047345649 0.18500002 1.6551975e-38
0.009249609 -0.047281846 0.185 1.6551613e-38
0.013049516 -0.047470491 0.18400002 1.3436723e-38
0.0044855131 -0.0462397 0.185 1.6456559e-38
0.0055914638 -0.04636731 0.18500002 1.6731703e-38
0.0067186831 -0.046388578 0.185 1.6271078e-38
0.0073141949 -0.046388578 0.185 1.6457623e-38
0.0083563412 -0.046388578 0.185 1.6552687e-38
0.009249609 -0.046537455 0.185 1.6551969e-38
0.013049516 -0.046878193 0.18400002 1.4719194e-38
0.0042794636 -0.045661736 0.18466668 1.6548396e-38
0.0054484219 -0.04569361 0.18400002 1.6730624e-38
0.0066500353 -0.045396488 0.18485714 1.691285e-38
0.0072645689 -0.045743439 0.185 1.6916441e-38
0.011376903 -0.045520425 0.18450001 1.5717887e-38
0.01356707 -0.045197554 0.185 1.4430028e-38
0.0026843881 -0.044212878 0.18400002 1.6269657e-38
0.0032766811 -0.044360951 0.18400002 1.654408e-38
0.0065698051 -0.044453166 0.185 1.7555704e-38
0.0086540971 -0.044602044 0.185 1.7472139e-38
0.0093855849 -0.04454197 0.18475001 1.7381022e-38
0.010338378 -0.0444819 0.18450001 1.5624263e-38
0.013345662 -0.044805169 0.18400002 1.4521505e-38
0.014013704 -0.044750921 0.185 1.3971205e-38
0.0026103514 -0.043398473 0.18400002 1.6177818e-38
0.0032766811 -0.043620583 0.18400002 1.6820307e-38
0.0067009269 -0.043442171 0.18450002 1.737563e-38
0.008539252 -0.043481946 0.18466668 1.7194119e-38
0.0091996109 -0.043620583 0.18400002 1.7934919e-38
0.0067009265 -0.042551313 0.18450001 1.7839492e-38
0.0074420976 -0.042254362 0.18450001 1.6825343e-38
0.0080150254 -0.042732146 0.18400002 1.673206e-38
0.0065342924 -0.041843705 0.18400002 1.8210434e-38
0.0074227322 -0.041843705 0.18400002 1.7009736e-38
0.002589999 -0.040435556 0.18433334 1.6267489e-38
0.006661213 -0.040447585 0.18400002 1.7469273e-38
0.0074227322 -0.040807191 0.18400002 1.7101217e-38
0.0086540971 -0.040284581 0.185 1.6548036e-38
0.009249609 -0.040284581 0.185 1.5810471e-38
0.006552049 -0.039432921 0.18450001 1.6546946e-38
0.0012101971 -0.030756392 0.185 1.4148434e-38
0.0048091249 -0.046789009 0.186 1.6365442e-38
0.0078027793 -0.046190277 0.186 1.6827477e-38
0.0084015103 -0.046190277 0.186 1.6644881e-38
0.0090002418 -0.046489645 0.186 1.6552685e-38
0.0110958 -0.046339959 0.186 1.5625331e-38
0.0075034141 -0.045441862 0.186 1.7192672e-38
0.0085511934 -0.045591548 0.186 1.7104787e-38
0.0074535199 -0.044743344 0.186 1.7466745e-38
0.0084015103 -0.044593662 0.186 1.7469622e-38
0.0098983375 -0.044992816 0.186 1.6086322e-38
0.014688184 -0.044992816 0.186 1.3515619e-38
0.015436599 -0.044992816 0.186 1.296712e-38
0.0075034141 -0.043555863 0.186 1.7191242e-38
0.0074435412 -0.040622082 0.186 1.7191972e-38
0.0084015103 -0.040502336 0.186 1.6639514e-38
0.0021148352 -0.039903603 0.186 1.6548389e-38
0.0066053178 -0.039304875 0.186 1.6363272e-38
0.0072040483 -0.039903603 0.186 1.7098689e-38
0.0018154697 -0.038406778 0.186 1.4893552e-38
0.0015161042 -0.03032391 0.186 1.3871847e-38
0.00061800773 -0.029425813 0.186 1.3965485e-38
0.013563254 -0.047943488 0.18700001 1.3253775e-38
0.0078447303 -0.045535691 0.18700001 1.7561815e-38
0.0082961926 -0.045535691 0.18700001 1.7471414e-38
0.0090486296 -0.045535691 0.18700001 1.7472493e-38
0.010703992 -0.045686178 0.18700001 1.580793e-38
0.014466179 -0.045234714 0.18700001 1.4155596e-38
0.0076189991 -0.044407032 0.18700001 1.7282714e-38
0.0075437552 -0.043729842 0.18700001 1.7098689e-38
0.0075437552 -0.040118139 0.18700001 1.6637713e-38
0.0093496051 -0.040118139 0.18700001 1.5534237e-38
0.0069418051 -0.039666679 0.18700001 1.6914296e-38
0.0075437552 -0.039666679 0.18700001 1.6545156e-38
0.00062133034 -0.031088892 0.18700001 1.4149513e-38
0.00052100536 -0.030336455 0.18700002 1.4057678e-38
0.0013737679 -0.030185968 0.18700001 1.3871847e-38
-0.00028159458 -0.029584019 0.18700001 1.3783612e-38
0.00050094037 -0.029764604 0.18700001 1.3873647e-38
0.0013737677 -0.029734507 0.18700001 1.3871487e-38
0.0022265301 -0.029684344 0.18699999 1.3871127e-38
0.052539513 0.0062319986 0.18700001 1.5208579e-38
0.013736646 -0.047695562 0.18800001 1.4076702e-38
0.010307356 -0.046081778 0.18800001 1.5994124e-38
0.013635784 -0.046838239 0.18800001 1.4527972e-38
0.009702187 -0.045779195 0.18800001 1.6182834e-38
0.010004771 -0.045779195 0.18800001 1.6178518e-38
0.0015324064 -0.040030092 0.18800001 1.5721152e-38
0.0081892647 -0.040332675 0.18800001 1.6453322e-38
0.0013306834 -0.039525781 0.18800001 1.5075785e-38
0.00047336076 -0.03851717 0.18800001 1.5347337e-38
0.0013508557 -0.038456656 0.18800001 1.4889236e-38
0.00062465295 -0.037609413 0.18800001 1.5254782e-38
0.0013811141 -0.037609413 0.18800001 1.507039e-38
1.9484047e-05 -0.031255141 0.18800001 1.4519015e-38
0.05256832 0.0066687707 0.18800001 1.520894e-38
0.052820474 0.0071730781 0.18800001 1.5116027e-38
0.010210085 -0.047239479 0.18900001 1.618031e-38
0.0093482025 -0.046529692 0.18900001 1.6643806e-38
0.010159385 -0.046732485 0.18900001 1.6271428e-38
0.0144688 -0.046022702 0.18900001 1.4064477e-38
0.0079286303 -0.040243018 0.18900001 1.6544439e-38
0.0088412119 -0.040547211 0.18900001 1.6362922e-38
-0.00058880023 -0.030508814 0.18900001 1.360138e-38
0.052340947 0.0069070389 0.18900001 1.6130166e-38
0.053557727 0.0066028452 0.18900001 1.4102598e-38
0.0091937948 -0.047183618 0.19000001 1.6552685e-38
0.0082763843 -0.040455941 0.19000001 1.6268928e-38
0.052770786 0.0074022892 0.19000001 1.6130167e-38
0.053382393 0.0075551909 0.19000001 1.493236e-38
0.014352372 -0.048172556 0.19150001 1.3891231e-38
0.014413065 -0.047494467 0.19142857 1.4068791e-38
0.015471021 -0.047371268 0.192 1.2971433e-38
0.015390442 -0.046509717 0.19100001 1.3334105e-38
0.051935669 0.0063986299 0.192 1.3090288e-38
0.052279994 0.0066727167 0.19100001 1.4932728e-38
0.051626645 0.0072638923 0.192 1.3733482e-38
0.052358929 0.0075184568 0.19166668 1.5853582e-38
0.054431885 0.0072875423 0.19100001 1.2996994e-38
0.054253336 0.0082527641 0.192 1.3918597e-38
0.052206166 0.0075191678 0.193 1.4839099e-38
0.051398523 0.0085442532 0.193 1.4010422e-38
0.052516799 0.0082957475 0.193 1.5853224e-38
0.053604007 0.0082957475 0.193 1.5946142e-38
0.015319936 -0.048333079 0.19400001 1.3155463e-38
0.051852182 0.0089632133 0.19400001 1.474762e-38
0.052476667 0.0088070929 0.19400001 1.530077e-38
0.053413391 0.008807092 0.19400001 1.5484441e-38
0.054662358 0.008807092 0.19400001 1.3458702e-38
0.050665665 0.0095252478 0.19400001 1.299737e-38
0.051696062 0.0095876958 0.19400001 1.5024194e-38
0.052476663 0.0095876958 0.19400001 1.5116737e-38
0.053413391 0.0095876958 0.19400001 1.4102242e-38
0.051852182 0.010212178 0.19400001 1.6130169e-38
0.052580744 0.010316259 0.19400001 1.4655051e-38
0.051852182 0.011773386 0.19400001 1.4839074e-38
0.05253911 0.011523592 0.19400001 1.345833e-38
0.051748101 0.012501949 0.19400001 1.4194077e-38
0.050837398 0.013568774 0.19400001 1.4654694e-38
0.050759334 0.014583558 0.19400001 1.299591e-38
0.050707132 0.010421744 0.19500001 1.382532e-38
0.051334836 0.010421744 0.19500001 1.5116032e-38
0.052276388 0.01057867 0.19500001 1.6037254e-38
0.050707132 0.011520222 0.19500001 1.5116395e-38
0.051334839 0.011520222 0.19500001 1.5669192e-38
0.052224081 0.01131099 0.19500001 1.5484085e-38
0.049608652 0.012461775 0.19500001 1.3733839e-38
0.050707132 0.012461776 0.19500001 1.5761032e-38
0.051282525 0.012357158 0.19500001 1.5761388e-38
0.049608652 0.013246402 0.19500001 1.4747255e-38
0.050707132 0.013246402 0.19500001 1.5668835e-38
0.048353251 0.014501807 0.19500001 1.3365056e-38
0.049608652 0.014501804 0.19500001 1.576067e-38
0.050550207 0.014501806 0.19500001 1.4562139e-38
0.048353251 0.015757211 0.19500001 1.502383e-38
0.049608652 0.015757211 0.19500001 1.5576636e-38
0.047411695 0.016541835 0.19500001 1.3918225e-38
0.048353251 0.016541837 0.19500001 1.539296e-38
0.049608652 0.016541837 0.19500001 1.4286266e-38
0.046627063 0.017483389 0.19500001 1.2996635e-38
0.047411695 0.017483389 0.19500001 1.4655055e-38
0.048353251 0.017483389 0.19500002 1.5300404e-38
0.046627071 0.018581867 0.19500001 1.4746887e-38
0.047411699 0.018581867 0.19500001 1.5207493e-38
0.048353251 0.018581867 0.19500001 1.3916404e-38
0.045528591 0.019471111 0.19500002 1.3181027e-38
0.046627071 0.019471111 0.19500001 1.6036891e-38
0.047411695 0.019471111 0.19500001 1.557555e-38
0.045528591 0.020464972 0.19500001 1.4286273e-38
0.046627067 0.020464972 0.19500001 1.5760302e-38
0.047411699 0.020464972 0.19500001 1.4838352e-38
0.044587035 0.02156345 0.19500001 1.3272848e-38
0.045528591 0.021563452 0.19500002 1.4746877e-38
0.046627071 0.02156345 0.19500001 1.3917119e-38
0.044587038 0.022505004 0.19500001 1.5208217e-38
0.045528591 0.022505002 0.19500001 1.5484073e-38
0.043540869 0.02328963 0.19500001 1.2996986e-38
0.044587038 0.023289628 0.19500001 1.5760659e-38
0.045528591 0.023289628 0.19500001 1.5760299e-38
0.043540869 0.024388107 0.19500002 1.4747243e-38
0.044587042 0.02438811 0.19500001 1.4838345e-38
0.045528591 0.024388107 0.19500002 1.3456146e-38
0.043606251 0.025486585 0.19500002 1.5299686e-38
0.044587035 0.025538892 0.19500001 1.4377737e-38
0.04380241 0.026585063 0.19500001 1.4285892e-38
0.044587038 0.026585065 0.19500001 1.3088453e-38
0.04369032 0.027571453 0.19500002 1.327211e-38
0.032660704 0.042277608 0.19500001 1.5110636e-38
-0.0025033702 -0.03132331 0.19600001 1.4466427e-38
0.0427652 0.025459558 0.19600001 1.2995191e-38
0.042765196 0.026248205 0.19600001 1.3917845e-38
0.04323839 0.026248205 0.19600001 1.4285892e-38
0.041661087 0.027510049 0.19599999 1.3918215e-38
0.042765196 0.027510047 0.19599999 1.6037963e-38
0.04323839 0.027352316 0.19600002 1.5484069e-38
0.041661084 0.02877189 0.19599999 1.4471007e-38
0.0427652 0.028771888 0.19600001 1.4655027e-38
0.041661087 0.029560538 0.19599999 1.4838342e-38
0.0427652 0.02956054 0.19600001 1.354905e-38
0.040399246 0.030506922 0.19599999 1.3456863e-38
0.041661087 0.030506922 0.19599999 1.4193689e-38
0.040399242 0.031611029 0.19599999 1.3640522e-38
0.039452866 0.032241955 0.19600001 1.2995173e-38
0.040399246 0.032241955 0.19599999 1.3548324e-38
0.038664211 0.033346064 0.19599999 1.3820972e-38
0.039452866 0.033346064 0.19599999 1.4282296e-38
0.040399246 0.033346064 0.19599999 1.3086632e-38
0.037560102 0.034607902 0.19599999 1.326782e-38
0.038664211 0.034607902 0.19599999 1.4740408e-38
0.039452866 0.034607906 0.19599999 1.4370904e-38
0.037560102 0.035554286 0.19599999 1.4004297e-38
0.038664214 0.035554286 0.19600001 1.4277642e-38
0.039452866 0.035554286 0.19600001 1.3171666e-38
0.036613718 0.036342934 0.19600001 1.3728077e-38
0.037560105 0.036342934 0.19599999 1.4371637e-38
0.038664214 0.036342934 0.19600001 1.317167e-38
0.036613718 0.03744705 0.19599999 1.4003571e-38
0.037560102 0.037447046 0.19599999 1.3542594e-38
0.035562184 0.038393427 0.19599999 1.3084493e-38
0.0344055 0.039444964 0.19599999 1.3084867e-38
0.032670468 0.040601652 0.19599999 1.3177795e-38
0.033301383 0.040601652 0.19599999 1.3821707e-38
0.0344055 0.040601652 0.19599999 1.2991219e-38
0.032670468 0.041705761 0.19600001 1.4558191e-38
0.033301383 0.041705765 0.19600001 1.4925887e-38
0.03150326 0.042368229 0.19600001 1.3636966e-38
0.032670468 0.042336684 0.19600001 1.5018442e-38
0.033301383 0.042336684 0.19600001 1.4741134e-38
0.031566355 0.043480225 0.19599999 1.4924089e-38
0.032702014 0.043503888 0.19600001 1.4370914e-38
0.033301383 0.043440793 0.19599999 1.3265299e-38
0.030462243 0.044544905 0.19600001 1.4464923e-38
0.031566352 0.044544905 0.19599999 1.501556e-38
0.029568437 0.045438714 0.19599999 1.3728804e-38
0.030462243 0.045438711 0.19599999 1.4832614e-38
0.031566352 0.045438714 0.19599999 1.3726268e-38
0.029568436 0.046437666 0.19599999 1.4741499e-38
0.030462243 0.046437666 0.19600001 1.4371633e-38
0.028727209 0.047699511 0.19600001 1.5292512e-38
0.029568441 0.047541779 0.19599999 1.4739339e-38
0.029673591 0.048425067 0.19600001 1.3173104e-38
0.02841175 0.049434543 0.19600001 1.3725183e-38
0.027780829 0.050380927 0.19600002 1.3632989e-38
0.028451018 0.047572959 0.19700001 1.4280172e-38
0.027764034 0.048259947 0.19700001 1.3727364e-38
0.028239638 0.04810141 0.19700001 1.4555675e-38
0.027764035 0.049369693 0.19700001 1.4555667e-38
0.026495755 0.050637972 0.19700001 1.4095416e-38
0.027605498 0.050637972 0.19700001 1.4093967e-38
0.025280319 0.051483493 0.19700001 1.3174553e-38
0.026495755 0.051589184 0.19700001 1.4370557e-38
0.026559168 0.05247698 0.19700001 1.3172379e-38
0.0013083211 -0.010234423 0.2 1.3459123e-38
0.00098149071 -0.009062239 0.19900002 1.3366927e-38
0.00141344 -0.0093071973 0.19966668 1.3459123e-38
0.00098149071 -0.008581806 0.19900002 1.327545e-38
0.0014676349 -0.0086139487 0.19975001 1.3459483e-38
-0.010923817 -0.0071763885 0.2 1.4565106e-38
0.0013083211 -0.0078201853 0.2 1.3275811e-38
-0.015430394 -0.0023479136 0.2 1.4104128e-38
-0.014786596 -0.0023479136 0.2 1.3827541e-38
-0.015591342 -0.0013822187 0.2 1.3827541e-38
-0.014657837 -0.0013822188 0.2 1.3919737e-38
-0.015430394 -0.00041652375 0.2 1.364315e-38
-0.014786596 -0.00041652375 0.2 1.3735345e-38
0.022019366 -0.016432242 0.20100001 1.2999224e-38
0.022235038 -0.015731309 0.20100002 1.2999224e-38
0.0016383706 -0.011417872 0.20100001 1.3643514e-38
0.00099135493 -0.010770856 0.20100001 1.3551673e-38
0.0017462065 -0.01066302 0.20100002 1.3643513e-38
0.00034433921 -0.0088298097 0.20100001 1.3643514e-38
0.0019618785 -0.0088298097 0.20100001 1.3459123e-38
0.00066784705 -0.0078592859 0.20100001 1.3368006e-38
-0.0043465248 -0.0056756088 0.20100001 1.3459477e-38
-0.0038612629 -0.0052712238 0.20100001 1.3459477e-38
-0.0038612629 -0.004624208 0.20100001 1.3459477e-38
0.0013148627 -0.004624208 0.20100001 1.2999224e-38
-0.014375269 -0.0013891298 0.20100001 1.3919737e-38
0.022454033 -0.01602632 0.20200001 1.3275811e-38
0.023104267 -0.015701203 0.20200001 1.2999224e-38
0.0009962871 -0.011474677 0.20200001 1.3643514e-38
0.0014839631 -0.011799795 0.20200001 1.3643514e-38
0.0025405944 -0.011555957 0.20200001 1.3551318e-38
0.0039223433 -0.011474677 0.20200001 1.2999224e-38
0.0044100196 -0.011637236 0.20200001 1.3091419e-38
0.0016465217 -0.010174208 0.20200001 1.3551318e-38
0.002621874 -0.010499326 0.20200001 1.3551677e-38
0.0035322024 -0.010564349 0.20199999 1.3275811e-38
0.0044100196 -0.010499326 0.20200001 1.3183615e-38
0.0016465217 -0.0098490911 0.20200001 1.3459123e-38
0.0025568504 -0.0095889959 0.20199999 1.3551318e-38
0.0045725782 -0.0095239729 0.20200001 1.3183615e-38
2.0934986e-05 -0.0085486211 0.20200001 1.3368006e-38
0.0024051289 -0.0087653659 0.20200001 1.3459483e-38
0.00058989041 -0.0075732693 0.20200001 1.3275811e-38
0.0014839631 -0.0075732693 0.20200001 1.3183615e-38
0.0022967565 -0.0078983866 0.20200001 1.3275811e-38
0.0039223433 -0.007248152 0.20200001 1.3183615e-38
-0.0053976872 -0.0064895451 0.20200001 1.3827541e-38
-0.0045307078 -0.0065979175 0.20200001 1.3551313e-38
-0.0035553556 -0.0065979175 0.20200001 1.3459477e-38
-0.0055060596 -0.0057851248 0.20200001 1.3735345e-38
-0.0048558251 -0.0054600076 0.20200001 1.3459477e-38
-0.003392797 -0.0056225662 0.20200001 1.3459477e-38
-0.0029051213 -0.005297449 0.20200001 1.3367282e-38
0.00056279724 -0.0055141938 0.20200001 1.2999224e-38
-0.0043681492 -0.0044846553 0.20200001 1.3367285e-38
-0.003392797 -0.0044846553 0.20200001 1.3459477e-38
-0.0029051213 -0.0043220967 0.20200001 1.3459477e-38
2.0934986e-05 -0.0044846553 0.20200001 1.3090698e-38
-0.003392797 -0.0039969794 0.20200001 1.3551673e-38
0.0009962871 0.00022954564 0.20200001 1.2998145e-38
0.0014839631 0.00039210427 0.20200001 1.3274732e-38
0.0015652424 0.0014487356 0.20200001 1.30907e-38
0.00067449233 -0.014472024 0.20300001 1.3459477e-38
0.0017200181 -0.014602715 0.20300002 1.2998501e-38
0.00051112892 -0.013491842 0.20300002 1.38279e-38
0.0016546728 -0.013491843 0.20300004 1.3551673e-38
0.00056558341 -0.012620572 0.20300001 1.3736066e-38
0.0016546728 -0.012511662 0.20300002 1.3643514e-38
0.0027982169 -0.012511663 0.20300001 1.3275092e-38
0.00045667446 -0.0117493 0.20300001 1.3551318e-38
0.0027982169 -0.011858209 0.20300001 1.3551318e-38
0.0033972161 -0.0117493 0.20300001 1.327509e-38
-0.0034640478 -0.010333484 0.20300001 1.364315e-38
-0.0028378214 -0.010551302 0.20300001 1.3550954e-38
0.00034776548 -0.010878029 0.20300001 1.3551673e-38
0.0036150338 -0.010224575 0.20300001 1.3275811e-38
-0.0042264103 -0.009571122 0.20300001 1.3734988e-38
-0.0035729567 -0.009571122 0.20300001 1.3643153e-38
-0.002919503 -0.009571122 0.20300001 1.3550954e-38
-0.00095914194 -0.0092443945 0.20300001 1.3827905e-38
0.0029615802 -0.0092443945 0.20300001 1.3368006e-38
0.0034516705 -0.009571122 0.20300001 1.3275811e-38
0.0042684874 -0.009571122 0.20300001 1.3275811e-38
-0.0032462298 -0.0089176679 0.20300001 1.364315e-38
-0.0025927762 -0.0087543046 0.20300001 1.3459477e-38
-0.0012858687 -0.0085909413 0.20300001 1.3552397e-38
-0.00052350614 -0.008808759 0.20300001 1.3643873e-38
0.0028526715 -0.0086998502 0.20300001 1.3275811e-38
0.0034516705 -0.0087543046 0.20300001 1.3275811e-38
0.0042684874 -0.0087543046 0.20300001 1.3183615e-38
-0.005206591 -0.007284034 0.20300001 1.3735345e-38
-0.0043897741 -0.007284034 0.20300001 1.364351e-38
-0.0032462298 -0.007284034 0.20300001 1.3643869e-38
-0.0024994256 -0.007564086 0.20300004 1.3551673e-38
-0.0014492321 -0.0076107606 0.20300002 1.3368006e-38
-0.00046905165 -0.007529079 0.20300001 1.3368006e-38
0.00012994758 -0.0073929429 0.20300001 1.3275811e-38
0.0018724906 -0.0073929429 0.20300001 1.3183615e-38
0.0027982167 -0.0076107606 0.20300002 1.3091419e-38
0.0034189976 -0.0076761059 0.20300002 1.3091419e-38
0.0042684874 -0.0079374881 0.20300001 1.3183615e-38
-0.0061867717 -0.0066305809 0.20300001 1.4196324e-38
-0.0058600446 -0.0069573075 0.20300001 1.3919737e-38
-0.0032462298 -0.0066305809 0.20300001 1.3551673e-38
-0.002592776 -0.0066305809 0.20300002 1.3459477e-38
-0.0014492322 -0.0066305809 0.20300001 1.3183615e-38
-0.00063241506 -0.0066305809 0.20300001 1.3275811e-38
0.00034776548 -0.0066305809 0.20300002 1.3183615e-38
0.0016546728 -0.0066305809 0.20300002 1.3091419e-38
-0.0061867717 -0.0058137639 0.20300001 1.4011932e-38
-0.0056966813 -0.0053236736 0.20300001 1.3551673e-38
-0.0025519354 -0.0056912415 0.20300004 1.3367282e-38
-0.0014492322 -0.0058137639 0.20300001 1.3183969e-38
-0.00063241506 -0.0056504006 0.20300002 1.3183612e-38
0.00021707473 -0.0057810913 0.20300002 1.3091419e-38
-0.005206591 -0.00467022 0.20300001 1.3367282e-38
-0.0043897741 -0.0041801296 0.20300001 1.3275089e-38
-0.0026472304 -0.0042890385 0.20300002 1.3274729e-38
-0.0016125956 -0.0040167663 0.20300001 1.2998499e-38
-0.00030568821 -0.0043434929 0.20300001 1.3090338e-38
2.1038624e-05 -0.0040167663 0.20300001 1.2998499e-38
-0.0035729567 -0.0033633129 0.20300001 1.3275808e-38
-0.002592776 -0.0031999492 0.20300002 1.3183969e-38
-0.0024294127 -0.0025464958 0.20300001 1.3183615e-38
0.0016546728 -0.00025940817 0.20300002 1.2998145e-38
-0.00063241506 0.0015375892 0.20300002 1.2998145e-38
-0.001511094 -0.017607788 0.20400001 1.3641709e-38
-0.00096386677 -0.01749834 0.20400001 1.2996699e-38
-0.0012922031 -0.016841669 0.20400001 1.3826462e-38
-0.00063553039 -0.016513333 0.20400001 1.299778e-38
-0.00063553039 -0.015528324 0.20400001 1.3550954e-38
-0.00056986313 -0.014740316 0.20400003 1.364351e-38
0.00045892401 -0.014762205 0.20400001 1.3459477e-38
0.0010061513 -0.01487165 0.20400001 1.309034e-38
-0.00038927814 -0.01364039 0.20400001 1.3919737e-38
-0.00030719407 -0.012573296 0.20400001 1.3736067e-38
0.00034947859 -0.01224496 0.20400001 1.373571e-38
-0.00047136223 -0.011752456 0.20400001 1.373571e-38
-0.0023866575 -0.010384388 0.20400001 1.3551314e-38
-0.0015548721 -0.010537611 0.20400003 1.3920457e-38
-0.00074497587 -0.010603279 0.20400001 1.3920457e-38
-0.0049039028 -0.0092899334 0.20400001 1.3919737e-38
-0.0024413802 -0.0096182693 0.20400001 1.3551313e-38
-0.0016205393 -0.0096182693 0.20400001 1.3736064e-38
-0.00096386677 -0.0099466061 0.20400001 1.4012297e-38
-0.0044661206 -0.0088521522 0.20400001 1.3735345e-38
-0.0039188936 -0.0089615975 0.20400001 1.3735345e-38
-0.002277212 -0.0089615975 0.20400001 1.3551673e-38
-0.0017299849 -0.0088521522 0.20400001 1.3643869e-38
-0.00096386677 -0.0086332615 0.20400001 1.3552397e-38
-0.0055605755 -0.007319916 0.20400001 1.3735345e-38
-0.0045755664 -0.0078124204 0.20400001 1.364351e-38
-0.0039188936 -0.007319916 0.20400001 1.3551673e-38
-0.00096386677 -0.0078124208 0.20400001 1.3460202e-38
-0.011470631 -0.0069915797 0.20400001 1.447291e-38
-0.006873921 -0.0064443522 0.20400001 1.4104128e-38
-0.0067097526 -0.0053498987 0.20400001 1.364351e-38
-0.0016205395 -0.0050215623 0.20400001 1.3366927e-38
-0.0053964071 -0.004529058 0.20400001 1.3275086e-38
-0.0049039028 -0.0040365537 0.20400001 1.3182536e-38
-0.002277212 -0.004529058 0.20400001 1.3090338e-38
-0.0015548721 -0.0044305571 0.20400003 1.3090696e-38
-0.00096386677 -0.0043648896 0.20400001 1.3090696e-38
-0.0037547257 -0.0030515445 0.20400001 1.3275808e-38
-0.0053964071 -0.002394872 0.20400001 1.3091419e-38
-0.0034263893 -0.0025590402 0.20400001 1.3183615e-38
-0.008187267 -0.0010815267 0.20400001 1.3643869e-38
-0.0035358348 -0.0014098631 0.20400001 1.2998503e-38
-0.008187267 -0.00042485422 0.20400001 1.3367282e-38
-0.0078589302 -0.00042485422 0.20400001 1.3367282e-38
-0.00424723 -9.6517921e-05 0.20400001 1.318289e-38
-0.0052322391 0.00039598651 0.20400001 1.3459477e-38
-0.0046850122 0.0003412638 0.20400001 1.318289e-38
-0.0053143231 0.0014630794 0.20400001 1.3367282e-38
-0.0045755664 0.0015451635 0.20400001 1.3090695e-38
-0.0052322391 0.0025301722 0.20400001 1.3090695e-38
2.1245902e-05 -0.01939882 0.20500001 1.3730294e-38
-0.0016284833 -0.018244009 0.20500001 1.3732824e-38
-0.0065776706 -0.017584117 0.205 1.5025005e-38
-0.0054778513 -0.017694099 0.205 1.4656583e-38
-0.0048179594 -0.017694099 0.205 1.4564387e-38
-0.0022883748 -0.017584117 0.20500001 1.4379636e-38
-0.0019584289 -0.017914062 0.20500001 1.428744e-38
-0.0075675086 -0.01659428 0.205 1.493281e-38
-0.0065776706 -0.01659428 0.20500003 1.4840614e-38
-0.005587833 -0.01659428 0.20500003 1.493281e-38
-0.0047959634 -0.016660269 0.20500001 1.4471831e-38
-0.0019584289 -0.016924225 0.20500001 1.428744e-38
-0.006412698 -0.015934389 0.20500001 1.4840614e-38
-0.0059177787 -0.015934389 0.20500001 1.4840614e-38
-0.0052578873 -0.009005527 0.20500001 1.3919737e-38
-0.0054778513 -0.0082356529 0.205 1.3827541e-38
-0.0049279416 -0.0086755808 0.20500001 1.3827541e-38
-0.0096131731 -0.007157831 0.20500001 1.4196324e-38
-0.0085573457 -0.0070258523 0.20500001 1.4104128e-38
-0.0077874721 -0.0071358345 0.205 1.3919737e-38
-0.005587833 -0.0076857437 0.20500001 1.3735345e-38
-0.01218675 -0.0063659609 0.20500001 1.4288519e-38
-0.011526858 -0.0063659609 0.20500001 1.4288519e-38
-0.0095471842 -0.0063659609 0.205 1.3919739e-38
-0.008447364 -0.0062559792 0.205 1.4195969e-38
-0.0077324812 -0.0062009883 0.20500001 1.4196328e-38
-0.0075675086 -0.0053761238 0.20500001 1.4380357e-38
-0.0069076167 -0.0050461777 0.20500001 1.3736064e-38
-0.013671506 -0.0042213132 0.20500001 1.3735345e-38
-0.012475452 -0.0043450431 0.20500003 1.3827541e-38
-0.011592848 -0.0043202969 0.20500001 1.3736066e-38
-0.0076994868 -0.0043202969 0.20500001 1.38279e-38
-0.0065776706 -0.0043862863 0.20500003 1.3090338e-38
-0.0056978147 -0.0041663223 0.205 1.3090339e-38
-0.014166425 -0.0032314761 0.20500001 1.3827541e-38
-0.013671506 -0.0032314761 0.20500001 1.3735345e-38
-0.012516695 -0.0032314761 0.20500003 1.3827901e-38
-0.011636841 -0.0032864669 0.205 1.4197042e-38
-0.0092172381 -0.0030665032 0.20500001 1.4104847e-38
-0.0085573457 -0.0032314761 0.20500001 1.382826e-38
-0.0077324817 -0.0032314761 0.20500001 1.3091058e-38
-0.0047629685 -0.0032314761 0.20500001 1.2999224e-38
-0.013671506 -0.0025715844 0.20500001 1.3735345e-38
-0.012846641 -0.0025715844 0.20500001 1.3735345e-38
-0.011196912 -0.0027365573 0.20500001 1.4381079e-38
-0.009464697 -0.0024890979 0.20500001 1.4104847e-38
-0.0085573457 -0.0025715844 0.20500001 1.3828261e-38
-0.0077324817 -0.0025715847 0.20500001 1.3090698e-38
-0.0047629685 -0.0025715844 0.20500001 1.3091419e-38
-0.003938104 -0.0025715844 0.20500001 1.3275811e-38
-0.0095059406 -0.0014580174 0.20500003 1.38279e-38
-0.0086233346 -0.0014827633 0.20500001 1.3735706e-38
-0.0077324822 -0.0014167741 0.20500003 1.3182533e-38
-0.0054778513 -0.0016367381 0.205 1.3643514e-38
-0.004762968 -0.0014167744 0.20500003 1.3459123e-38
-0.003938104 -0.0015817471 0.20500001 1.3274732e-38
-0.0092172381 -0.00042693681 0.20500001 1.3459477e-38
-0.0086673275 -0.00020697298 0.205 1.3182893e-38
-0.0076774904 -0.00020697298 0.205 1.3182893e-38
-0.0067976345 -0.00020697298 0.205 1.3090339e-38
-0.0052578873 -9.6991047e-05 0.20500001 1.3643869e-38
-0.0048179594 -0.00031695489 0.205 1.3459477e-38
-0.003938104 -9.6991047e-05 0.20500001 1.2998499e-38
-0.008447364 0.00034293669 0.205 1.3090695e-38
-0.0077324817 0.00039792765 0.20500001 1.3090695e-38
-0.0065776706 0.00039792768 0.20500003 1.318289e-38
-0.0059177787 0.00039792765 0.20500001 1.3551673e-38
-0.0045979954 0.00056290056 0.20500001 1.3090695e-38
-0.006577671 0.0015527378 0.20500003 1.2998499e-38
-0.0059177787 0.0017177108 0.20500001 1.318289e-38
-0.00064176111 -0.019659225 0.20600002 1.3084564e-38
2.134954e-05 -0.019990779 0.20600002 1.4282739e-38
-0.0014706494 -0.018664559 0.20600002 1.3364042e-38
-0.0072728675 -0.016012117 0.20600002 1.4656223e-38
-0.0074386452 -0.014022785 0.20600002 1.447291e-38
-0.0066097574 -0.014354341 0.20600002 1.4288519e-38
-0.0074939043 -0.013470194 0.20600002 1.4380355e-38
-0.006676069 -0.013425986 0.20600002 1.4379996e-38
-0.0059466464 -0.01369123 0.20600002 1.4288519e-38
-0.010422643 -0.010044122 0.20600002 1.4933889e-38
-0.0099253105 -0.010044122 0.20600002 1.4841693e-38
-0.009593755 -0.0080547901 0.20600002 1.4288519e-38
-0.008930644 -0.0080547901 0.20600002 1.4288519e-38
-0.0059466464 -0.0087179011 0.20600002 1.3735345e-38
-0.0094832368 -0.0076127164 0.20600002 1.4196324e-38
-0.0087648667 -0.0075574573 0.20600002 1.4104128e-38
-0.011748865 -0.006065459 0.20600002 1.4104128e-38
-0.013240864 -0.0050707934 0.20600002 1.4104128e-38
-0.012577754 -0.0054023489 0.20600002 1.3919737e-38
-0.011748865 -0.0054023489 0.20600002 1.4011932e-38
-0.010919976 -0.0050707934 0.20600002 1.3827541e-38
-0.0079359785 -0.0054023489 0.20600002 1.4472553e-38
-0.01357242 -0.0047392379 0.20600002 1.3827541e-38
-0.011583087 -0.0047392379 0.20600002 1.3736064e-38
-0.010787355 -0.0043413718 0.20600002 1.3736064e-38
-0.0092621995 -0.0042419052 0.20600002 1.38279e-38
-0.0087317107 -0.0043413718 0.20600002 1.4011932e-38
-0.0079359785 -0.0047392379 0.20600002 1.4288519e-38
-0.01489864 -0.0030814616 0.20600002 1.3827541e-38
-0.011583087 -0.0030814616 0.20600002 1.4288883e-38
-0.010919976 -0.0034130169 0.20600002 1.4197042e-38
-0.0092621995 -0.0034130169 0.20600002 1.4104847e-38
-0.014567085 -0.0027499064 0.20600002 1.3735345e-38
-0.012246197 -0.0025841286 0.20600002 1.382826e-38
-0.011914643 -0.0027499064 0.20600002 1.4104847e-38
-0.0099253105 -0.0027499064 0.20600002 1.4197042e-38
-0.013240864 -0.0017552406 0.20600002 1.3735345e-38
-0.012411974 -0.0015065742 0.20600002 1.3827541e-38
-0.011748865 -0.0010921301 0.20600002 1.3827541e-38
-0.010588421 -0.001175019 0.20600002 1.3643869e-38
-0.011748864 -0.00026324182 0.20600002 1.3459479e-38
-0.010588421 -0.00026324182 0.20600002 1.3182533e-38
-0.0097042732 -0.00020798261 0.20600002 1.3366926e-38
-0.011693605 0.00034460952 0.20600002 1.3367282e-38
-0.010588421 0.00039986873 0.20600002 1.3090695e-38
-0.009593755 0.00039986873 0.20600002 1.3367282e-38
-0.008930644 0.00056564639 0.20600002 1.318289e-38
-0.010477901 0.0014497937 0.20600002 1.2998499e-38
-0.009593755 0.0015603121 0.20600002 1.3367282e-38
-0.0087648667 0.0015603121 0.20600002 1.3367282e-38
-0.009593755 0.0027207555 0.20600002 1.3090696e-38
-0.0087648667 0.0027207558 0.20600002 1.345912e-38
-0.0077702007 0.0027207558 0.20600002 1.2998499e-38
-0.0017639062 -0.045739304 0.208 1.473113e-38
-0.010021673 -0.011145961 0.208 1.4380715e-38
-0.010306656 -0.010592626 0.20700002 1.4749497e-38
-0.0096664792 -0.010454596 0.20757143 1.447291e-38
-0.010343596 -0.0092933169 0.20775001 1.4933889e-38
-0.0095195109 -0.0093047014 0.208 1.4749497e-38
-0.010356447 -0.0088025406 0.208 1.4749497e-38
-0.0095195109 -0.0088025406 0.208 1.447291e-38
-0.012805393 -0.0060949032 0.20700002 1.4104128e-38
-0.014038964 -0.0057895728 0.208 1.4196324e-38
-0.013471723 -0.0054285736 0.20700002 1.4104128e-38
-0.011306151 -0.0057617384 0.20700002 1.3919737e-38
-0.010639821 -0.0050954088 0.20700002 1.4104128e-38
-0.010639821 -0.0047622439 0.20700002 1.382826e-38
-0.0089739971 -0.0047622439 0.20700002 1.4104128e-38
-0.01263881 -0.00043110209 0.20700002 1.3827541e-38
-0.0019966422 -0.046183456 0.20900001 1.3816736e-38
-0.0096213408 -0.011423804 0.20900001 1.4380715e-38
-0.0093970858 -0.010863164 0.20900001 1.447291e-38
-0.013770076 -0.0061537912 0.20900001 1.4104128e-38
-0.0094420481 -0.011929121 0.21000001 1.4380715e-38
-0.0091040544 -0.010577147 0.20999999 1.4841693e-38
-0.014511948 -0.006183235 0.21000001 1.4380715e-38
-0.0091907596 -0.012042731 0.21200001 1.4565106e-38
-0.0091907596 -0.011360306 0.21200001 1.4841693e-38
-0.008394598 -0.011132832 0.21200001 1.4288519e-38
-0.0085083349 -0.010677882 0.21200001 1.4380715e-38
