# .PCD v0.7 - Point Cloud Data file format
VERSION 0.7
FIELDS x y z rgb
SIZE 4 4 4 4
TYPE F F F F
COUNT 1 1 1 1
WIDTH 764
HEIGHT 1
VIEWPOINT 0 0 0 1 0 0 0
POINTS 764
DATA ascii
0.065162502 0.036368586 0.16900001 1.5916653e-38
0.066008709 0.044468876 0.17300001 1.6450088e-38
0.065544635 0.045489829 0.17300002 1.617422e-38
0.066008709 0.04516498 0.17300001 1.5900506e-38
0.066670306 0.045286026 0.17400001 1.5715754e-38
0.067335136 0.045827951 0.17500001 1.5349126e-38
0.064401239 0.04542584 0.177 1.692041e-38
0.06620913 0.045617711 0.17600001 1.6362567e-38
0.064328149 0.0461284 0.1768 1.6358247e-38
0.06602028 0.046089828 0.17600001 1.6636634e-38
0.066484019 0.038591869 0.17800002 1.5809015e-38
0.063905619 0.044894636 0.178 1.7933847e-38
0.064478591 0.044894636 0.178 1.7103724e-38
0.065051571 0.044894636 0.178 1.7105862e-38
0.063905619 0.045467615 0.17800002 1.8118959e-38
0.064383097 0.045276623 0.17800002 1.6828216e-38
0.065051571 0.04532437 0.178 1.7012953e-38
0.063905619 0.046470329 0.178 1.6820668e-38
0.067916468 0.046900064 0.178 1.5716833e-38
0.068489447 0.046900064 0.178 1.5440965e-38
0.066857532 0.037944376 0.17900001 1.5256924e-38
0.063688442 0.03996107 0.17900001 1.663519e-38
0.06426464 0.03996107 0.17900001 1.6732057e-38
0.063616417 0.045362927 0.17900001 1.7560749e-38
0.065705135 0.045579001 0.17900001 1.7012952e-38
0.063688442 0.046587348 0.17900001 1.7470712e-38
0.065705135 0.046299249 0.17900001 1.7286673e-38
0.066857532 0.046299249 0.17900001 1.7750172e-38
0.068586126 0.046587348 0.17900001 1.5715397e-38
0.069162324 0.046875447 0.17900001 1.5349126e-38
0.067520745 0.037866652 0.18000001 1.4983211e-38
0.0644788 0.039315194 0.18000001 1.5808306e-38
0.065203071 0.039315194 0.18000001 1.6178881e-38
0.064333946 0.040618882 0.18000001 1.7098684e-38
0.065203071 0.040618882 0.18000001 1.775197e-38
0.067810453 0.040184319 0.18000001 1.5625344e-38
0.063754529 0.045833636 0.18000001 1.6727751e-38
0.063754529 0.046702761 0.18000001 1.7560751e-38
0.06940385 0.046847615 0.18000001 1.5533517e-38
0.068679579 0.048006449 0.18000001 1.5624638e-38
0.06940385 0.048006449 0.18000001 1.7010812e-38
0.064594261 0.03924229 0.18100001 1.5809027e-38
0.066147953 0.039533608 0.18100001 1.6087758e-38
0.065274 0.040407564 0.18100001 1.8207187e-38
0.066293612 0.045359969 0.18100001 1.710515e-38
0.070226401 0.047544856 0.18100001 1.6457993e-38
0.068769813 0.04827315 0.18100001 1.5989107e-38
0.070226401 0.04827315 0.18100001 1.7379594e-38
0.064462915 0.039752029 0.18200001 1.599342e-38
0.066806331 0.039752029 0.18200001 1.5995563e-38
0.067099266 0.039752029 0.18200001 1.5995563e-38
0.064609379 0.040337883 0.18200001 1.6450438e-38
0.065634623 0.040411115 0.18200001 1.6824256e-38
0.066415764 0.040435527 0.182 1.7381745e-38
0.067099266 0.040337883 0.18200001 1.7659771e-38
0.075594157 0.043560088 0.18200001 1.3895184e-38
0.068417437 0.048539855 0.18200001 1.5806508e-38
0.067762479 0.038497761 0.18300001 1.5169047e-38
0.068646088 0.038203225 0.18300001 1.4527628e-38
0.068057016 0.039528638 0.18300001 1.6177439e-38
0.069529705 0.039823174 0.18300001 1.6268537e-38
0.06687887 0.040854055 0.18300001 1.8031075e-38
0.067566119 0.040755879 0.18300001 1.7661212e-38
0.068277918 0.040633153 0.18300001 1.7011524e-38
0.066731602 0.041148592 0.18300001 1.8122912e-38
0.067467943 0.041148592 0.18300001 1.7477545e-38
0.068204284 0.041148592 0.18300001 1.6734222e-38
0.075420439 0.043799426 0.18300001 1.4811386e-38
0.066437066 0.044977572 0.18300001 1.7284878e-38
0.066731602 0.045566648 0.18300001 1.7379585e-38
0.06687887 0.04733387 0.18300001 1.7286673e-38
0.071493275 0.048610199 0.18300001 1.6087418e-38
0.07051149 0.049395632 0.18300001 1.6360043e-38
0.071002387 0.049101092 0.18300001 1.6176735e-38
0.06849882 0.050279237 0.18300001 1.5342297e-38
0.069235168 0.050279237 0.18300001 1.5431614e-38
0.07070785 0.050279237 0.18300001 1.5158618e-38
0.071149655 0.050279237 0.18300001 1.4977461e-38
0.068725057 0.038411986 0.18400002 1.4710585e-38
0.06990964 0.038708132 0.18400002 1.5450288e-38
0.069570705 0.039580382 0.18420002 1.5807925e-38
0.070587344 0.039811768 0.185 1.6365044e-38
0.071182854 0.039811768 0.185 1.5915933e-38
0.069514781 0.040583726 0.18400002 1.580793e-38
0.070885099 0.040258404 0.185 1.6642705e-38
0.071331739 0.040407281 0.185 1.6281115e-38
0.072225004 0.040407281 0.185 1.5734058e-38
0.067688547 0.041965742 0.18400002 1.6822823e-38
0.068428911 0.041965742 0.18400002 1.6912858e-38
0.069189422 0.041503701 0.18425001 1.6454387e-38
0.070885099 0.041151673 0.185 1.6824223e-38
0.071331739 0.04130055 0.185 1.673634e-38
0.072195232 0.041240998 0.185 1.6466584e-38
0.067163154 0.042193815 0.185 1.7378869e-38
0.075574756 0.043682598 0.185 1.5089407e-38
0.076244712 0.043583345 0.185 1.4266481e-38
0.066427365 0.044620018 0.18420002 1.7561103e-38
0.067244321 0.044927206 0.18400002 1.7654383e-38
0.074160419 0.044278108 0.185 1.5808281e-38
0.075532064 0.044521924 0.184625 1.5078623e-38
0.066090375 0.045197368 0.18450001 1.8391225e-38
0.067343034 0.045420785 0.18400002 1.8117157e-38
0.071561746 0.045431305 0.18444446 1.6549816e-38
0.072454311 0.045251396 0.18460001 1.6178511e-38
0.073862664 0.045320254 0.185 1.5529185e-38
0.075536422 0.045223355 0.18400002 1.4891719e-38
0.067540474 0.046111792 0.18400002 1.7105506e-38
0.069416068 0.046704087 0.18400002 1.7566865e-38
0.071815319 0.046294045 0.18433334 1.6823177e-38
0.072499156 0.046465501 0.18437499 1.6360759e-38
0.073713779 0.046660155 0.185 1.5717907e-38
0.074160419 0.04695791 0.185 1.4428237e-38
0.06783662 0.047000233 0.18400002 1.6827847e-38
0.06990964 0.047000233 0.18400002 1.6452969e-38
0.070798084 0.047592524 0.18400002 1.5809385e-38
0.071435496 0.047869928 0.18450001 1.5717548e-38
0.072731182 0.047612973 0.185 1.6455114e-38
0.073664151 0.047454175 0.185 1.5166173e-38
0.071834594 0.048480965 0.18400002 1.682498e-38
0.072585113 0.048339114 0.18487498 1.6087052e-38
0.069842957 0.049786594 0.185 1.5527046e-38
0.070205793 0.049369406 0.18400002 1.5990543e-38
0.069545202 0.050530981 0.185 1.5433054e-38
0.071538448 0.050257843 0.18400002 1.4975305e-38
0.068873338 0.038829505 0.186 1.4619468e-38
0.070609659 0.041703414 0.186 1.5899044e-38
0.067576088 0.042721257 0.186 1.691609e-38
0.068573974 0.042721257 0.186 1.6268206e-38
0.069472067 0.042721257 0.186 1.6819935e-38
0.070729405 0.042601511 0.186 1.6084873e-38
0.071717307 0.042571574 0.186 1.7381001e-38
0.072266154 0.042621467 0.186 1.6828542e-38
0.073214136 0.042721257 0.186 1.6553383e-38
0.068873338 0.043419778 0.186 1.6450796e-38
0.069386534 0.043362759 0.186 1.6635181e-38
0.070819214 0.043419778 0.186 1.6184611e-38
0.071717307 0.043419782 0.186 1.6366133e-38
0.072316043 0.043419778 0.186 1.5994473e-38
0.07353013 0.043253466 0.186 1.6458315e-38
0.074710965 0.043619353 0.186 1.6001293e-38
0.075459376 0.043918721 0.186 1.527056e-38
0.066777781 0.04451745 0.186 1.6911774e-38
0.067576088 0.044517446 0.186 1.7005407e-38
0.068573974 0.044367768 0.186 1.7928804e-38
0.069472067 0.044397704 0.186 1.7104437e-38
0.070669532 0.044367772 0.186 1.6276096e-38
0.071717307 0.044367768 0.186 1.5995193e-38
0.073862761 0.044317871 0.186 1.626926e-38
0.074760862 0.044317871 0.186 1.5717521e-38
0.075160012 0.044218086 0.186 1.5447041e-38
0.067825556 0.045116182 0.186 1.7100848e-38
0.068573974 0.045415547 0.186 1.8487381e-38
0.069472067 0.045330014 0.186 1.840022e-38
0.070669532 0.045415547 0.186 1.7475739e-38
0.07166741 0.045215968 0.186 1.6181381e-38
0.072166361 0.045116182 0.186 1.6182811e-38
0.073663183 0.045355674 0.186 1.5899408e-38
0.074710965 0.045415547 0.186 1.5345151e-38
0.075399503 0.04547542 0.186 1.53491e-38
0.068873338 0.046463326 0.186 1.7936355e-38
0.069621749 0.046912376 0.186 1.8121474e-38
0.070789278 0.046672881 0.186 1.7566146e-38
0.07166741 0.046812583 0.186 1.709941e-38
0.073812865 0.046014279 0.186 1.5806135e-38
0.074710965 0.046513218 0.186 1.5070727e-38
0.07575874 0.046014279 0.186 1.5350544e-38
0.068873338 0.04721174 0.186 1.7380298e-38
0.069172703 0.04721174 0.186 1.7751611e-38
0.070968896 0.047361422 0.186 1.6541567e-38
0.071717307 0.047361422 0.186 1.6357528e-38
0.072266154 0.047411319 0.186 1.6451519e-38
0.072166361 0.048109837 0.186 1.5809385e-38
0.069472067 0.04990603 0.186 1.6545865e-38
0.070370167 0.050804123 0.186 1.5431975e-38
0.072166361 0.050205395 0.186 1.5620322e-38
0.070447527 0.042649966 0.18700001 1.562283e-38
0.072855324 0.042649966 0.18700001 1.6737783e-38
0.073457278 0.042649966 0.18700001 1.6738853e-38
0.074397825 0.04261234 0.18700002 1.6377621e-38
0.075564101 0.042549636 0.18700002 1.4452309e-38
0.067638427 0.043352243 0.18699999 1.6455469e-38
0.068491191 0.043402404 0.18700001 1.5993412e-38
0.070347197 0.043452565 0.18699999 1.6175635e-38
0.07466118 0.043251917 0.18700001 1.6557339e-38
0.075463779 0.043352243 0.18699999 1.564294e-38
0.076166049 0.043251917 0.18700001 1.325521e-38
0.067638427 0.044355493 0.18699999 1.6635903e-38
0.068441026 0.044255167 0.18699999 1.6358957e-38
0.06984558 0.044455815 0.18700001 1.6456188e-38
0.07029704 0.044154841 0.18700001 1.5811525e-38
0.072704837 0.044606302 0.18700001 1.6086668e-38
0.073306791 0.044455815 0.18700002 1.6638762e-38
0.074209712 0.044455815 0.18700001 1.6270695e-38
0.070146553 0.045960691 0.18700001 1.8308385e-38
0.072855324 0.04535874 0.18700001 1.5906224e-38
0.073306791 0.04535874 0.18700001 1.6181379e-38
0.068942651 0.046863616 0.18700001 1.7196632e-38
0.069544598 0.046562642 0.18700001 1.8213307e-38
0.07029704 0.046261664 0.18700001 1.8216189e-38
0.071049474 0.046562642 0.18700001 1.7938883e-38
0.075564101 0.046562642 0.18700001 1.544166e-38
0.071651429 0.050475314 0.18699999 1.5988744e-38
0.072855324 0.050475314 0.18700001 1.5343735e-38
0.069243625 0.051077265 0.18700001 1.5902299e-38
0.067798406 0.043785796 0.18800001 1.6363275e-38
0.076270767 0.043634504 0.18800001 1.4907174e-38
0.067798406 0.044390965 0.18800001 1.6636263e-38
0.069916494 0.047114223 0.18800001 1.8213668e-38
0.070672959 0.047114223 0.18800001 1.821475e-38
0.06946262 0.050442651 0.18800001 1.5535303e-38
0.06957861 0.051420748 0.18900001 1.6733856e-38
0.070288397 0.05131935 0.18900001 1.6175288e-38
0.069394089 0.039586626 0.19140001 1.3064378e-38
0.073491491 0.039873309 0.19100001 1.4176463e-38
0.074494302 0.040082067 0.192 1.3810917e-38
0.061721381 0.053267021 0.19199999 1.4059106e-38
0.062442426 0.053576041 0.19200002 1.4514689e-38
0.063184083 0.053679049 0.192 1.4974586e-38
0.062545441 0.054503113 0.19199999 1.4148066e-38
0.063163482 0.054503113 0.19199999 1.4332097e-38
0.06275145 0.055378675 0.192 1.4056952e-38
0.063060477 0.055224165 0.192 1.3965116e-38
0.061525121 0.053958636 0.193 1.4334618e-38
0.061525121 0.054424584 0.193 1.4058748e-38
0.062146384 0.054424584 0.193 1.4056589e-38
0.062301707 0.055511791 0.193 1.4425732e-38
0.074402869 0.041336056 0.19500001 1.5452799e-38
0.075030573 0.041336056 0.19500001 1.536852e-38
0.074784428 0.041863494 0.19600001 1.5633951e-38
0.075099893 0.041863494 0.19600001 1.6187124e-38
0.074784428 0.042178955 0.19600001 1.5815824e-38
0.066814639 0.048833918 0.2 1.6536157e-38
0.067607515 0.048777904 0.19933335 1.6446119e-38
0.066975586 0.049477715 0.2 1.6260652e-38
0.067613445 0.049609315 0.19966668 1.6539397e-38
0.063718393 0.06786909 0.20400001 1.3692845e-38
0.064375065 0.067704923 0.20400001 1.4154531e-38
0.065031737 0.06786909 0.20400001 1.3602072e-38
0.064375065 0.068689935 0.20400001 1.3143981e-38
0.065031737 0.068689935 0.20400001 1.3512043e-38
0.064607345 0.056413587 0.20900001 1.4064517e-38
0.069749489 0.054572705 0.215 1.5989815e-38
0.032480884 0.028813111 0.22000001 1.309394e-38
0.010338137 0.020525903 0.22100002 1.5212285e-38
0.0089153461 0.042579159 0.22100002 1.3369094e-38
0.027300779 0.018917074 0.223 1.3000668e-38
0.023711612 0.019634908 0.223 1.4658755e-38
0.024249988 0.01945545 0.223 1.4383246e-38
0.025506197 0.019634908 0.223 1.3645319e-38
0.026702583 0.019515269 0.223 1.3368732e-38
0.027480237 0.01945545 0.223 1.3000668e-38
0.0097138621 0.020711659 0.223 1.5396676e-38
0.01062312 0.020856986 0.22200002 1.4198133e-38
0.01109953 0.020797435 0.22200002 1.465983e-38
0.023591973 0.020592019 0.223 1.4197777e-38
0.024249988 0.0205322 0.223 1.4105581e-38
0.025506197 0.0205322 0.223 1.3553842e-38
0.026582945 0.0205322 0.223 1.3369451e-38
0.027480237 0.0205322 0.223 1.3092864e-38
0.011149528 0.021429492 0.223 1.4567638e-38
0.019225154 0.021429492 0.223 1.3831152e-38
0.020481363 0.021250034 0.223 1.4199575e-38
0.021558112 0.021250034 0.223 1.4015183e-38
0.023532154 0.021250034 0.223 1.4197777e-38
0.024249988 0.021250034 0.223 1.4013385e-38
0.025506197 0.021250034 0.223 1.3369095e-38
0.026582945 0.021250034 0.223 1.3553842e-38
0.027480237 0.021250034 0.223 1.3092864e-38
0.017968945 0.022506243 0.223 1.3922629e-38
0.018686779 0.022506243 0.223 1.3830433e-38
0.019225154 0.022506243 0.223 1.4015183e-38
0.020481363 0.022506243 0.22300002 1.3738598e-38
0.021558112 0.022506239 0.223 1.3830792e-38
0.022455404 0.022506239 0.223 1.346201e-38
0.023532154 0.022506243 0.223 1.3645682e-38
0.024249988 0.022506239 0.223 1.3461649e-38
0.025371198 0.022425672 0.2227143 1.3737878e-38
0.026493542 0.022474807 0.22225001 1.3553842e-38
0.027478307 0.022455243 0.22250003 1.3000668e-38
0.0050253081 0.023477238 0.22200002 1.5488869e-38
0.017968945 0.02376245 0.223 1.3830073e-38
0.018686779 0.02376245 0.223 1.3553486e-38
0.019225154 0.02376245 0.223 1.3737879e-38
0.020481363 0.023762448 0.223 1.4014466e-38
0.021558112 0.02376245 0.223 1.3922629e-38
0.022455404 0.02376245 0.223 1.3646761e-38
0.023532154 0.02376245 0.223 1.3554565e-38
0.024373867 0.023709171 0.22250001 1.3370534e-38
0.025213165 0.023655891 0.22200002 1.300211e-38
0.017849306 0.024540102 0.223 1.3737878e-38
0.018686779 0.024480283 0.223 1.3093227e-38
0.019225154 0.024480283 0.223 1.3553489e-38
0.020481363 0.024480283 0.223 1.373788e-38
0.021558112 0.024480283 0.223 1.3830076e-38
0.022494383 0.024424991 0.22250001 1.3646404e-38
0.023640456 0.024406828 0.22233336 1.3554568e-38
0.016652917 0.025497213 0.223 1.3553846e-38
0.017547702 0.025617227 0.22285715 1.346201e-38
0.01877795 0.025697485 0.22266668 1.3093587e-38
0.019315105 0.025641304 0.22280002 1.327798e-38
0.02040975 0.025646372 0.22222225 1.3185784e-38
0.021640092 0.025621081 0.22200002 1.3185784e-38
0.022533363 0.025621081 0.22200002 1.3093589e-38
0.016892195 0.026095407 0.223 1.3185783e-38
0.017789487 0.026454324 0.223 1.3277978e-38
0.01877795 0.026414782 0.22266668 1.3093587e-38
0.019674903 0.026335696 0.22200002 1.309359e-38
0.020389518 0.026335696 0.22200002 1.3001394e-38
0.021640092 0.026335696 0.22200002 1.309359e-38
0.018823534 0.027469344 0.22250001 1.3185786e-38
0.019674903 0.027407615 0.22200002 1.3001394e-38
0.020389518 0.027407615 0.22200002 1.3001394e-38
0.013661945 0.028787281 0.223 1.3921188e-38
0.014307995 0.028823173 0.223 1.4105578e-38
0.015456528 0.02896674 0.223 1.3369095e-38
0.017968945 0.028787281 0.223 1.346237e-38
0.018802585 0.028690262 0.22225001 1.300211e-38
0.020389518 0.028658191 0.22200002 1.300211e-38
0.012764653 0.029505115 0.223 1.4659472e-38
0.013631313 0.029439362 0.22250001 1.5212285e-38
0.014379778 0.029505113 0.223 1.4566555e-38
0.015576168 0.029445296 0.223 1.3276899e-38
0.016174361 0.029325657 0.223 1.3185786e-38
0.019674903 0.029372804 0.22200002 1.327798e-38
0.020389518 0.029372804 0.22200002 1.3554565e-38
0.021640092 0.029372804 0.22200002 1.3093587e-38
0.014738696 0.030581865 0.223 1.3368376e-38
0.019674903 0.030623378 0.22200002 1.3001394e-38
0.014619057 0.031598795 0.223 1.3645685e-38
0.018823534 0.031766687 0.22250001 1.3001394e-38
0.020389518 0.031695299 0.22200002 1.3462372e-38
0.014559237 0.03237645 0.223 1.3184707e-38
0.020318057 0.032195531 0.22200003 1.309359e-38
0.014315295 0.034553759 0.22200002 1.2998871e-38
0.00074094476 0.035606697 0.223 1.3737159e-38
0.0012195003 0.03554688 0.223 1.3368736e-38
0.012585194 0.035427239 0.22300002 1.3185421e-38
0.00074094476 0.036145072 0.223 1.327582e-38
0.011388806 0.036384348 0.223 1.3553848e-38
0.012585194 0.036503989 0.223 1.4843143e-38
0.013760626 0.036568526 0.22266668 1.4751305e-38
0.014315295 0.0366976 0.22200002 1.4751304e-38
0.015387218 0.0366976 0.22200002 1.3276538e-38
0.011508445 0.037221823 0.223 1.5304124e-38
0.012571086 0.037269421 0.22275001 1.5764735e-38
0.013672143 0.037269291 0.22200003 1.5119364e-38
0.014315295 0.037233561 0.22200002 1.4105214e-38
0.010468124 0.038689647 0.22250003 1.3921546e-38
0.011456838 0.038662791 0.22200002 1.3274736e-38
0.013600681 0.038484134 0.22200002 1.3183263e-38
0.014315295 0.038305484 0.22200002 1.2999232e-38
-0.00045544421 0.039255682 0.223 1.3369454e-38
0.00038202808 0.039195865 0.223 1.3461291e-38
0.0013690488 0.039285593 0.223 1.3184344e-38
-0.00033580529 0.040093157 0.223 1.3093587e-38
0.00038202808 0.040272616 0.223 1.3185423e-38
0.0045454614 0.040380292 0.223 1.3184704e-38
0.0054068617 0.040452074 0.223 1.3000312e-38
0.004689028 0.041528821 0.223 1.4105581e-38
0.0053871432 0.041594226 0.22220001 1.2999594e-38
0.0086877067 0.043575764 0.22200002 1.3369811e-38
0.033552147 0.012692697 0.22400001 1.3092864e-38
0.032831095 0.013594012 0.22400001 1.3277617e-38
0.015646016 0.01780015 0.22400002 1.4659832e-38
0.016427156 0.017740062 0.22400001 1.4567638e-38
0.017544787 0.017631903 0.22400001 1.4567638e-38
0.018229786 0.017559798 0.22399999 1.4936779e-38
0.019401496 0.017830193 0.22400001 1.5213006e-38
0.020573206 0.017920325 0.22400001 1.5213364e-38
0.021534609 0.01780015 0.22400002 1.466019e-38
0.01552584 0.018280851 0.22400001 1.4567994e-38
0.016427156 0.018280851 0.22400001 1.4383247e-38
0.017508734 0.018280851 0.22400001 1.4475443e-38
0.018229786 0.018280851 0.22400001 1.475239e-38
0.019491628 0.018280851 0.22400002 1.5028615e-38
0.020573206 0.018280851 0.22400001 1.5028972e-38
0.021474522 0.018280851 0.22400001 1.4752385e-38
0.022375837 0.018280851 0.22400001 1.4383603e-38
0.014660577 0.019434534 0.22400001 1.4936779e-38
0.01552584 0.019362429 0.22399999 1.4659832e-38
0.016427156 0.019362429 0.22399999 1.4383247e-38
0.017508734 0.019362429 0.22399999 1.4383247e-38
0.018229786 0.019362429 0.22399999 1.4291411e-38
0.019491626 0.019362427 0.22400001 1.4199935e-38
0.020573206 0.019362429 0.22399999 1.4476163e-38
0.02147452 0.019362429 0.22399999 1.4567998e-38
0.022556102 0.019362429 0.22399999 1.429033e-38
0.023187021 0.019362429 0.22400001 1.3737156e-38
0.014804788 0.020624271 0.22400001 1.4844581e-38
0.01552584 0.020624271 0.22400001 1.4383604e-38
0.016427156 0.020624271 0.22400001 1.4198856e-38
0.017508734 0.020624271 0.22400001 1.4383247e-38
0.018229786 0.020624271 0.22400001 1.4198856e-38
0.019491628 0.020624271 0.22399999 1.410666e-38
0.020573206 0.020624271 0.22400001 1.4475443e-38
0.021474522 0.020624271 0.22400001 1.4383247e-38
0.0225561 0.020624271 0.22400001 1.3645682e-38
0.023096889 0.020444008 0.22400001 1.3092508e-38
0.0097574219 0.02116506 0.22400001 1.5212285e-38
0.010839 0.021525586 0.22400001 1.4289972e-38
0.014804788 0.02116506 0.22400001 1.4475798e-38
0.01552584 0.021345323 0.22400001 1.4291409e-38
0.016427156 0.021345323 0.22400001 1.429177e-38
0.017508734 0.021345323 0.22400001 1.4475803e-38
0.018229786 0.021345323 0.22400001 1.4199575e-38
0.019311365 0.02116506 0.22400001 1.410666e-38
0.0054311077 0.022967691 0.22400001 1.5305559e-38
0.011199526 0.022246638 0.22400001 1.4291051e-38
0.015706103 0.022517033 0.22400001 1.4291411e-38
0.016427156 0.022607164 0.22399999 1.410738e-38
0.017508734 0.022607164 0.22399999 1.4014825e-38
0.015886366 0.023688743 0.22400001 1.4383247e-38
0.016427156 0.023688743 0.22400001 1.4014464e-38
0.017508734 0.023688743 0.22400001 1.3922269e-38
0.016427156 0.024409795 0.22399999 1.3922269e-38
0.017472681 0.02433769 0.22400001 1.3922269e-38
0.014804788 0.0258519 0.22400001 1.3830073e-38
0.015646016 0.025731726 0.22400002 1.3369095e-38
0.016246893 0.0258519 0.22400001 1.346237e-38
0.011740316 0.026933478 0.22400001 1.3184704e-38
0.012641631 0.026572952 0.22400001 1.3092508e-38
0.01318242 0.026933478 0.22400001 1.4567994e-38
0.014516367 0.026645059 0.22400001 1.3737516e-38
0.015646016 0.026693128 0.22400002 1.3646042e-38
0.016246893 0.026572952 0.22400001 1.3370534e-38
0.011560053 0.027474269 0.22399999 1.3645682e-38
0.012641631 0.027474267 0.22400001 1.4935698e-38
0.01318242 0.027474267 0.22400001 1.4751306e-38
0.014444262 0.027474269 0.22399999 1.3736797e-38
0.01552584 0.027474267 0.22400001 1.3552766e-38
0.011740316 0.028375583 0.22400001 1.3276899e-38
0.014534393 0.02819532 0.22400001 1.3460212e-38
0.01552584 0.028375583 0.22400001 1.3460572e-38
0.016367069 0.028495759 0.22400002 1.327726e-38
0.015886366 0.029096635 0.22400001 1.3276899e-38
0.016487243 0.029216811 0.22400002 1.3185067e-38
0.011611557 0.030435732 0.22399999 1.3368376e-38
0.012641631 0.030719003 0.22400001 1.3830073e-38
0.01318242 0.030719003 0.22400001 1.3460931e-38
0.014263999 0.030719003 0.22400001 1.3276181e-38
0.0079547912 0.033783473 0.22400001 1.3369095e-38
0.0084955804 0.033422947 0.22400001 1.3368735e-38
0.0045297923 0.034504525 0.22400001 1.3553844e-38
0.0077745281 0.034324262 0.22400001 1.3460212e-38
0.0084354924 0.034264173 0.22400002 1.3185783e-38
0.0045297923 0.035586104 0.22399999 1.3461291e-38
0.0065126861 0.035586104 0.22400001 1.3369095e-38
0.0065126861 0.036307156 0.22400002 1.4936777e-38
0.0075942646 0.036307156 0.22400001 1.3186139e-38
0.0046199239 0.037478864 0.22400001 1.3644606e-38
0.0052508446 0.037388735 0.22399999 1.3828997e-38
0.0065126861 0.037388735 0.22400001 1.3552406e-38
0.0075942646 0.037028208 0.22400001 1.3000312e-38
0.010550579 0.037460841 0.22400001 1.3463093e-38
0.011289658 0.037478864 0.22400001 1.5027895e-38
0.010839 0.038470313 0.22400001 1.530448e-38
0.011199526 0.038470313 0.22400001 1.5857651e-38
0.00038374119 0.040993996 0.22400001 1.3093587e-38
0.032977663 0.012749361 0.22500001 1.3738233e-38
0.018130101 0.015827512 0.22500001 1.4659108e-38
0.020544341 0.015586088 0.22500001 1.5212285e-38
0.021389322 0.015465377 0.22500001 1.530448e-38
0.016681559 0.016551783 0.22500001 1.5488515e-38
0.017285118 0.016431071 0.22500001 1.5120089e-38
0.018492237 0.016370716 0.22500001 1.5027892e-38
0.019759713 0.016370716 0.22500001 1.5488871e-38
0.020483984 0.016370716 0.22500001 1.5212285e-38
0.02157039 0.016370716 0.22500001 1.5212285e-38
0.014508746 0.017638192 0.22500001 1.5212645e-38
0.015353728 0.017396769 0.22500001 1.4844222e-38
0.016500492 0.017276054 0.22500001 1.4844225e-38
0.017043695 0.017276054 0.22500001 1.4936421e-38
0.018854374 0.017276054 0.22500001 1.5121168e-38
0.019759713 0.017457124 0.22500001 1.5305559e-38
0.020483984 0.017457124 0.22500001 1.5305559e-38
0.021510035 0.017396767 0.22500001 1.4844581e-38
0.013663761 0.01824175 0.22500001 1.5121168e-38
0.014508746 0.018181395 0.22500001 1.5028972e-38
0.013784473 0.019448869 0.22500001 1.4752387e-38
0.01414661 0.019086733 0.22500001 1.5121168e-38
0.013663761 0.020776698 0.22500001 1.4475798e-38
0.01414661 0.020716343 0.22500001 1.4567994e-38
0.013784474 0.021440614 0.22500001 1.4383603e-38
0.014388033 0.021500969 0.22500001 1.4475798e-38
0.010404541 0.022466667 0.22500001 1.4659474e-38
0.013663761 0.022587379 0.22500001 1.4475443e-38
0.014508746 0.022527022 0.22500001 1.4383247e-38
0.015233017 0.02270809 0.22500001 1.410666e-38
0.0056364215 0.023794496 0.22500001 1.5581064e-38
0.0069038966 0.023794496 0.22500001 1.4843502e-38
0.0076281675 0.023432361 0.22500001 1.4566917e-38
0.010525253 0.023432361 0.22500001 1.475095e-38
0.011521126 0.023613429 0.22500001 1.4198137e-38
0.012335931 0.023432361 0.22500001 1.410666e-38
0.013422339 0.023432361 0.22500001 1.4383247e-38
0.014508746 0.023432361 0.22500001 1.4383247e-38
0.015233017 0.023432361 0.22500001 1.4291051e-38
0.0045500146 0.024428234 0.22500001 1.5211923e-38
0.0054553533 0.024518767 0.22500001 1.5304479e-38
0.0065417606 0.024518767 0.22500001 1.5396674e-38
0.0087145744 0.024880903 0.22500001 1.4014464e-38
0.0095595578 0.024760192 0.22500001 1.3922269e-38
0.010344185 0.024518767 0.22500001 1.410666e-38
0.011611661 0.024518767 0.22500001 1.3922269e-38
0.012335931 0.024518767 0.22500001 1.4014464e-38
0.013422339 0.024518767 0.22500001 1.4291051e-38
0.014508746 0.024518767 0.22500001 1.4014464e-38
0.015414084 0.024518767 0.22500001 1.410666e-38
0.0047310824 0.025786242 0.22500001 1.4658753e-38
0.0054553538 0.025786242 0.22500001 1.4658753e-38
0.0067228284 0.025786242 0.22500001 1.4843145e-38
0.007628168 0.025786242 0.22500001 1.4014106e-38
0.0085335067 0.025786242 0.22500001 1.3922269e-38
0.0094388463 0.025786242 0.22500001 1.4014464e-38
0.010344185 0.025786242 0.22500001 1.410666e-38
0.01161166 0.025786242 0.22500001 1.4014464e-38
0.012335931 0.025786242 0.22500001 1.3922269e-38
0.013422339 0.025786242 0.22500001 1.3922269e-38
0.014388033 0.025725886 0.22500001 1.3922269e-38
0.015233017 0.025605174 0.22500001 1.3830073e-38
0.0043689469 0.026329445 0.22500001 1.4659111e-38
0.0054553538 0.026329445 0.22500001 1.4474362e-38
0.0067228284 0.026329445 0.22500001 1.4382887e-38
0.007628168 0.026329445 0.22500001 1.4105582e-38
0.0085335067 0.026329445 0.22500001 1.4014464e-38
0.0094388463 0.026329445 0.22500001 1.4198856e-38
0.010344185 0.026329445 0.22500001 1.4198856e-38
0.01161166 0.026329445 0.22500001 1.3645682e-38
0.013422337 0.026329445 0.22500001 1.3461292e-38
0.0036446755 0.027053718 0.22500001 1.4659111e-38
0.0043689469 0.027053718 0.22500001 1.4659111e-38
0.0055070869 0.027312385 0.22500001 1.4382168e-38
0.0067228284 0.027415855 0.22500001 1.4197777e-38
0.0076281675 0.027415855 0.22500001 1.4289972e-38
0.0085335067 0.027415855 0.22500001 1.4658755e-38
0.0094388463 0.027415851 0.22500001 1.4291051e-38
0.010253651 0.027506387 0.22500001 1.410666e-38
0.0069038966 0.028502261 0.22500001 1.4382168e-38
0.007628168 0.028502261 0.22500001 1.475095e-38
0.0085335067 0.028502261 0.22500001 1.4566559e-38
0.0094388463 0.028502261 0.22500001 1.3828994e-38
0.010344185 0.028502261 0.22500001 1.4105941e-38
0.011249525 0.028502261 0.22500001 1.3737878e-38
0.0043689469 0.029588668 0.22500001 1.4106299e-38
0.0054553538 0.029498134 0.22500001 1.4197777e-38
0.0067831841 0.029467955 0.22500001 1.4198496e-38
0.0076281675 0.0294076 0.22500001 1.4382528e-38
0.010344185 0.0294076 0.22500001 1.3736799e-38
0.0036446755 0.030494006 0.22500001 1.3828993e-38
0.0043689469 0.030494006 0.22500001 1.3645682e-38
0.0054553538 0.030494006 0.22500001 1.3922269e-38
0.0067228284 0.030494006 0.22500001 1.3830073e-38
0.0094388463 0.030494006 0.22500001 1.3737517e-38
0.010344185 0.030494006 0.22500001 1.3921547e-38
0.0036446755 0.031218279 0.22500001 1.3460572e-38
0.0043689469 0.031218279 0.22500001 1.3645682e-38
0.0054553538 0.031218281 0.22500001 1.3830073e-38
0.0067228284 0.031218279 0.22500001 1.3461291e-38
0.0085335067 0.031218279 0.22500001 1.4291053e-38
0.0094388463 0.031218279 0.22500001 1.5121165e-38
0.010344185 0.031218279 0.22500001 1.4198491e-38
0.011539233 0.031254493 0.22499999 1.3276538e-38
0.012335931 0.031399347 0.22500001 1.3184704e-38
0.0043689464 0.032485753 0.22500001 1.3369095e-38
0.0054553533 0.032485753 0.22500001 1.3369814e-38
0.0067228288 0.032485753 0.22500001 1.3185424e-38
0.0076281684 0.032485753 0.22500001 1.3369095e-38
0.0085335067 0.032485753 0.22500001 1.3644959e-38
0.0094388463 0.032304686 0.22500001 1.3553125e-38
0.0043689469 0.033753227 0.22500001 1.3092508e-38
0.0054553538 0.033753227 0.22500001 1.3276899e-38
0.0067228284 0.033753227 0.22500001 1.3184704e-38
0.007507456 0.03369287 0.22500001 1.3184704e-38
0.0043689469 0.034296431 0.22500001 1.3276899e-38
0.0067228284 0.034296431 0.22500001 1.3091429e-38
0.013603406 0.034477498 0.22500001 1.3368732e-38
0.00074758998 0.035382837 0.22500001 1.3737878e-38
0.0014718614 0.036107108 0.22500001 1.3368016e-38
0.004006811 0.037374582 0.22500001 1.3184704e-38
0.0021961327 0.041177008 0.22500001 1.327582e-38
0.01748319 0.014806622 0.22600001 1.5488871e-38
0.017361941 0.015655361 0.22600001 1.5488871e-38
0.016391955 0.016443474 0.22600001 1.5304123e-38
0.017119445 0.016261602 0.22600001 1.5581067e-38
0.013845738 0.017716583 0.22600001 1.5212285e-38
0.014391356 0.017352838 0.22600001 1.530448e-38
0.012754503 0.018444072 0.22600001 1.5213364e-38
0.013481993 0.018080328 0.22600001 1.5213364e-38
0.013481993 0.019171564 0.22600001 1.5028972e-38
0.009117051 0.020990288 0.22600001 1.5120089e-38
0.0065708356 0.021717779 0.22600001 1.5121168e-38
0.0087533062 0.021717779 0.22600001 1.5212285e-38
0.0092382999 0.02159653 0.22600001 1.5027893e-38
0.0057220967 0.022687765 0.22600001 1.5305559e-38
0.0065708356 0.022627141 0.22600001 1.5121168e-38
0.0074801985 0.022627141 0.22600001 1.465983e-38
0.0083895605 0.022627141 0.22600001 1.4935698e-38
0.0092989244 0.022627141 0.22600001 1.4843502e-38
0.010208287 0.022809014 0.22600001 1.4474366e-38
0.0058433451 0.023172759 0.22600001 1.5305559e-38
0.0064495872 0.023415254 0.22600001 1.5212643e-38
0.0087533062 0.023536503 0.22600001 1.4750952e-38
0.0092989244 0.023536505 0.22600001 1.4658755e-38
0.010208287 0.023536503 0.22600001 1.4474364e-38
0.0040246192 0.024809612 0.22600001 1.484314e-38
0.0065708356 0.024445867 0.22600001 1.5120088e-38
0.0083168121 0.02455499 0.22600003 1.4198856e-38
0.0092382999 0.024385244 0.22600001 1.410666e-38
0.0040246192 0.025718976 0.22600001 1.4658755e-38
0.003660874 0.026446465 0.22600001 1.4566915e-38
0.0040246192 0.026082721 0.22600001 1.4658755e-38
0.0027515111 0.028992681 0.22600001 1.4382168e-38
0.0025696382 0.029538298 0.22600003 1.4290688e-38
0.003660874 0.029538298 0.22600001 1.4290688e-38
0.00075091264 0.030629534 0.22600001 1.4199212e-38
0.0014784029 0.030629534 0.22600001 1.4291049e-38
0.0025696382 0.030629536 0.22600003 1.4106297e-38
0.00075091264 0.031175151 0.22600001 1.401482e-38
0.0014784029 0.031357024 0.22600001 1.3921909e-38
0.002478702 0.031266086 0.22600001 1.3829351e-38
0.0018421481 0.032266386 0.22600001 1.3553489e-38
0.0022058932 0.032266386 0.22600001 1.3553489e-38
0.0413086 -0.0041263006 0.22700001 1.392154e-38
0.016464485 0.01468946 0.22700001 1.5488871e-38
0.017286533 0.014506783 0.22700001 1.5488871e-38
0.014272357 0.015968202 0.22700001 1.530448e-38
0.0163427 0.015724631 0.22700001 1.5396676e-38
0.017195195 0.015237493 0.22700001 1.5581067e-38
0.011593089 0.016455341 0.22700001 1.530448e-38
0.012445584 0.016698912 0.22700001 1.5488871e-38
0.013663433 0.016577126 0.22700001 1.4843145e-38
0.014455035 0.016516235 0.22700001 1.5304124e-38
0.016099131 0.016333556 0.22700001 1.5211929e-38
0.0098881014 0.017794974 0.22700001 1.5396676e-38
0.010801489 0.017794974 0.22700001 1.5396676e-38
0.011532198 0.017612297 0.22700001 1.530448e-38
0.012628261 0.017612297 0.22700001 1.530448e-38
0.013419864 0.017551405 0.22700001 1.5027893e-38
0.0095958179 0.018379543 0.22700003 1.530448e-38
0.010801489 0.018343007 0.22700001 1.5396676e-38
0.011532198 0.018343007 0.22700001 1.5396676e-38
0.012567368 0.018282115 0.22700001 1.5396676e-38
0.0095684156 0.019576078 0.22700001 1.4843503e-38
0.010801489 0.019621747 0.22700001 1.5581067e-38
0.011471305 0.019378178 0.22700001 1.5212285e-38
0.0095227472 0.020717811 0.22700001 1.5028972e-38
0.0033117176 0.02619813 0.22700001 1.4658755e-38
-0.00034182871 0.029851679 0.22700001 1.4751306e-38
2.3525949e-05 0.029851679 0.22700001 1.4566915e-38
-0.00034182871 0.030765064 0.22700001 1.4843502e-38
2.3525949e-05 0.030765064 0.22700001 1.4843502e-38
-0.00034182871 0.031313095 0.22700001 1.4843502e-38
0.00026709572 0.031556666 0.22700001 1.4567275e-38
0.00075423525 0.032409161 0.22700001 1.4105937e-38
0.0014849445 0.032652732 0.22700001 1.3553489e-38
0.0025810085 0.032774515 0.22700001 1.3553486e-38
0.0025810085 0.03313987 0.22700001 1.3645682e-38
0.041123614 -0.0041444777 0.22800002 1.4013739e-38
0.041674059 -0.0037775137 0.22800002 1.3644953e-38
0.012622733 0.016527832 0.228 1.5488871e-38
0.013417821 0.016222028 0.22800002 1.530448e-38
0.0082803238 0.021726489 0.22800002 1.5212285e-38
0.0029593427 0.026680505 0.22800002 1.4659111e-38
-0.0010772628 0.03071711 0.22800002 1.4935698e-38
-0.0012240484 0.031377647 0.22800002 1.4751308e-38
-0.00034333454 0.031818002 0.22800002 1.4751306e-38
-0.00034333454 0.032735411 0.22800002 1.4290688e-38
0.00014595095 0.032796573 0.228 1.4475438e-38
0.0011245221 0.032918893 0.22800002 1.3737878e-38
0.0018584502 0.03328586 0.22800002 1.3645682e-38
0.0022254144 0.034019787 0.22800002 1.3830429e-38
0.0011245221 0.037322462 0.22800002 1.3183625e-38
0.038355391 -0.0067426702 0.22900002 1.2999224e-38
0.040598765 -0.0035078763 0.2296 1.3921543e-38
0.041299254 -0.0034404667 0.23 1.3737152e-38
0.042502351 -0.0032553752 0.23 1.3183975e-38
0.041578449 -0.0017711875 0.22950001 1.3184341e-38
0.042224713 -0.0019597346 0.23 1.3091782e-38
0.003340896 0.024954656 0.22900002 1.5764016e-38
0.0029853019 0.026174178 0.23 1.4658755e-38
0.00039230686 0.03343185 0.22900002 1.4014463e-38
0.0014980277 0.03343185 0.22900002 1.3737878e-38
0.00076420314 0.034318205 0.23 1.3922625e-38
0.0016252467 0.034391865 0.22966667 1.3830429e-38
0.0022351751 0.034537572 0.22900002 1.3830429e-38
0.0022449356 0.035243664 0.23 1.3830429e-38
0.0022449356 0.042832416 0.23 1.4567638e-38
0.040921129 -0.0030836328 0.23100001 1.3829347e-38
0.04147882 -0.0030836328 0.23100001 1.3737152e-38
0.042780094 -0.0030836328 0.23100001 1.3183975e-38
0.040921129 -0.0023400479 0.23100001 1.3829347e-38
0.04147882 -0.0023400479 0.23100001 1.3644956e-38
0.042036507 -0.0023400479 0.23100001 1.3368369e-38
0.041292921 -0.0019682553 0.23100001 1.3552763e-38
0.0029982813 0.025544394 0.23100001 1.530448e-38
2.3940504e-05 0.034467418 0.23100001 1.4290328e-38
0.0011393183 0.034839209 0.23100001 1.401482e-38
0.00076752575 0.035582796 0.23100001 1.3922625e-38
0.0013252147 0.035396896 0.23100001 1.3922625e-38
0.0015111109 0.037813552 0.23100001 1.327582e-38
0.0022546961 0.037813552 0.23100001 1.3552407e-38
0.0022546961 0.038185343 0.23100001 1.392119e-38
0.00039573314 0.043018647 0.23100001 1.3184341e-38
0.0011442505 0.026401781 0.23200001 1.5027177e-38
0.002637859 0.026775181 0.23200001 1.4658755e-38
0.00021074519 0.034990028 0.23200001 1.4383243e-38
0.00021074519 0.035363428 0.23200001 1.4199212e-38
0.00039744625 0.038350645 0.23200001 1.3091429e-38
0.0014429721 0.038574688 0.23200002 1.3644603e-38
0.0017043536 0.039097451 0.23200001 1.4198134e-38
0.0018992058 0.025390547 0.23300001 1.5581067e-38
0.0022742175 0.025390547 0.23300001 1.4935698e-38
0.0017117 0.026515583 0.23300003 1.5119732e-38
0.0022742175 0.026328076 0.23300001 1.493534e-38
0.0018992058 0.027265605 0.23300001 1.4751306e-38
0.00039915938 0.038890962 0.23300001 1.327582e-38
0.00058666518 0.039265975 0.23300001 1.3460568e-38
-0.00035086382 0.043766115 0.23300001 1.3276176e-38
0.086651832 0.047328725 0.23300001 1.2985498e-38
0.00058918307 0.043953948 0.23400001 1.3183981e-38
0.0015307358 0.043953948 0.23400001 1.3369814e-38
-0.00035236968 0.044330571 0.23400001 1.4105937e-38
0.00040258566 0.04452002 0.23500001 1.3276176e-38
0.00040258566 0.045276482 0.23500001 1.3184341e-38
0.00078081625 0.046032939 0.23500001 1.3000668e-38
0.00021437873 0.045848984 0.23600002 1.3092145e-38
0.029768281 0.0066463137 0.24000001 1.4751667e-38
0.030669598 0.0065819342 0.24000001 1.4567272e-38
0.030540837 0.0072257309 0.24000001 1.4751304e-38
0.029504428 0.0068679508 0.24100001 1.4567994e-38
0.030280203 0.0064800638 0.24100001 1.4567994e-38
0.031055978 0.00628612 0.24100001 1.4475798e-38
0.030600596 0.0049489639 0.24200001 1.4475798e-38
0.030600596 0.0053384607 0.24200001 1.4475798e-38
0.031574339 0.0053384607 0.24200001 1.4475798e-38
0.029626854 0.006506952 0.24200001 1.4475798e-38
0.03001635 0.0061174547 0.24200001 1.4567994e-38
0.031574339 0.0063122036 0.24200001 1.447508e-38
0.030140385 0.0049694143 0.24300002 1.4383603e-38
0.030140385 0.0053605209 0.24300002 1.4383603e-38
0.029358171 0.0061427336 0.24300002 1.4475798e-38
0.032095917 0.0061427336 0.24300002 1.4383603e-38
0.029478988 0.0053825807 0.24400002 1.4291407e-38
0.029086271 0.0065607284 0.24400002 1.4475798e-38
0.028928749 0.0062185698 0.24600001 1.466019e-38
0.0044163959 0.019042052 0.24800001 1.5765458e-38
0.0015313026 0.021494826 0.25500003 1.6502659e-38
0.0023521434 0.021494826 0.25500003 1.5949847e-38
0.00084726867 0.022452474 0.25500003 1.6041681e-38
0.0014628993 0.022452472 0.25500003 1.5765457e-38
0.0024889503 0.022452474 0.25500003 1.5396674e-38
0.0033097912 0.022452474 0.25500003 1.5304479e-38
0.0015313026 0.023410119 0.25500003 1.5581066e-38
0.0023521434 0.023410121 0.25500003 1.5396674e-38
0.10032599 -0.10465454 0.37200001 1.8347649e-38
0.10032599 -0.10315771 0.37200001 1.8163618e-38
0.10032599 -0.10255898 0.37200001 1.8163618e-38
0.098494492 -0.10523605 0.37300003 1.8439126e-38
0.099094838 -0.10523605 0.37300003 1.834693e-38
0.098494492 -0.1046357 0.37300003 1.8163618e-38
0.099094838 -0.1046357 0.37300003 1.8163618e-38
0.098494492 -0.10343502 0.37300003 1.8163618e-38
0.099094838 -0.10343502 0.37300003 1.8163618e-38
0.099094838 -0.10283468 0.37300003 1.7979227e-38
