# .PCD v0.7 - Point Cloud Data file format
VERSION 0.7
FIELDS x y z rgb
SIZE 4 4 4 4
TYPE F F F F
COUNT 1 1 1 1
WIDTH 292
HEIGHT 1
VIEWPOINT 0 0 0 1 0 0 0
POINTS 292
DATA ascii
0.031370498 -0.011418735 0.162 1.3787928e-38
0.029567057 -0.010419239 0.162 1.3872207e-38
0.031174943 -0.010571336 0.162 1.3141478e-38
0.029512739 -0.0095935715 0.162 1.4148434e-38
0.030436186 -0.0096804835 0.162 1.3321549e-38
0.031044573 -0.0099846767 0.162 1.3047126e-38
0.029740885 -0.0089417268 0.162 1.3780731e-38
0.03026236 -0.0089417268 0.162 1.3965841e-38
0.031411108 -0.011795293 0.163 1.3787925e-38
0.032285597 -0.011620394 0.163 1.5077943e-38
0.0298441 -0.012483554 0.164 1.5532445e-38
0.030658813 -0.012711911 0.16700001 1.5348054e-38
0.033546347 -0.018195923 0.16800001 1.4247073e-38
0.033221874 -0.017546978 0.16800001 1.4336396e-38
0.031383187 -0.012788031 0.16800003 1.4061631e-38
0.034219321 -0.018138928 0.17 1.3788253e-38
0.033610024 -0.017216217 0.16900001 1.4334602e-38
0.034219321 -0.017454894 0.17 1.4060171e-38
0.030422932 -0.013453295 0.16999999 1.6361128e-38
0.031414781 -0.013282288 0.17 1.5071467e-38
0.032030411 -0.013213884 0.17 1.4703403e-38
0.032304026 -0.012666656 0.17 1.3695008e-38
0.033261672 -0.012393042 0.17 1.5076146e-38
0.033398479 -0.011845815 0.17 1.4983953e-38
0.034695834 -0.018245628 0.171 1.3972644e-38
0.034695834 -0.017557569 0.171 1.4060171e-38
0.035175566 -0.017798662 0.17200001 1.3326559e-38
0.035864636 -0.018285673 0.17400001 1.3053567e-38
0.03572461 -0.017725572 0.17400001 1.3509514e-38
0.035507433 -0.019517409 0.17500001 1.2970354e-38
0.032467254 -0.010597602 0.192 1.5066072e-38
0.038901534 0.06132859 0.20300001 1.2988359e-38
0.036669586 -0.015256934 0.20700002 1.5900151e-38
0.036511958 -0.014493703 0.208 1.5621408e-38
0.0336711 -0.011092374 0.20700002 1.4422141e-38
0.033331603 -0.010309025 0.208 1.3780013e-38
0.034168538 -0.010141638 0.208 1.3965122e-38
0.033331603 -0.0093047023 0.208 1.3228641e-38
0.034280133 -0.0092489058 0.208 1.3044968e-38
0.043876991 0.05915663 0.208 1.299053e-38
0.033491846 -0.010863164 0.20900001 1.3871847e-38
0.034669191 -0.010190397 0.20900001 1.3965119e-38
0.034669191 -0.0095176287 0.20900001 1.3413387e-38
0.035117701 -0.0092933737 0.20900001 1.3137881e-38
0.034328081 -0.010915141 0.21000001 1.4147355e-38
0.035680056 -0.0093941707 0.21000001 1.3137879e-38
0.046664838 0.056683511 0.21000001 1.4647865e-38
0.04700283 0.056683511 0.21000001 1.3451137e-38
0.04649584 0.0571905 0.21000001 1.3726636e-38
0.045312863 0.058373477 0.21000001 1.3727354e-38
0.041932929 0.061753407 0.21000001 1.3264581e-38
0.042270925 0.061415415 0.21000001 1.3266746e-38
0.038215004 0.064119361 0.21000001 1.5660938e-38
0.0407742 -0.018098773 0.21100001 1.5991262e-38
0.041283604 -0.018098773 0.21100001 1.5715757e-38
0.042132612 -0.018098773 0.21100001 1.4979271e-38
0.042132612 -0.017419569 0.21100001 1.5069311e-38
0.034491546 -0.010627515 0.21100001 1.4239551e-38
0.035000954 -0.010627515 0.21100001 1.4147352e-38
0.047226653 0.055934619 0.21100001 1.6031519e-38
0.047453057 0.056727026 0.21100001 1.3635161e-38
0.04586824 0.057632633 0.21100001 1.538543e-38
0.045528639 0.05865144 0.21100001 1.3543334e-38
0.041649867 -0.017502125 0.21200001 1.5438091e-38
0.04779169 0.0558585 0.21200001 1.5755652e-38
0.046768051 0.056882136 0.21200001 1.593896e-38
0.043697141 0.060294259 0.21200001 1.5754566e-38
0.043014716 0.061659109 0.21200001 1.3726631e-38
0.041160684 -0.017584683 0.21300001 1.589835e-38
0.035675537 -0.010385428 0.21300001 1.3780728e-38
0.04818853 0.056464806 0.21300001 1.5202481e-38
0.046645835 0.057493273 0.21300001 1.5662736e-38
0.041846327 0.062635601 0.21300001 1.5383633e-38
0.042189151 0.062292777 0.21300001 1.5201042e-38
0.040475041 0.063664064 0.21300001 1.5385786e-38
0.041160684 0.06332124 0.21300001 1.5200316e-38
0.038760934 0.064349703 0.21300001 1.5109212e-38
0.036876321 -0.020078259 0.21400002 1.6270726e-38
0.037737399 -0.020078259 0.21400002 1.6082742e-38
0.038605824 -0.020172082 0.215 1.6081666e-38
0.036876321 -0.019389397 0.21400002 1.6271082e-38
0.037336171 -0.019219106 0.21466668 1.6178526e-38
0.038432803 -0.019480001 0.215 1.6173856e-38
0.037048642 -0.018787919 0.215 1.6824256e-38
0.042239252 -0.018787919 0.215 1.5809029e-38
0.043450393 -0.018441878 0.215 1.4704842e-38
0.040665064 -0.01766724 0.21400002 1.5989107e-38
0.041009497 -0.01766724 0.21400002 1.5806155e-38
0.036010519 -0.010136902 0.215 1.3689251e-38
0.036702599 -0.009790862 0.215 1.3321192e-38
0.059541289 0.044537529 0.215 1.5670277e-38
0.047405671 0.056516808 0.21450001 1.5388324e-38
0.048392307 0.056330431 0.21466668 1.5571259e-38
0.049160067 0.056821972 0.215 1.391246e-38
0.04639174 0.058379155 0.215 1.584713e-38
0.044661537 0.060801439 0.215 1.5662736e-38
0.03930686 -0.020265905 0.21600001 1.5990546e-38
0.037916262 -0.019222956 0.21600001 1.6271082e-38
0.037394784 -0.018701479 0.21600001 1.7009007e-38
0.042783365 -0.018875305 0.21600001 1.5072906e-38
0.043478664 -0.017832354 0.21600001 1.4519735e-38
0.063294731 0.039877575 0.21600001 1.6684078e-38
0.062599428 0.0407467 0.21600001 1.5116751e-38
0.058427628 0.047178231 0.21600001 1.4748305e-38
0.046955168 0.057955384 0.21600001 1.584713e-38
0.045912217 0.059519812 0.21600001 1.5939326e-38
0.042783365 0.062822491 0.21600001 1.5754569e-38
0.038441058 -0.01931195 0.21700001 1.6178886e-38
0.039488837 -0.01966121 0.21700001 1.5989464e-38
0.03774254 -0.018613432 0.21700001 1.7009367e-38
0.038091801 -0.018962691 0.21700001 1.6640585e-38
0.043505326 -0.018962691 0.21700001 1.4797038e-38
0.03774254 -0.017914912 0.21700001 1.7099768e-38
0.03774254 -0.011628238 0.21700001 1.4422144e-38
0.0363455 -0.010929719 0.21700001 1.4147352e-38
0.0633782 0.039433528 0.21700001 1.4565037e-38
0.06253998 0.040062197 0.21700001 1.3734209e-38
0.063238502 0.040062197 0.21700001 1.5946513e-38
0.062190723 0.041459233 0.21700001 1.5394068e-38
0.061841462 0.042856272 0.21700001 1.5853582e-38
0.060793683 0.043904051 0.21700001 1.6501116e-38
0.061492201 0.043205533 0.21700001 1.4748317e-38
0.059396643 0.045650352 0.21700001 1.5301141e-38
0.059047382 0.04634887 0.21700001 1.5209286e-38
0.058698125 0.047047388 0.21700001 1.4841222e-38
0.047696441 0.056652032 0.21700001 1.4099763e-38
0.04856959 0.056477401 0.21700001 1.5204652e-38
0.049384534 0.056710243 0.21700001 1.529539e-38
0.046823293 0.05735055 0.21700001 1.3455845e-38
0.04996663 0.057175919 0.21700001 1.2991233e-38
0.043330695 0.062764078 0.21700001 1.5937881e-38
0.041235138 0.064510375 0.21700001 1.5386149e-38
0.033551425 0.071146309 0.21700001 1.4371299e-38
0.038793642 -0.019225512 0.21800001 1.6269645e-38
0.040372554 -0.018699206 0.21800001 1.60813e-38
0.03791647 -0.016243123 0.21800001 1.6361129e-38
0.03791647 -0.015716819 0.21800001 1.6175659e-38
0.038618207 -0.015541385 0.21800001 1.5898716e-38
0.03791647 -0.014839646 0.21800001 1.5251905e-38
0.038618207 -0.014839646 0.21800001 1.5067514e-38
0.036512993 -0.012558998 0.21800001 1.5435216e-38
0.03721473 -0.012383563 0.21800001 1.5435936e-38
0.03686386 -0.011681825 0.21800001 1.4513977e-38
0.03686386 -0.010278348 0.21800001 1.3597055e-38
0.064231664 0.038317032 0.21800001 1.3458701e-38
0.063880794 0.039194204 0.21800001 1.3736008e-38
0.064231664 0.039194204 0.21800001 1.483981e-38
0.06177558 0.041650288 0.21800001 1.3735305e-38
0.062477317 0.041299421 0.21800001 1.49331e-38
0.061658621 0.042585939 0.21800001 1.4287726e-38
0.061249275 0.0432292 0.21800001 1.4933083e-38
0.059494928 0.044632677 0.21800001 1.3827126e-38
0.060372099 0.044281807 0.21800001 1.5762481e-38
0.059436452 0.045626804 0.21800001 1.4748333e-38
0.058617756 0.046387024 0.21800001 1.4195875e-38
0.059319496 0.046211589 0.21800001 1.502526e-38
0.049670592 0.055509623 0.21800001 1.3271796e-38
0.05019689 0.055509623 0.21800001 1.3178507e-38
0.048442543 0.056035925 0.21800001 1.2995585e-38
0.049729068 0.056269843 0.21800001 1.4468156e-38
0.05019689 0.056386799 0.21800001 1.400609e-38
0.050430804 0.057205494 0.21800001 1.3175259e-38
0.046600483 0.058579732 0.21800001 1.5019547e-38
0.044933852 0.059895489 0.21800001 1.3822461e-38
0.045284722 0.059193749 0.21800001 1.363807e-38
0.046337329 0.059193749 0.21800001 1.5295771e-38
0.043881245 0.060948096 0.21800001 1.4281269e-38
0.044582985 0.060421791 0.21800001 1.4191598e-38
0.045460157 0.060772661 0.21800001 1.575529e-38
0.04370581 0.061649837 0.21800001 1.5202852e-38
0.044232115 0.061649837 0.21800001 1.5663459e-38
0.042477768 0.062351573 0.21800001 1.4096159e-38
0.043530375 0.062176138 0.21800001 1.5662382e-38
0.041776031 0.063579619 0.21800001 1.483371e-38
0.042267244 0.063334003 0.21800001 1.5017741e-38
0.043179508 0.06305331 0.21800001 1.5937881e-38
0.040723421 0.064807661 0.21800001 1.5201775e-38
0.041425161 0.06410592 0.21800001 1.4925901e-38
0.033179734 0.071386456 0.21800001 1.2991263e-38
0.039500311 -0.019225582 0.21900001 1.6083458e-38
0.042672619 -0.01948994 0.21900001 1.6456556e-38
0.043260086 -0.019607434 0.21900003 1.5627873e-38
0.038442876 -0.018432505 0.21900001 1.6824258e-38
0.039500315 -0.018432505 0.219 1.6267852e-38
0.04055775 -0.018080026 0.21900001 1.5895832e-38
0.037737917 -0.017375069 0.21900001 1.6545518e-38
0.038266636 -0.017551308 0.21900001 1.6638073e-38
0.039852791 -0.017727548 0.21900001 1.5991265e-38
0.040733986 -0.017727548 0.21900001 1.5435933e-38
0.037737917 -0.016493872 0.21900001 1.6453325e-38
0.038266636 -0.016670112 0.21900001 1.6361129e-38
0.039147835 -0.016493872 0.21900001 1.6176738e-38
0.039147835 -0.015788915 0.21900001 1.5438817e-38
0.037737917 -0.014907718 0.21900001 1.53441e-38
0.039147835 -0.014907718 0.21900001 1.4607614e-38
0.036328003 -0.013145326 0.21900001 1.571252e-38
0.037561677 -0.012616608 0.21900001 1.5067875e-38
0.036445495 -0.011500425 0.21900003 1.4421423e-38
0.037385441 -0.011559172 0.21900001 1.4606173e-38
0.038442876 -0.011382932 0.21900001 1.3779296e-38
0.064878777 0.038492799 0.21900001 1.4011875e-38
0.061471488 0.042663798 0.21900003 1.3090286e-38
0.060472798 0.043427505 0.21900001 1.3920409e-38
0.061353993 0.043251261 0.21900001 1.4288809e-38
0.058534164 0.047657244 0.21900001 1.4195872e-38
0.055185616 0.050653312 0.21900001 1.3454026e-38
0.055009376 0.051005792 0.21900001 1.3638779e-38
0.053599462 0.052239466 0.21900001 1.3272163e-38
0.050779629 0.056645446 0.21900001 1.3268525e-38
0.046197407 0.058584079 0.21900001 1.3178539e-38
0.045668691 0.059289038 0.21900001 1.3362212e-38
0.045633443 0.060452212 0.21900001 1.5386881e-38
0.044611253 0.061580148 0.21900001 1.5663102e-38
0.041262705 0.0640475 0.21900001 1.36377e-38
0.04055775 0.065281175 0.21900001 1.4925182e-38
0.043575648 -0.0206412 0.22000001 1.553783e-38
0.043575648 -0.019933024 0.22000001 1.5444562e-38
0.044283826 -0.01975598 0.22000001 1.4706276e-38
0.040034767 -0.017454406 0.22000001 1.5807953e-38
0.041628163 -0.017808495 0.22000001 1.571288e-38
0.039680678 -0.01674623 0.22000001 1.5992347e-38
0.035785709 -0.013382394 0.22000001 1.5436292e-38
0.036729947 -0.013441409 0.22000001 1.571288e-38
0.037556149 -0.013205349 0.22000001 1.516079e-38
0.035785709 -0.012674218 0.22000001 1.5067148e-38
0.037910238 -0.012851262 0.22000001 1.4700173e-38
0.038382355 -0.012615203 0.22000001 1.4423227e-38
0.037674177 -0.011198851 0.22000001 1.4054799e-38
0.038441371 -0.011611953 0.22000001 1.4055161e-38
0.037910238 -0.0101956 0.22000001 1.3320831e-38
0.065529123 0.038314477 0.22000001 1.4746902e-38
0.054198299 0.05230096 0.22000001 1.3823521e-38
0.032244828 0.073192157 0.22000001 1.3083807e-38
0.035592675 -0.014332466 0.22100002 1.5437369e-38
0.035592675 -0.013443222 0.22100002 1.5161497e-38
0.037549011 -0.013621071 0.22100002 1.5068593e-38
0.038616106 -0.013443222 0.22100002 1.451506e-38
0.039327499 -0.013443222 0.22100002 1.4423223e-38
0.040216744 -0.013265373 0.22100002 1.4149513e-38
0.035592675 -0.012731828 0.22100002 1.4976031e-38
0.038793951 -0.012909677 0.22100002 1.4422867e-38
0.039327499 -0.012731828 0.22100002 1.4238835e-38
0.039327499 -0.011486885 0.221 1.3227201e-38
0.040216744 -0.011664735 0.22100002 1.322828e-38
0.038556825 -0.010182661 0.22100002 1.3228637e-38
0.069739655 0.033331018 0.22100002 1.4011524e-38
0.070095353 0.033331018 0.22100002 1.5117128e-38
0.066538371 0.036887996 0.22100002 1.3275396e-38
0.066182673 0.037955087 0.22100002 1.4287383e-38
0.043093111 -0.018051337 0.223 1.5990546e-38
0.041298531 -0.017692421 0.223 1.5345177e-38
0.042542562 -0.017970391 0.22200002 1.5806155e-38
0.070233867 0.032767221 0.22200002 1.3275776e-38
0.069652945 0.033991572 0.223 1.2998108e-38
0.070370778 0.033991572 0.223 1.4840177e-38
0.067499444 0.036862906 0.223 1.299954e-38
0.040402148 -0.01650992 0.22400001 1.5439174e-38
0.040220376 -0.014954015 0.22500001 1.4607614e-38
0.044036586 -0.018294184 0.22600001 1.5806876e-38
0.040762879 -0.016111713 0.22600001 1.4793448e-38
0.040762879 -0.015202349 0.22600001 1.4423223e-38
0.0413086 -0.016548358 0.22700001 1.4611933e-38
0.042039312 -0.016548358 0.22700001 1.3053956e-38
0.0413086 -0.015269617 0.22700001 1.378037e-38
0.042591471 -0.018089114 0.22800002 1.5160785e-38
0.041857541 -0.016621258 0.22800002 1.4611932e-38
0.043146849 -0.018168453 0.22900002 1.5345177e-38
0.042594898 -0.017137241 0.23 1.3512773e-38
0.036301784 0.021731982 0.23 1.3091782e-38
0.054440755 0.057639744 0.23 1.3362167e-38
0.026421215 0.031493075 0.23099998 1.3091782e-38
0.055049248 0.057890344 0.23100001 1.3269971e-38
0.071343847 0.036483634 0.23200001 1.2998459e-38
0.044275519 -0.018485805 0.23300001 1.5529568e-38
0.044842161 -0.018565143 0.23400001 1.5714681e-38
0.046725269 0.022863172 0.23400001 1.3000668e-38
0.072335497 0.036798149 0.23400001 1.318285e-38
0.044272713 -0.017658809 0.23700002 1.3328382e-38
0.045415659 -0.018192498 0.23900001 1.4246022e-38
0.06151364 0.060960509 0.25300002 1.3087042e-38
0.061756775 0.060383838 0.25400001 1.3088136e-38
0.062615544 0.061442405 0.25500003 1.3269985e-38
0.062655076 0.060447268 0.25600001 1.2997752e-38
0.063559823 0.060919508 0.25800002 1.3455827e-38
0.068001546 0.061785046 0.26900002 1.2994124e-38
0.068001546 0.062650949 0.26900002 1.4556759e-38
0.067135639 0.063083902 0.26900002 1.3729524e-38
0.074399531 0.064533584 0.287 1.3732379e-38
0.075122304 0.063831374 0.28800002 1.3088118e-38
0.075122304 0.064758442 0.28800002 1.4285553e-38
0.075848281 0.064053014 0.289 1.3917843e-38
0.076577485 0.063574515 0.29000002 1.3457963e-38
