# .PCD v0.7 - Point Cloud Data file format
VERSION 0.7
FIELDS x y z rgb
SIZE 4 4 4 4
TYPE F F F F
COUNT 1 1 1 1
WIDTH 986
HEIGHT 1
VIEWPOINT 0 0 0 1 0 0 0
POINTS 986
DATA ascii
0.063544229 0.032680348 0.193 1.6080937e-38
0.064424343 0.032835666 0.193 1.681706e-38
0.062534675 0.033301614 0.193 1.4985396e-38
0.063544229 0.033456929 0.193 1.6451875e-38
0.064424343 0.033456929 0.193 1.6543346e-38
0.065408021 0.033456929 0.193 1.6818138e-38
0.066184603 0.033767562 0.193 1.6078776e-38
0.062767647 0.034388825 0.193 1.5532448e-38
0.063544229 0.034388825 0.193 1.6177084e-38
0.064424358 0.034388825 0.19299999 1.6174563e-38
0.065408021 0.034388825 0.193 1.6077696e-38
0.066450857 0.034433201 0.19299999 1.6261009e-38
0.067116499 0.034699459 0.193 1.6720548e-38
0.062767647 0.035476036 0.193 1.5256577e-38
0.063544229 0.035320722 0.193 1.5714314e-38
0.06463144 0.035320722 0.193 1.5710354e-38
0.065408021 0.035476036 0.193 1.5984783e-38
0.066288143 0.035424266 0.193 1.5984422e-38
0.07183563 0.024887523 0.19400001 1.306619e-38
0.065903045 0.028322177 0.19400001 1.6460156e-38
0.075769879 0.031382143 0.19400001 1.7660123e-38
0.076207012 0.031444591 0.19400001 1.618355e-38
0.062468391 0.033942521 0.19400001 1.5076871e-38
0.062530838 0.034504555 0.19400001 1.5166186e-38
0.062780634 0.03565985 0.19400001 1.5348772e-38
0.064341836 0.03550373 0.19400001 1.5897625e-38
0.072205916 0.025800437 0.19500001 1.5632555e-38
0.065771975 0.027840467 0.19500001 1.4534851e-38
0.062371921 0.035268273 0.19500001 1.3883006e-38
0.062476538 0.036000591 0.19500001 1.4799199e-38
0.065301195 0.036000591 0.19500001 1.5710715e-38
0.065162882 0.028771888 0.19600001 1.3619737e-38
0.062166013 0.035869747 0.19600001 1.3243761e-38
0.06237632 0.036395513 0.19600002 1.3974841e-38
0.06597095 0.02876015 0.19700001 1.4445169e-38
0.065336809 0.036369827 0.19700001 1.5805069e-38
0.0643856 0.038906384 0.19700001 1.4978545e-38
0.065019742 0.038906384 0.19700001 1.5345527e-38
0.064712435 0.036554445 0.19800001 1.5345174e-38
0.065031119 0.036554445 0.19800001 1.5345174e-38
0.063756399 0.039422557 0.19800001 1.4614804e-38
0.064393759 0.039103877 0.19800001 1.4334974e-38
0.063117534 0.03769993 0.19900002 1.3882288e-38
0.066533946 0.037486404 0.19900002 1.5804349e-38
0.067281283 0.03769993 0.19900002 1.7370237e-38
0.064558834 0.038660798 0.19900002 1.4609409e-38
0.065366097 0.038855072 0.2 1.5162931e-38
0.066960998 0.038180366 0.19900002 1.6263166e-38
0.067281283 0.038180366 0.19900002 1.6908535e-38
0.063437819 0.039621662 0.19900002 1.4063434e-38
0.064078398 0.039301373 0.19900002 1.4612646e-38
0.063437819 0.04058253 0.19900002 1.3695372e-38
0.066016436 0.03743181 0.20100001 1.5251899e-38
0.064075388 0.038078822 0.20100001 1.406668e-38
0.064398892 0.039372854 0.20100001 1.4427539e-38
0.066669993 0.038268268 0.20200001 1.5991968e-38
0.073534578 0.026695553 0.20300001 1.3890206e-38
0.067326769 0.038784444 0.20300001 1.5533145e-38
0.064386226 0.039764624 0.20300001 1.4066315e-38
0.065693133 0.039111171 0.20300001 1.4977113e-38
0.066180915 0.037990492 0.20400001 1.4979271e-38
0.065031737 0.0389755 0.20400001 1.406668e-38
0.065195903 0.039303835 0.20400001 1.4340384e-38
0.065680467 0.038836613 0.20500001 1.4799915e-38
0.064690627 0.055663846 0.20500001 1.3822478e-38
0.066221893 0.039247096 0.20600002 1.4614804e-38
0.067824408 0.039523393 0.20600002 1.6085962e-38
0.066995524 0.040352277 0.20600002 1.4609407e-38
0.070974186 0.049967382 0.20600002 1.304316e-38
0.069869004 0.050741006 0.20600002 1.3320826e-38
0.070808411 0.050630488 0.20600002 1.2951683e-38
0.068984859 0.051625159 0.20600002 1.4515769e-38
0.069647968 0.051459383 0.20600002 1.3413379e-38
0.07075315 0.051404119 0.20600002 1.2951683e-38
0.071305744 0.0512936 0.20600002 1.304316e-38
0.066995524 0.052951381 0.20600002 1.3325855e-38
0.067879669 0.052840859 0.20600002 1.4153456e-38
0.06858699 0.052553512 0.20600002 1.4518642e-38
0.069426931 0.052398786 0.20600002 1.4425371e-38
0.066995524 0.053282935 0.20600002 1.323366e-38
0.067769147 0.053503972 0.20600002 1.3602086e-38
0.066995524 0.054277603 0.20600002 1.2959952e-38
0.066987582 0.039382085 0.20700002 1.4885996e-38
0.067404032 0.039631963 0.20700002 1.4793438e-38
0.067653909 0.040548164 0.20700002 1.5070738e-38
0.068986565 0.048710704 0.20700002 1.3780008e-38
0.069541842 0.048766229 0.20700002 1.3874e-38
0.070485808 0.048877284 0.20700002 1.3137151e-38
0.071785152 0.048677385 0.20700002 1.3778208e-38
0.072540328 0.048766229 0.20700002 1.3686373e-38
0.066654414 0.049876779 0.20700002 1.5071818e-38
0.067542858 0.049765725 0.20700002 1.4795237e-38
0.068653405 0.049710196 0.20700002 1.3688891e-38
0.0696529 0.049710196 0.20700002 1.396835e-38
0.070485808 0.049710196 0.20700002 1.322899e-38
0.071585253 0.049676884 0.20700002 1.2950969e-38
0.072318219 0.049543612 0.20700002 1.3043882e-38
0.064766906 0.050519455 0.20799999 1.3241955e-38
0.065651722 0.05041695 0.20716667 1.4891379e-38
0.066654414 0.050376527 0.20700002 1.5071817e-38
0.067487329 0.050376527 0.20700002 1.5162579e-38
0.068653405 0.050376523 0.20700002 1.396368e-38
0.0696529 0.050376527 0.20700002 1.3782163e-38
0.070485808 0.050209943 0.20700002 1.3412661e-38
0.065654919 0.051542606 0.20700002 1.4521521e-38
0.066654414 0.051542599 0.20700002 1.4795227e-38
0.067487329 0.051542599 0.20700002 1.5163651e-38
0.068611756 0.051500961 0.20700002 1.4607243e-38
0.069319732 0.051209439 0.20700002 1.3964393e-38
0.065654926 0.052708674 0.20700002 1.387831e-38
0.066654414 0.052708674 0.20700002 1.3692838e-38
0.067487329 0.052708678 0.20700002 1.4246727e-38
0.068320237 0.052542094 0.20700002 1.4703388e-38
0.065654926 0.053375002 0.20700002 1.3236541e-38
0.066654414 0.053375006 0.20700002 1.3325495e-38
0.066654414 0.054541081 0.20700002 1.3052867e-38
0.067320742 0.054207917 0.20700002 1.3051069e-38
0.066321246 0.055540577 0.20700002 1.3058622e-38
0.01270648 0.0098410537 0.21300001 1.5949487e-38
0.0094496729 0.028182017 0.21300001 1.382935e-38
0.0094496729 0.029210482 0.21300001 1.382935e-38
0.0090193413 0.027927576 0.215 1.3829347e-38
0.008673301 0.028446637 0.215 1.3921544e-38
0.010157218 0.028459936 0.21466668 1.382935e-38
0.010141625 0.029335657 0.21433334 1.382935e-38
0.0093653826 0.03000382 0.215 1.382935e-38
0.0094089424 0.028057469 0.21600001 1.3921546e-38
0.010451893 0.028405119 0.21600001 1.382935e-38
0.0087136421 0.02944807 0.21600001 1.382935e-38
0.010451893 0.029795719 0.21600001 1.3737154e-38
0.009756593 0.030143371 0.21600001 1.3921546e-38
0.0098017622 0.028187366 0.21700001 1.3921546e-38
0.0084047234 0.029933665 0.21700001 1.3921546e-38
0.0087539833 0.030282924 0.21700001 1.3737154e-38
0.0094525022 0.030981444 0.21700001 1.3737154e-38
0.0091451928 0.011475541 0.21800001 1.6317187e-38
0.0098469313 0.012177279 0.21800001 1.6317187e-38
0.0087943235 0.025510309 0.21800001 1.4013741e-38
0.010197801 0.02831726 0.21800001 1.382935e-38
0.010197801 0.030422475 0.21800001 1.382935e-38
0.0098469313 0.031124214 0.21800001 1.3552763e-38
0.015179281 0.012409378 0.21900001 1.4658749e-38
0.0088346647 0.024922371 0.21900001 1.4013739e-38
0.0091871433 0.024922371 0.21900001 1.3183978e-38
0.0081297075 0.02545109 0.21900001 1.4566552e-38
0.01024458 0.025979808 0.21900001 1.3922625e-38
0.0095396228 0.026684765 0.21900001 1.3921546e-38
0.007777229 0.028799636 0.21900001 1.3921543e-38
0.0084821861 0.028270919 0.21900001 1.3921544e-38
0.0093633831 0.028094679 0.21900001 1.3921546e-38
0.027516037 0.028447157 0.219 1.3184698e-38
0.007777229 0.029152116 0.21900001 1.3829347e-38
0.0096539985 0.011368368 0.22 1.6224993e-38
0.015602681 0.012466041 0.22000001 1.484314e-38
0.032598916 0.014767615 0.22000001 1.3276899e-38
0.033484135 0.014767615 0.22000001 1.3184704e-38
0.034440175 0.014484344 0.22 1.3000312e-38
0.03065143 0.01582988 0.22000001 1.4198854e-38
0.031713694 0.015652835 0.22000001 1.382935e-38
0.032421872 0.015652835 0.22000001 1.3461647e-38
0.033484135 0.015652835 0.22000001 1.3000671e-38
0.030474385 0.016538056 0.22000001 1.3738595e-38
0.031713694 0.016538056 0.22000001 1.3553123e-38
0.032421872 0.016538057 0.22000001 1.3277257e-38
0.008520917 0.01760032 0.22000001 1.4196691e-38
0.0094061382 0.017423276 0.22000001 1.4566552e-38
0.029270485 0.017671138 0.22 1.3001752e-38
0.030474385 0.01760032 0.22000001 1.3370533e-38
0.031713694 0.01760032 0.22000001 1.3001747e-38
0.028703945 0.018662585 0.22000001 1.3001391e-38
0.029235076 0.018662585 0.22000001 1.3001391e-38
0.030474387 0.018662585 0.22000001 1.3093587e-38
0.02374671 0.019370761 0.22000001 1.3001391e-38
0.024100797 0.019370761 0.22000001 1.3001391e-38
0.029235076 0.019193718 0.22000001 1.3001391e-38
0.023463439 0.020362208 0.22 1.3092507e-38
0.024277842 0.020433025 0.22000001 1.3000673e-38
0.03236286 0.020196967 0.22000001 1.3185783e-38
0.02374671 0.02149529 0.22000001 1.300067e-38
0.0083438735 0.026452523 0.22000001 1.4566552e-38
0.0095831817 0.026806612 0.22000001 1.3737154e-38
0.010645446 0.026806612 0.22000001 1.5212285e-38
0.0096539985 0.027302334 0.22 1.3921546e-38
0.010645446 0.027337743 0.22000001 1.4843502e-38
0.0099372696 0.028222963 0.22000001 1.4013741e-38
0.01082249 0.028577052 0.22000001 1.382935e-38
0.010999534 0.029285228 0.22000001 1.3460568e-38
0.0081668291 0.030701581 0.22000001 1.3737154e-38
0.008520917 0.031409755 0.22000001 1.3552403e-38
0.041995231 0.005942299 0.22100002 1.3185057e-38
0.015317905 0.0094992751 0.22100002 1.5211922e-38
0.016118225 0.0094992751 0.22100002 1.5672898e-38
0.024921743 0.0098549733 0.22100002 1.4751304e-38
0.033577051 0.0097364075 0.22100002 1.3276174e-38
0.034169883 0.0098549733 0.22100002 1.3276174e-38
0.024743894 0.010566369 0.22100002 1.4474719e-38
0.033577051 0.010684934 0.22100002 1.3092141e-38
0.0085596489 0.011277763 0.22100002 1.6132799e-38
0.015317905 0.011633461 0.22100002 1.4658748e-38
0.0160293 0.011633461 0.22100002 1.4566552e-38
0.036304068 0.011633461 0.22100002 1.3829347e-38
0.0096267415 0.012700554 0.22100002 1.6224992e-38
0.029723661 0.012700554 0.22100002 1.4014464e-38
0.030790754 0.012522706 0.22100002 1.3553844e-38
0.031324301 0.012522705 0.22100002 1.3553485e-38
0.032391395 0.012522706 0.221 1.3277255e-38
0.033458486 0.012522705 0.22100002 1.3092864e-38
0.035592675 0.012522706 0.221 1.3644953e-38
0.015317905 0.013056252 0.22100002 1.5857291e-38
0.025988836 0.013767648 0.22100002 1.3830429e-38
0.026522383 0.01341195 0.22100002 1.3922626e-38
0.027589476 0.01341195 0.22100002 1.3922267e-38
0.028478719 0.013411949 0.22100002 1.3922269e-38
0.029545812 0.013411949 0.221 1.3922269e-38
0.030790756 0.01341195 0.22100002 1.3461291e-38
0.031324301 0.01341195 0.22100002 1.3461291e-38
0.032391395 0.013411949 0.221 1.3461648e-38
0.033458486 0.01341195 0.22100002 1.3277255e-38
0.035592671 0.013411949 0.221 1.3369087e-38
0.025899913 0.014567968 0.22100002 1.3737875e-38
0.026522383 0.014479044 0.221 1.3738236e-38
0.027589476 0.014479042 0.221 1.3830073e-38
0.028478719 0.014479044 0.221 1.3737878e-38
0.029545814 0.014479043 0.22099999 1.3645682e-38
0.030790754 0.014479042 0.221 1.3553486e-38
0.031324301 0.014479044 0.22100002 1.3000312e-38
0.032346934 0.014434581 0.22099999 1.3553486e-38
0.033458486 0.014301195 0.22100002 1.3276899e-38
0.034169883 0.014123346 0.22100002 1.318506e-38
0.024803177 0.015783267 0.22100002 1.4013741e-38
0.025810987 0.015723985 0.22100002 1.3738233e-38
0.026522383 0.015723985 0.22100002 1.3737876e-38
0.027589476 0.015723985 0.22100002 1.3645682e-38
0.028478719 0.015723985 0.22100002 1.3553486e-38
0.029545814 0.015723985 0.221 1.3093227e-38
0.030790754 0.015546137 0.22100002 1.3922267e-38
0.015317905 0.01661323 0.22100002 1.3921183e-38
0.023321103 0.016968926 0.22100002 1.3646038e-38
0.024566045 0.01661323 0.221 1.3553844e-38
0.025810987 0.01661323 0.22100002 1.3370173e-38
0.026522383 0.01661323 0.22100002 1.3462368e-38
0.027589476 0.01661323 0.22100002 1.3278337e-38
0.028478719 0.01661323 0.22100002 1.3186141e-38
0.014962208 0.017324625 0.22100002 1.4013378e-38
0.022668989 0.017561756 0.22100002 1.3553842e-38
0.023321103 0.017502474 0.22100002 1.3369095e-38
0.024566045 0.017502474 0.221 1.3185064e-38
0.025810987 0.017502474 0.22100002 1.3093587e-38
0.026522383 0.017502474 0.22100002 1.3277978e-38
0.027589476 0.017502474 0.22100002 1.3093946e-38
0.028478719 0.017502474 0.22100002 1.3093946e-38
0.029190116 0.017324625 0.22100002 1.300211e-38
0.0089153461 0.018036019 0.22100002 1.4658748e-38
0.0096267415 0.018036019 0.22100002 1.4105574e-38
0.021720463 0.018747415 0.22100002 1.3921546e-38
0.022609707 0.018391717 0.22100002 1.3277255e-38
0.023321103 0.018391717 0.22100002 1.3276899e-38
0.024566045 0.018391719 0.221 1.3093227e-38
0.025810987 0.018391717 0.22100002 1.3001391e-38
0.026522383 0.018391717 0.22100002 1.3093587e-38
0.027589476 0.018391717 0.22100002 1.3001391e-38
0.028360153 0.018273151 0.22100002 1.3093587e-38
0.017807789 0.01945881 0.22100002 1.419777e-38
0.018341336 0.019280961 0.22100002 1.4105936e-38
0.019586278 0.019280961 0.221 1.4105937e-38
0.020297673 0.019280961 0.22100002 1.382935e-38
0.021364765 0.019280961 0.221 1.3644959e-38
0.022609707 0.019280961 0.22100002 1.3277255e-38
0.023261821 0.019221678 0.22100002 1.3093587e-38
0.026522383 0.019280961 0.22100002 1.3093587e-38
0.027530193 0.019221678 0.22100002 1.3001391e-38
0.016740697 0.020703752 0.22100002 1.539631e-38
0.017452091 0.020525903 0.221 1.4935333e-38
0.018341336 0.020525903 0.221 1.4382161e-38
0.019586278 0.020525904 0.22099999 1.3921543e-38
0.020297673 0.020525903 0.22100002 1.382935e-38
0.021364767 0.020525903 0.22099999 1.3645319e-38
0.022609705 0.020525903 0.221 1.318506e-38
0.023143254 0.020881601 0.22100002 1.3092864e-38
0.017452091 0.021592997 0.22100002 1.4289964e-38
0.018341336 0.021592997 0.22100002 1.4197051e-38
0.019586278 0.021592997 0.221 1.4105575e-38
0.020297673 0.021592997 0.22100002 1.4013741e-38
0.021364765 0.021592997 0.221 1.3553842e-38
0.022609707 0.021592997 0.22100002 1.318506e-38
0.023143254 0.021592997 0.22100002 1.3000668e-38
0.017452091 0.022482241 0.22100002 1.3829347e-38
0.018341336 0.022482241 0.22100002 1.3921184e-38
0.019586278 0.022482241 0.221 1.4013741e-38
0.020297673 0.022482241 0.22100002 1.3737154e-38
0.021364765 0.022482241 0.221 1.3277255e-38
0.022609707 0.022482241 0.22100002 1.3092508e-38
0.017807789 0.023371484 0.22100002 1.3276536e-38
0.018341336 0.023371484 0.22100002 1.3552763e-38
0.019586278 0.023371482 0.221 1.382935e-38
0.020297673 0.023371484 0.22100002 1.3368733e-38
0.021364765 0.023371482 0.221 1.3092867e-38
0.017807789 0.02408288 0.22100002 1.318506e-38
0.018341336 0.02426073 0.22100002 1.3277255e-38
0.019586278 0.02426073 0.221 1.3369454e-38
0.020297673 0.02426073 0.22100002 1.3092508e-38
0.018430259 0.025416745 0.22100002 1.3277255e-38
0.019586278 0.025505669 0.22099999 1.300067e-38
0.0082039507 0.02692846 0.22100002 1.4566552e-38
0.011049532 0.02692846 0.22100002 1.539667e-38
0.018341336 0.026572764 0.22100002 1.318506e-38
0.008737497 0.027639857 0.22100002 1.4013741e-38
0.011227381 0.027462007 0.22100002 1.4935696e-38
0.017807789 0.027462007 0.22100002 1.318506e-38
0.018341336 0.027462007 0.22100002 1.3092507e-38
0.0082039507 0.028351251 0.22100002 1.4013741e-38
0.011286665 0.028469816 0.22100002 1.382935e-38
0.017452091 0.0285291 0.22100002 1.3000311e-38
0.01140523 0.029240496 0.22100002 1.3368372e-38
0.0078482535 0.03012974 0.22100002 1.3737154e-38
0.011303602 0.030536253 0.22099999 1.3368733e-38
0.013895114 0.030841134 0.22100002 1.3737154e-38
0.014784358 0.030841134 0.22100002 1.327582e-38
0.0089153461 0.031908229 0.22100002 1.3552403e-38
0.0098045906 0.031908229 0.22100002 1.3460568e-38
0.010338137 0.03173038 0.22100002 1.3183981e-38
0.01140523 0.03173038 0.221 1.3460568e-38
0.012472324 0.03173038 0.22100002 1.3460568e-38
0.013539416 0.03173038 0.221 1.3368372e-38
0.010338137 0.032263927 0.22100002 1.3091785e-38
0.01140523 0.032441776 0.221 1.3460568e-38
0.012472324 0.032441773 0.22100002 1.3276176e-38
0.013539416 0.032441776 0.221 1.3091785e-38
0.038606655 -0.000464424 0.223 1.3185057e-38
0.03914503 -0.00010550734 0.223 1.3092861e-38
0.039503947 0.00061232591 0.223 1.3000666e-38
0.023740221 0.0056988308 0.22260001 1.5949487e-38
0.024677204 0.0056118798 0.22200002 1.484314e-38
0.025034511 0.0059691872 0.22200002 1.4843142e-38
0.038666476 0.00551752 0.223 1.3000668e-38
0.022634862 0.0067139086 0.223 1.5949487e-38
0.023657911 0.0065196645 0.22250001 1.5765095e-38
0.024677204 0.0065051476 0.22200002 1.530412e-38
0.025213165 0.0065051476 0.22200002 1.5119729e-38
0.026106432 0.0066838013 0.22200002 1.5396316e-38
0.021917028 0.0077906586 0.223 1.5580704e-38
0.022455404 0.0076112002 0.223 1.5580704e-38
0.023640187 0.0075884461 0.22233336 1.5581064e-38
0.024677204 0.0075770691 0.22200002 1.5488869e-38
0.025213165 0.0075770691 0.22200002 1.5304477e-38
0.026225535 0.007517518 0.22200002 1.5304477e-38
0.015744524 0.0084703369 0.22200002 1.5857288e-38
0.016604472 0.0083194952 0.22275001 1.5764734e-38
0.017610028 0.0083290339 0.223 1.5488508e-38
0.018686779 0.0083290339 0.223 1.5396313e-38
0.019165335 0.0083888536 0.223 1.5488508e-38
0.020571092 0.0084187631 0.223 1.5488508e-38
0.021558112 0.0083290339 0.223 1.5304117e-38
0.022455404 0.0083290339 0.223 1.5304477e-38
0.023618242 0.0082858335 0.22280002 1.5396673e-38
0.024677204 0.0081130303 0.22200002 1.5396676e-38
0.025213165 0.0081130303 0.22200002 1.530448e-38
0.014738696 0.009226325 0.223 1.5672897e-38
0.016673522 0.0095422585 0.22200003 1.5488507e-38
0.01761003 0.0095852418 0.22300002 1.5211922e-38
0.018686779 0.0095852418 0.223 1.5211922e-38
0.019225154 0.0095852418 0.223 1.5119726e-38
0.020481363 0.0095852418 0.22300002 1.5396313e-38
0.021558112 0.0095852418 0.223 1.5120086e-38
0.022455404 0.0095852418 0.223 1.4935695e-38
0.023593646 0.0096301455 0.22285716 1.502789e-38
0.024373867 0.0097424034 0.22250001 1.4935695e-38
0.03065067 0.009824519 0.223 1.3830429e-38
0.031644695 0.0097209122 0.22200002 1.3830068e-38
0.032716617 0.0097209122 0.22200002 1.3276892e-38
0.033252575 0.0095422585 0.22200002 1.3183978e-38
0.0097138621 0.010661991 0.223 1.6132796e-38
0.010408306 0.01081674 0.22250001 1.5856572e-38
0.01556587 0.010792834 0.22200002 1.5396313e-38
0.016675666 0.010638086 0.22250001 1.5304117e-38
0.017610028 0.010661992 0.223 1.5304117e-38
0.018686779 0.010661991 0.223 1.5304117e-38
0.019225154 0.010661991 0.223 1.502753e-38
0.020481363 0.010661992 0.223 1.5119726e-38
0.021558112 0.010661991 0.223 1.4935695e-38
0.022600492 0.010765157 0.22266668 1.4843499e-38
0.023622734 0.010800802 0.22216667 1.4843499e-38
0.024677204 0.010971487 0.22200002 1.4566915e-38
0.025272718 0.010852385 0.22200002 1.4566915e-38
0.026483873 0.010800802 0.22216667 1.4383603e-38
0.030365756 0.010765157 0.22266668 1.3830429e-38
0.031466041 0.010792834 0.22200002 1.3830429e-38
0.032716617 0.010792834 0.22200002 1.3369451e-38
0.033252575 0.010971487 0.22200002 1.3000666e-38
0.0089960285 0.011020908 0.223 1.6409383e-38
0.0095344037 0.011020908 0.223 1.6224992e-38
0.010384916 0.011507448 0.22200002 1.6224995e-38
0.01556587 0.011328794 0.22200002 1.5396313e-38
0.016605061 0.011308041 0.223 1.502753e-38
0.017610027 0.011379824 0.22300002 1.5119726e-38
0.018686779 0.011379826 0.223 1.502753e-38
0.019225154 0.011379824 0.223 1.502753e-38
0.020481361 0.011379824 0.22300002 1.5211922e-38
0.021558112 0.011379824 0.223 1.4843499e-38
0.022481877 0.01141014 0.22220001 1.4843499e-38
0.023605281 0.011507448 0.22200002 1.4843499e-38
0.024677204 0.011507448 0.22200002 1.4659111e-38
0.025213165 0.011507448 0.22200002 1.4567634e-38
0.02646374 0.011507448 0.22200002 1.447544e-38
0.027488684 0.01141014 0.22220001 1.4107017e-38
0.028428929 0.011507448 0.22200002 1.429105e-38
0.029491538 0.01141014 0.22220001 1.3922626e-38
0.030206794 0.01141014 0.22220001 1.3830429e-38
0.031466041 0.011507448 0.22200002 1.3738233e-38
0.032716617 0.011507448 0.22200002 1.3461647e-38
0.033252575 0.011686102 0.22200002 1.3185057e-38
0.010384916 0.012579369 0.22200002 1.5948406e-38
0.016604472 0.012622068 0.22275001 1.502753e-38
0.017610028 0.012636033 0.223 1.5119726e-38
0.018686779 0.012636033 0.223 1.4935335e-38
0.019225154 0.012636033 0.223 1.4935335e-38
0.020481363 0.012636033 0.223 1.5211922e-38
0.021508969 0.012607701 0.22250001 1.502789e-38
0.022533361 0.012579369 0.22200002 1.4843499e-38
0.023605281 0.012579369 0.22200002 1.4843499e-38
0.024677204 0.012579369 0.22200002 1.4751305e-38
0.025213165 0.012579369 0.22200002 1.4567634e-38
0.026463741 0.012579369 0.22200002 1.4291407e-38
0.027535662 0.012579369 0.22200002 1.401482e-38
0.028428929 0.012579369 0.22200002 1.3922269e-38
0.029441299 0.012519818 0.22200002 1.4014464e-38
0.030036811 0.012400716 0.22200002 1.4014464e-38
0.0095344037 0.013174408 0.223 1.5949124e-38
0.012944112 0.013533325 0.223 1.5026451e-38
0.015695808 0.013652964 0.223 1.5948766e-38
0.016533278 0.013533325 0.223 1.5396313e-38
0.017610028 0.013533325 0.223 1.5211922e-38
0.018686779 0.013533325 0.223 1.4935335e-38
0.019225154 0.013533325 0.223 1.4935335e-38
0.020481363 0.013533325 0.223 1.4843499e-38
0.021640092 0.013472637 0.22200002 1.4566914e-38
0.022533361 0.013472637 0.22200002 1.4935698e-38
0.023605281 0.013472638 0.22200002 1.4843502e-38
0.024677204 0.013472637 0.22200002 1.4751306e-38
0.025213165 0.013472637 0.22200002 1.4567274e-38
0.026106432 0.01311533 0.22200002 1.3922625e-38
0.012513411 0.014538293 0.223 1.5764015e-38
0.015815446 0.014251159 0.223 1.5211922e-38
0.016533278 0.014610075 0.223 1.4750943e-38
0.017610028 0.014610075 0.22300002 1.4935335e-38
0.018686779 0.014610075 0.223 1.4750943e-38
0.019225154 0.014610075 0.223 1.4750943e-38
0.020460598 0.014595338 0.22277778 1.4659108e-38
0.021640092 0.014544561 0.22200002 1.4659108e-38
0.022533363 0.014544561 0.22200002 1.4659108e-38
0.023605281 0.01454456 0.22200002 1.4659109e-38
0.024677204 0.014544559 0.22200002 1.4566915e-38
0.025177434 0.014473098 0.22200003 1.4382884e-38
0.015744524 0.015973788 0.22200002 1.3921183e-38
0.016637791 0.015795134 0.22200002 1.4382161e-38
0.017500959 0.015758567 0.22275001 1.4935335e-38
0.018686779 0.015686825 0.223 1.4750943e-38
0.019225154 0.015686825 0.223 1.4843139e-38
0.020404557 0.015806856 0.22216667 1.4566912e-38
0.021640092 0.015795134 0.22200002 1.4566912e-38
0.022533361 0.015795134 0.22200002 1.4474717e-38
0.023605281 0.015795134 0.22200002 1.4566915e-38
0.024677204 0.01561648 0.22200002 1.4290328e-38
0.0054068612 0.016404659 0.223 1.5579622e-38
0.0087567503 0.016285019 0.223 1.5395953e-38
0.0093549453 0.016404659 0.223 1.5211919e-38
0.015744524 0.016331095 0.22200002 1.3828987e-38
0.016637791 0.016331095 0.22200002 1.419777e-38
0.017650547 0.016231665 0.22260001 1.4843139e-38
0.01877795 0.016260499 0.22266668 1.4658749e-38
0.019375071 0.01614086 0.22266668 1.4750945e-38
0.020389518 0.016331095 0.22200002 1.4658751e-38
0.021640092 0.016331095 0.22200002 1.4474719e-38
0.022533361 0.016331095 0.22200002 1.4382524e-38
0.023426628 0.016331095 0.22200002 1.401482e-38
0.0043301117 0.017122492 0.223 1.5856209e-38
0.0050479448 0.017122492 0.223 1.5671821e-38
0.0078956028 0.017428609 0.22233336 1.5026451e-38
0.0087871188 0.017332884 0.22225001 1.5026811e-38
0.0095344037 0.017301951 0.223 1.4935335e-38
0.010229652 0.017800324 0.22250001 1.4843139e-38
0.015506319 0.017522117 0.22200002 1.3920821e-38
0.016637791 0.017403016 0.22200002 1.4566551e-38
0.017352406 0.017403016 0.22200002 1.4750943e-38
0.01860298 0.017403016 0.22200002 1.4382164e-38
0.019674903 0.017403016 0.22200002 1.4382164e-38
0.020389518 0.017403014 0.22200002 1.4382524e-38
0.021640092 0.017403016 0.22200002 1.4106297e-38
0.022414258 0.017164811 0.22200002 1.3922625e-38
0.0086371116 0.018558158 0.223 1.4197054e-38
0.0093129948 0.018832246 0.22200002 1.4935335e-38
0.010027609 0.018117631 0.22200002 1.4382161e-38
0.014347537 0.018696006 0.22250001 1.4474719e-38
0.015458678 0.018403476 0.22200003 1.4197768e-38
0.016637791 0.018474938 0.22200002 1.3459124e-38
0.017352406 0.018474938 0.22200002 1.4381442e-38
0.018602982 0.018474938 0.22200002 1.4289968e-38
0.019674903 0.018474938 0.22200002 1.4198133e-38
0.020389518 0.018474938 0.22200002 1.4013741e-38
0.021580542 0.018355837 0.22200002 1.3921546e-38
0.007919278 0.019275991 0.223 1.4289965e-38
0.014307995 0.019419558 0.223 1.4659111e-38
0.015458678 0.019403936 0.22200003 1.5120086e-38
0.016637791 0.019368205 0.22200002 1.401266e-38
0.017292855 0.019308655 0.22200002 1.4104495e-38
0.0075603612 0.0205322 0.223 1.4658748e-38
0.013809966 0.020843873 0.22250001 1.5765097e-38
0.014223315 0.020620978 0.22280002 1.5857294e-38
0.015387216 0.02061878 0.22200002 1.6133876e-38
0.016548466 0.020529455 0.22200002 1.5672898e-38
0.0077398196 0.021070575 0.223 1.4843139e-38
0.012575789 0.021234019 0.22283334 1.4198133e-38
0.013740204 0.021245787 0.22233336 1.6041682e-38
0.014315295 0.021333395 0.22200002 1.6318266e-38
0.015387218 0.021333395 0.22200002 1.5856209e-38
0.016637791 0.021333395 0.22200002 1.52112e-38
0.010790612 0.022685699 0.223 1.419777e-38
0.011328987 0.022506239 0.223 1.4105934e-38
0.012368381 0.022438958 0.22233336 1.3460206e-38
0.013600679 0.022405317 0.22200002 1.4934257e-38
0.014315295 0.022405317 0.22200002 1.4381082e-38
0.015387216 0.022405317 0.22200002 1.4012301e-38
0.016637791 0.022405317 0.22200002 1.4382161e-38
0.0097138621 0.023941908 0.223 1.3828634e-38
0.010611153 0.02376245 0.223 1.3460209e-38
0.011328987 0.02376245 0.223 1.3828989e-38
0.012585196 0.023762451 0.223 1.3829347e-38
0.013809967 0.023709171 0.22250001 1.4105936e-38
0.014315295 0.023655891 0.22200002 1.3737154e-38
0.015387216 0.02365589 0.22200002 1.4013741e-38
0.016637791 0.023655891 0.22200002 1.4106296e-38
0.017173752 0.023655891 0.22200002 1.3830069e-38
0.0086371116 0.024659742 0.223 1.4474718e-38
0.0095344037 0.024480283 0.223 1.3368015e-38
0.010611153 0.024480283 0.223 1.327546e-38
0.011328987 0.024480283 0.223 1.3644596e-38
0.012585194 0.024480285 0.223 1.3460203e-38
0.013809966 0.024425395 0.22250001 1.401374e-38
0.014315295 0.024370506 0.22200002 1.3921546e-38
0.015387216 0.024370505 0.22200002 1.3921546e-38
0.016637791 0.024370506 0.22200002 1.3921906e-38
0.017292855 0.024430057 0.22200002 1.3553842e-38
0.0077398196 0.025557032 0.223 1.4750943e-38
0.010587496 0.025678249 0.22250001 1.3737159e-38
0.011328987 0.025557032 0.223 1.4105577e-38
0.012430342 0.025641304 0.22280002 1.3460563e-38
0.013600681 0.025621079 0.22200002 1.3644599e-38
0.014315295 0.025621081 0.22200002 1.3921186e-38
0.015387216 0.025621081 0.22200002 1.3644959e-38
0.016637791 0.025621081 0.22200002 1.3737154e-38
0.017352406 0.025621081 0.22200002 1.3737154e-38
0.018245675 0.025799735 0.22200002 1.3277255e-38
0.0075603616 0.026454324 0.223 1.4566552e-38
0.010742223 0.026335696 0.22200002 1.466019e-38
0.011392912 0.026215551 0.22250001 1.4752021e-38
0.012327106 0.026414782 0.22266668 1.4474714e-38
0.013600681 0.026335696 0.22200002 1.4013739e-38
0.014315295 0.026335696 0.22200002 1.3921543e-38
0.015387218 0.026335696 0.22200002 1.3460565e-38
0.016637791 0.026335696 0.22200002 1.3737154e-38
0.017352406 0.026335696 0.22200002 1.3552763e-38
0.0076083434 0.027609291 0.22266668 1.419813e-38
0.0085983798 0.027407615 0.22200002 1.4105934e-38
0.011814144 0.027407615 0.22200002 1.4013376e-38
0.012350106 0.027407615 0.22200002 1.3552399e-38
0.013600681 0.027407613 0.22200002 1.4382164e-38
0.014315295 0.027407615 0.22200002 1.4198131e-38
0.015387216 0.027407615 0.22200002 1.3183622e-38
0.016637791 0.027407615 0.22200002 1.3645318e-38
0.017263079 0.027318288 0.22200002 1.3369092e-38
0.0073639518 0.028722737 0.22250001 1.4105936e-38
0.011814144 0.028658189 0.22200002 1.3552763e-38
0.012480194 0.02874588 0.22240002 1.3183981e-38
0.013522421 0.0286847 0.22266668 1.3736799e-38
0.014168079 0.028722737 0.22250001 1.4013741e-38
0.015387216 0.028658189 0.22200002 1.3368375e-38
0.016637791 0.028658189 0.22200002 1.3460929e-38
0.0072014448 0.029505115 0.223 1.4105934e-38
0.011814144 0.029372804 0.22200002 1.3368372e-38
0.012548109 0.029416909 0.22233336 1.3183981e-38
0.014379779 0.029505115 0.223 1.3921546e-38
0.015387216 0.029372804 0.22200002 1.3092505e-38
0.01657824 0.029313251 0.22200002 1.3092867e-38
0.0075264587 0.030623378 0.22200002 1.3552763e-38
0.011814144 0.030444726 0.22200002 1.3736799e-38
0.012350106 0.030623378 0.22200002 1.3829712e-38
0.01348158 0.030682931 0.22200002 1.3737157e-38
0.014315295 0.030444726 0.22200002 1.3644601e-38
0.015149012 0.030385176 0.22200002 1.3276178e-38
0.004689028 0.031838074 0.223 1.4382164e-38
0.0077220639 0.03140777 0.22250001 1.3368372e-38
0.0045693894 0.032316629 0.223 1.4197772e-38
0.0054786443 0.032484125 0.223 1.3736794e-38
0.0062443339 0.032795187 0.223 1.3644959e-38
0.0076800003 0.032675549 0.223 1.3460568e-38
0.0086772656 0.032510899 0.22220001 1.3368372e-38
0.0093129948 0.032588568 0.22200002 1.3460568e-38
0.005765778 0.033632658 0.223 1.3921186e-38
0.0063041532 0.033812117 0.223 1.382899e-38
0.0075544431 0.033786714 0.22283335 1.3460568e-38
0.0087770335 0.03366049 0.22200002 1.3368372e-38
0.0093129948 0.03366049 0.22200002 1.3368372e-38
0.010384916 0.03366049 0.22200002 1.2999589e-38
0.0063041532 0.034350488 0.223 1.382899e-38
0.0076323347 0.034452125 0.22250001 1.3460207e-38
0.0087770335 0.034553759 0.22200002 1.3276176e-38
0.0093129948 0.034553759 0.22200002 1.3368372e-38
0.010384916 0.034553759 0.22200002 1.299995e-38
0.005765778 0.035606697 0.223 1.3644599e-38
0.0063041528 0.035427239 0.223 1.3368371e-38
0.0075463178 0.035542347 0.22260003 1.3092145e-38
0.0087770335 0.035625678 0.22200002 1.3092504e-38
0.0093129948 0.035625678 0.22200002 1.3092864e-38
0.004689028 0.036862906 0.223 1.3460207e-38
0.0054068617 0.036503989 0.223 1.3460207e-38
0.0063041532 0.036503989 0.223 1.3183981e-38
0.004689028 0.037221823 0.223 1.3552403e-38
0.0054003978 0.037359148 0.22275001 1.3460207e-38
0.0064614029 0.037275288 0.22225001 1.2999589e-38
0.035715308 -0.0022691372 0.22400001 1.4474717e-38
0.035535045 -0.0017283481 0.22400001 1.419813e-38
0.036075834 -0.001728348 0.22400001 1.4013739e-38
0.035571098 -0.00053861178 0.22400001 1.3738233e-38
0.036256097 -0.00046650655 0.22399999 1.3646038e-38
0.037517939 -0.00046650658 0.22400001 1.3277255e-38
0.038599517 -0.00010598046 0.22400001 1.3185057e-38
0.035715308 0.00025454565 0.22400001 1.3738233e-38
0.036316186 0.00049489638 0.22400002 1.3646038e-38
0.037517939 0.00061507174 0.22399999 1.3277255e-38
0.03877978 0.00061507174 0.22400001 1.3092863e-38
0.037517939 0.0013361241 0.22400002 1.318506e-38
0.03877978 0.0015163871 0.22400001 1.3092864e-38
0.039320569 0.001336124 0.22400001 1.3000668e-38
0.038839865 0.0026580533 0.22400002 1.3000668e-38
0.037878465 0.0033190176 0.22400001 1.318506e-38
0.038599517 0.0031387547 0.22400001 1.3092864e-38
0.017688997 0.0053019114 0.22400001 1.6409386e-38
0.022736363 0.0053019114 0.22400001 1.6133878e-38
0.023096889 0.0053019114 0.22400001 1.6226074e-38
0.017598866 0.0064736214 0.22400001 1.6224995e-38
0.018193733 0.0064555951 0.22400001 1.6132799e-38
0.019419523 0.0065998053 0.22400001 1.56729e-38
0.02021268 0.006744016 0.22400001 1.5857291e-38
0.021654785 0.006744016 0.22400001 1.5580704e-38
0.0225561 0.0063834898 0.22400001 1.5949487e-38
0.016427156 0.0076453313 0.22400001 1.6224992e-38
0.017508734 0.0076453313 0.22400001 1.5856931e-38
0.018229786 0.0076453313 0.22400001 1.5857291e-38
0.019491628 0.0076453313 0.22399999 1.5580704e-38
0.020573206 0.0076453313 0.22400001 1.5580704e-38
0.021414435 0.0075852438 0.22400002 1.5396313e-38
0.014804788 0.0085466467 0.22400001 1.5857288e-38
0.019671891 0.0081861205 0.22400001 1.5488508e-38
0.02021268 0.0081861205 0.22400001 1.56729e-38
0.0259811 0.0081861205 0.22400001 1.530448e-38
0.029946888 0.009267699 0.22400001 1.4290328e-38
0.0093968958 0.010709804 0.22400001 1.6409383e-38
0.0083153173 0.01107033 0.22400001 1.6132796e-38
0.010839 0.011430856 0.22400002 1.6224995e-38
0.010839 0.012692697 0.22400001 1.5764015e-38
0.011920579 0.012872959 0.22400001 1.465695e-38
0.012641631 0.012872959 0.22400001 1.5026451e-38
0.0095771588 0.013954538 0.22400001 1.548851e-38
0.010117948 0.013233486 0.22400001 1.5580701e-38
0.011560053 0.013666118 0.22400001 1.4289608e-38
0.012641631 0.013594012 0.22400001 1.5118647e-38
0.011560053 0.014405196 0.22400001 1.5579627e-38
0.0047100554 0.01647822 0.22400001 1.5671818e-38
0.0079547912 0.01647822 0.22400001 1.5395231e-38
0.0083153173 0.016117694 0.22400001 1.5396313e-38
0.0097574219 0.01647822 0.22400001 1.4566552e-38
0.0045297923 0.017559798 0.22400001 1.5764014e-38
0.0075942646 0.017559798 0.22400002 1.4934256e-38
0.0097574219 0.017199272 0.22400001 1.4843139e-38
0.010478474 0.017740062 0.22400001 1.4843139e-38
0.0077745281 0.018280851 0.22400001 1.4934256e-38
0.010839 0.018280851 0.22400001 1.4935695e-38
0.011199526 0.018280851 0.22400001 1.4935338e-38
0.0068732123 0.019722955 0.22400001 1.5211922e-38
0.0077384757 0.019362429 0.22400001 1.4658748e-38
0.008459528 0.019434534 0.22400001 1.3460207e-38
0.0095170708 0.019362429 0.22400002 1.5211922e-38
0.013362683 0.019182166 0.22400001 1.4013741e-38
0.0065126861 0.020624271 0.22400001 1.5211922e-38
0.0084955804 0.020624271 0.22400001 1.502753e-38
0.0095170708 0.02068436 0.22400002 1.5211922e-38
0.011199526 0.020804534 0.22400001 1.3552763e-38
0.013002157 0.020804534 0.22400001 1.4567638e-38
0.0067530368 0.021285236 0.22400002 1.502753e-38
0.0077745281 0.021525586 0.22400001 1.4843139e-38
0.0084955804 0.021345323 0.22400001 1.4935335e-38
0.0095771588 0.021345323 0.22400001 1.4843139e-38
0.010478474 0.021345323 0.22400001 1.4105575e-38
0.011199526 0.02116506 0.22400001 1.4198133e-38
0.0068732123 0.022607164 0.22400002 1.4382161e-38
0.0077745281 0.022607164 0.22399999 1.4658748e-38
0.0084955804 0.022607164 0.22399999 1.4658748e-38
0.0095771588 0.022607164 0.22399999 1.4566552e-38
0.010298211 0.022517033 0.22400001 1.4289965e-38
0.0066929492 0.023688743 0.22400001 1.3644236e-38
0.0077745281 0.023688743 0.22400001 1.4105574e-38
0.0084955804 0.023688743 0.22400001 1.4566552e-38
0.0095771588 0.023688743 0.22400001 1.4382162e-38
0.0066929492 0.024409795 0.22399999 1.4382164e-38
0.0077745281 0.024409795 0.22399999 1.4474717e-38
0.0084955804 0.024229532 0.22400001 1.4474717e-38
0.0093968958 0.024049269 0.22400001 1.4290325e-38
0.0047100554 0.0258519 0.22400001 1.4935335e-38
0.0052508446 0.0258519 0.22400001 1.502753e-38
0.006584791 0.025707688 0.22400001 1.5120086e-38
0.0075942646 0.025491374 0.22400001 1.5211922e-38
0.0034482137 0.026212426 0.22400001 1.4842063e-38
0.0045297923 0.026212426 0.22400001 1.4934257e-38
0.0053109322 0.026452778 0.22400002 1.484278e-38
0.0065126861 0.026572952 0.22399999 1.4843501e-38
0.0054311077 0.027474267 0.22400001 1.4658748e-38
0.0065126861 0.027474267 0.22399999 1.4382521e-38
0.0036284768 0.028736109 0.22400001 1.4382161e-38
0.0045297923 0.028375583 0.22400001 1.4566192e-38
0.0052508446 0.028375583 0.22400001 1.4566554e-38
0.0063324231 0.028375583 0.22400001 1.4382522e-38
0.0029074245 0.029457161 0.22400001 1.4564757e-38
0.0034482137 0.029276898 0.22400001 1.4473996e-38
0.0045297923 0.029276898 0.22400001 1.4381802e-38
0.0052508446 0.029276898 0.22400001 1.4382161e-38
0.0063324231 0.029276898 0.22400001 1.4289965e-38
0.0036284768 0.030178213 0.22400001 1.4381085e-38
0.0045297923 0.03053874 0.22399999 1.4197054e-38
0.0052508446 0.03053874 0.22399999 1.4197772e-38
0.0064676204 0.030583808 0.22399999 1.3921186e-38
0.0029074245 0.031980842 0.22400001 1.3827189e-38
0.0035083015 0.03174049 0.22400002 1.4288888e-38
0.0044697043 0.031500142 0.22400002 1.4473999e-38
0.0052508446 0.031620316 0.22400001 1.4013381e-38
0.0065126861 0.031620316 0.22399999 1.3737154e-38
0.0075942646 0.031980842 0.22400001 1.3460568e-38
0.0025468983 0.032521632 0.22400001 1.4657669e-38
0.0034482137 0.032521632 0.22400001 1.382899e-38
0.0043495293 0.032701895 0.22400001 1.4105577e-38
0.006584791 0.032485582 0.22400001 1.3737154e-38
0.0075942646 0.032341368 0.22400001 1.3460568e-38
0.0026670739 0.033302773 0.22400002 1.4564393e-38
0.0034482137 0.033422947 0.22400001 1.3552402e-38
0.0045297923 0.033422947 0.22400001 1.382899e-38
0.0050705816 0.033422947 0.22400001 1.3736794e-38
0.0047100554 0.034143999 0.22400001 1.382899e-38
0.0052508446 0.034324262 0.22400001 1.3644599e-38
0.0052508446 0.035225578 0.22400001 1.3921183e-38
0.049998041 -0.010246251 0.22500001 1.3185054e-38
0.033701934 -0.0030035386 0.22500001 1.4935332e-38
0.034607276 -0.0030035386 0.22500001 1.4750943e-38
0.033701934 -0.0022792672 0.22500001 1.502753e-38
0.034607276 -0.0022792672 0.22500001 1.4935335e-38
0.03515048 -0.0022792672 0.22500001 1.4935335e-38
0.033520866 -0.0017360639 0.22500001 1.4658748e-38
0.034607276 -0.0017360639 0.22500001 1.4751304e-38
0.033520866 -0.00046858916 0.22500001 1.4198133e-38
0.034607276 -0.00046858916 0.22500001 1.401482e-38
0.03515048 -0.00010645359 0.22500001 1.3922625e-38
0.033701934 0.00025568201 0.22500001 1.4105937e-38
0.034607276 0.00061781768 0.22500001 1.3830072e-38
0.035391901 0.00073852955 0.22500001 1.3738235e-38
0.036236886 0.00097995333 0.22500001 1.3646038e-38
0.034788344 0.0013420889 0.22500001 1.3645682e-38
0.035512615 0.0015231567 0.22500001 1.364568e-38
0.036526594 0.0015593702 0.22499999 1.3461647e-38
0.037685428 0.0017042245 0.22500001 1.318506e-38
0.038047563 0.0017042245 0.22500001 1.318506e-38
0.036961157 0.0024284958 0.22500001 1.3277255e-38
0.037685428 0.0026095635 0.22500001 1.318506e-38
0.038168278 0.0025492075 0.22500001 1.318506e-38
0.015595152 0.0047823773 0.22500001 1.6501939e-38
0.016440136 0.0048427335 0.22500001 1.6317187e-38
0.02157039 0.004963445 0.22500001 1.5765095e-38
0.022475731 0.004963445 0.22500001 1.5949487e-38
0.015595152 0.0053255805 0.22500001 1.6501579e-38
0.016500492 0.0053255805 0.22500001 1.6409386e-38
0.017043695 0.0053255805 0.22500001 1.6409386e-38
0.021751458 0.0053255805 0.22500001 1.56729e-38
0.022113595 0.0053255805 0.22500001 1.5857291e-38
0.015595152 0.0064119869 0.22500001 1.6593777e-38
0.016500492 0.0064119878 0.22500001 1.631719e-38
0.017043695 0.0062309196 0.22500001 1.6224995e-38
0.020665051 0.0067741233 0.22500001 1.56729e-38
0.02157039 0.0064119874 0.22500001 1.5580704e-38
0.022113595 0.0060498519 0.22500001 1.5857291e-38
0.014388033 0.0083433772 0.22500001 1.6040961e-38
0.01414661 0.009309072 0.22500001 1.5949484e-38
0.0087145744 0.010757615 0.22500001 1.6224992e-38
0.026459223 0.010033344 0.22500001 1.4567994e-38
0.011249525 0.011481886 0.22500001 1.6041324e-38
0.011490948 0.012689005 0.22500001 1.5026451e-38
0.010525253 0.013292563 0.22500001 1.4935335e-38
0.01161166 0.013292563 0.22500001 1.4013378e-38
0.0098009817 0.01437897 0.22500001 1.5027533e-38
0.010344185 0.014197903 0.22500001 1.3920828e-38
0.0047310824 0.015827512 0.22500001 1.5764016e-38
0.0054553538 0.015827512 0.22500001 1.5671821e-38
0.0065417606 0.015827512 0.22500001 1.5671821e-38
0.0043689469 0.016370716 0.22500001 1.5948405e-38
0.0054553538 0.016189648 0.22500001 1.5579622e-38
0.0066624726 0.016431071 0.22500001 1.5487427e-38
0.007628168 0.016370716 0.22500001 1.5395231e-38
0.010163117 0.016551783 0.22500001 1.4658748e-38
0.0024375564 0.017396769 0.22500001 1.60406e-38
0.0034636077 0.017457124 0.22500001 1.6132796e-38
0.0047310824 0.017276054 0.22500001 1.5671821e-38
0.0055277809 0.017493337 0.22499999 1.5579624e-38
0.0067228284 0.017457124 0.22500001 1.5210843e-38
0.010344185 0.017457124 0.22500001 1.4843139e-38
0.0067831851 0.018121039 0.22500001 1.502645e-38
0.011249525 0.018000327 0.22500001 1.4935335e-38
0.0067831841 0.019448869 0.22500001 1.521192e-38
0.013422338 0.019811004 0.22500001 1.4291051e-38
0.0056967773 0.020776698 0.22500001 1.5211922e-38
0.013241271 0.020535275 0.22500001 1.4474725e-38
0.0047310824 0.021621682 0.22500001 1.5488508e-38
0.0054553538 0.021440616 0.22500001 1.5119726e-38
0.0065417606 0.021621682 0.22500001 1.5211922e-38
0.0047310824 0.02270809 0.22500001 1.5395234e-38
0.0054553538 0.022527022 0.22500001 1.4843139e-38
0.0065417606 0.022527022 0.22500001 1.4843139e-38
0.0043689469 0.023432361 0.22500001 1.484206e-38
0.0054553538 0.023432361 0.22500001 1.4473278e-38
0.0065417606 0.023070225 0.22500001 1.4382161e-38
0.0043689464 0.024518767 0.22500001 1.4197411e-38
0.0054553533 0.024518766 0.22500001 1.3552403e-38
0.0035239637 0.025846599 0.22500001 1.4934256e-38
0.0042482349 0.025725886 0.22500001 1.4750585e-38
0.0054553538 0.025605174 0.22500001 1.4474357e-38
0.0023772004 0.028864397 0.22500001 1.4012302e-38
0.0034032518 0.028381549 0.22500001 1.4565833e-38
0.0018339971 0.0294076 0.22500001 1.3827552e-38
0.0023168444 0.029347243 0.22500001 1.364352e-38
0.013784474 0.030675074 0.22500001 1.4013385e-38
0.040762879 -0.0051993583 0.22600001 1.3183975e-38
0.040581007 -0.0044718683 0.22600001 1.3276172e-38
0.041490372 -0.0044718683 0.22600001 1.3183976e-38
0.033487976 -0.0031987601 0.22600001 1.5027529e-38
0.040641632 -0.0036231296 0.22600001 1.3183978e-38
0.041490372 -0.0037443778 0.22600001 1.3183978e-38
0.032396741 -0.0022893974 0.22600001 1.502753e-38
0.033306103 -0.0022893974 0.22600001 1.4935335e-38
0.032396741 -0.0019256521 0.22600001 1.4935335e-38
0.033124231 -0.0017437796 0.22600001 1.4658748e-38
0.032396741 -0.00047067183 0.22600001 1.4474719e-38
0.033124231 -0.0004706718 0.22600001 1.4382522e-38
0.033487976 0.0002568184 0.22600001 1.419813e-38
0.015300719 0.0049855048 0.22600001 1.6501579e-38
0.015300719 0.0057129948 0.22600001 1.6501581e-38
0.021120641 0.0057129948 0.22600001 1.56729e-38
0.015300719 0.0062586125 0.22600001 1.6501581e-38
0.021120641 0.0060767401 0.22600001 1.56729e-38
0.013663866 0.0084410831 0.22600001 1.6317547e-38
0.025849329 0.0086229555 0.22600001 1.5120089e-38
0.026576819 0.0082592107 0.22600001 1.5396673e-38
0.013663866 0.0093504461 0.22600001 1.6041679e-38
0.026576819 0.0097141908 0.22600001 1.4843502e-38
0.026940564 0.010077937 0.22600001 1.4567994e-38
0.003660874 0.014806622 0.22600001 1.668597e-38
0.0044793007 0.014715686 0.22600001 1.668597e-38
0.0056008487 0.014685374 0.22600001 1.6501579e-38
0.0065708356 0.014806622 0.22600001 1.6317187e-38
0.0028121353 0.015655361 0.22600001 1.6317187e-38
0.003660874 0.015534112 0.22600001 1.6685973e-38
0.0042974278 0.01535224 0.22600001 1.6409386e-38
0.0056614727 0.015170367 0.22600001 1.6593774e-38
0.0066920836 0.015412864 0.22600001 1.5856211e-38
0.0018421481 0.016625347 0.22600001 1.6132796e-38
0.0025696384 0.016443474 0.22600003 1.6132796e-38
0.003660874 0.016443474 0.22600001 1.6317187e-38
0.0040246192 0.016261602 0.22600001 1.6317187e-38
0.0072983257 0.016261602 0.22600001 1.5395231e-38
0.010572032 0.016625347 0.22600001 1.4934259e-38
0.00075091264 0.017716583 0.22600001 1.6317187e-38
0.0014784029 0.01753471 0.22600001 1.6132796e-38
0.0022058932 0.017716583 0.22600001 1.60406e-38
0.010572032 0.017352838 0.22600001 1.4935338e-38
0.0014784029 0.018080328 0.22600001 1.6224992e-38
0.0025696384 0.018080328 0.22600001 1.6132796e-38
0.003660874 0.018080328 0.22600001 1.6132796e-38
0.0043883645 0.018080328 0.22600001 1.5856209e-38
0.0056614727 0.0182622 0.22600001 1.5764014e-38
0.0062070903 0.018444072 0.22600001 1.5579622e-38
0.0057524089 0.019626245 0.22600001 1.5396311e-38
0.0062070903 0.019353436 0.22600001 1.5304475e-38
0.0023877658 0.020626543 0.22600001 1.5488506e-38
0.0046308613 0.020869039 0.22600001 1.5211922e-38
0.0054795998 0.020626543 0.22600001 1.5211922e-38
0.0043883645 0.021354035 0.22600001 1.5396313e-38
-0.0021590486 0.02390025 0.22600001 1.4381082e-38
-0.0012496857 0.02390025 0.22600001 1.4934975e-38
-0.00070406799 0.02390025 0.22600001 1.5396313e-38
0.0029333835 0.023172759 0.22600001 1.5118647e-38
0.003660874 0.023536503 0.22600001 1.5395234e-38
-0.00070406799 0.024263995 0.22600001 1.5579625e-38
0.0036608737 0.02462774 0.22600001 1.5026451e-38
-0.0045233918 0.026446465 0.22600001 1.4843139e-38
-0.0039777742 0.026446465 0.22600001 1.4934256e-38
-0.0055540032 0.027295202 0.22600001 1.4473278e-38
-0.0044870176 0.02746495 0.22600003 1.484206e-38
-0.0038322762 0.027464952 0.22600003 1.484206e-38
0.0014784029 0.028992681 0.22600001 1.3920107e-38
0.0025696384 0.028265191 0.22600001 1.484206e-38
0.0011146577 0.029356426 0.22600001 1.3827911e-38
0.013845738 0.02972017 0.22600001 1.382935e-38
0.020848742 0.0057382737 0.22700001 1.5857291e-38
0.014637712 0.0062863054 0.22700001 1.6501581e-38
0.020848742 0.0062863054 0.22700001 1.5857291e-38
0.027242448 0.0079304017 0.22700001 1.5304477e-38
0.027242448 0.0082957558 0.22700001 1.5120086e-38
0.025963707 0.0093918201 0.22700001 1.4935695e-38
0.026329061 0.009209143 0.22700001 1.5120086e-38
0.027242446 0.0093918191 0.22700001 1.4843502e-38
0.011714875 0.01140127 0.22700001 1.5949487e-38
0.0056256303 0.014263214 0.22700001 1.6593774e-38
0.0064172326 0.014506783 0.22700001 1.6501579e-38
0.0016676218 0.018525684 0.22700001 1.6132796e-38
0.0027636858 0.018525684 0.22700001 1.6132796e-38
0.0033117176 0.018525684 0.22700001 1.6132796e-38
0.0044077816 0.018525684 0.22700001 1.5948405e-38
0.0016676217 0.019621747 0.22700001 1.5764372e-38
0.0027636858 0.019621747 0.22700001 1.5765093e-38
0.0033117176 0.019621748 0.22700001 1.5488866e-38
0.0044077816 0.019621748 0.22700003 1.5211919e-38
0.0051384908 0.019439071 0.22700001 1.539667e-38
0.0029463631 0.020717811 0.22700001 1.5027528e-38
0.0033117176 0.020717811 0.22700001 1.4935332e-38
0.0042251041 0.020717811 0.22700001 1.4843136e-38
0.0040424271 0.021083167 0.22700001 1.4843139e-38
-0.0032646661 0.024736712 0.22700001 1.4196693e-38
-0.0023512794 0.024554035 0.22700001 1.4565473e-38
-0.00162057 0.024554035 0.22700001 1.484206e-38
-0.00046361357 0.024614928 0.22700001 1.5211563e-38
2.3525949e-05 0.024736712 0.22700001 1.3183621e-38
0.0029463631 0.024006004 0.22700001 1.5395234e-38
-0.0033864509 0.025589207 0.22700001 1.4104498e-38
-0.0023512794 0.025467422 0.22700001 1.5488148e-38
-0.00162057 0.025467422 0.22700001 1.5119366e-38
-0.00052450603 0.025467422 0.22700001 1.5027172e-38
2.3525949e-05 0.025467422 0.22700001 1.3460207e-38
0.0029463631 0.025832776 0.22700001 1.4749864e-38
-0.0056394711 0.026563486 0.22700001 1.4750943e-38
-0.0035569496 0.026344273 0.22700003 1.4750223e-38
-0.0023512794 0.026380809 0.22700001 1.5948768e-38
-0.00162057 0.026380809 0.22700001 1.5211561e-38
-0.00052450603 0.02619813 0.22700001 1.4935335e-38
-0.0032646661 0.027476873 0.22700001 1.4934256e-38
-0.0023512794 0.027476873 0.22700001 1.5118647e-38
-0.0018032474 0.027294196 0.22700001 1.5395234e-38
-0.0033864509 0.02814669 0.22700001 1.4473998e-38
-0.0023512794 0.028207583 0.22700001 1.4566552e-38
0.00075423525 0.029120969 0.22700001 1.3182539e-38
0.048095934 -0.012217687 0.22800002 1.3092861e-38
0.048095934 -0.011667242 0.22800002 1.3185057e-38
0.047728967 -0.01056635 0.22800002 1.3185054e-38
0.048462898 -0.0096489396 0.22800002 1.3185054e-38
0.015436124 0.0028278399 0.22800002 1.6962557e-38
0.011766482 0.0044791782 0.22800002 1.6870361e-38
0.012133447 0.0046626604 0.22800002 1.6870361e-38
0.011766482 0.0050296243 0.22800002 1.6962557e-38
0.027912905 0.0079653375 0.22800002 1.5120086e-38
0.027912905 0.0083323009 0.22800002 1.4935695e-38
0.027912905 0.0092497114 0.22800002 1.4659111e-38
0.029747725 0.0094331941 0.228 1.4382884e-38
0.02754594 0.010167122 0.22800002 1.4383603e-38
0.012378089 0.011512657 0.228 1.5857651e-38
0.0064455024 0.012735871 0.22800002 1.6593774e-38
0.0054057706 0.013347477 0.228 1.6409383e-38
0.0066289846 0.013286316 0.22800003 1.6593774e-38
0.0077298768 0.013469798 0.22800002 1.6409383e-38
0.0080968412 0.013469798 0.22800002 1.6317187e-38
0.0067207254 0.014295466 0.22800002 1.6593774e-38
0.0077298768 0.014387207 0.22800002 1.6224993e-38
0.0080968412 0.014203725 0.22800002 1.6317187e-38
0.011032554 0.017689884 0.22800002 1.5027532e-38
0.0029593427 0.024478721 0.22800002 1.5395234e-38
-0.0043799402 0.025946576 0.22800002 1.4935332e-38
-0.0036460119 0.025212649 0.22800002 1.4104495e-38
-0.0052973507 0.026313541 0.22800002 1.4935332e-38
-0.0047469041 0.026313541 0.22800002 1.5027528e-38
0.0014914861 0.028515326 0.228 1.4288888e-38
-0.0029120836 0.029249253 0.22800002 1.4566549e-38
0.013417821 0.03071711 0.22800002 1.3552407e-38
0.010712368 0.0035773898 0.22900002 1.7423535e-38
0.011449516 0.0035773898 0.22900002 1.6870361e-38
