# .PCD v0.7 - Point Cloud Data file format
VERSION 0.7
FIELDS x y z rgb
SIZE 4 4 4 4
TYPE F F F F
COUNT 1 1 1 1
WIDTH 643
HEIGHT 1
VIEWPOINT 0 0 0 1 0 0 0
POINTS 643
DATA ascii
0.024814274 -0.00029781446 0.14300001 1.3277613e-38
0.077429011 0.041467361 0.15900002 1.5534956e-38
0.078288138 0.041564848 0.15900002 1.6181402e-38
0.078580603 0.042149786 0.15900001 1.6187162e-38
0.079050779 0.042679969 0.16100001 1.6459786e-38
0.080595009 0.044806018 0.16800001 1.7197354e-38
0.081270993 0.044806018 0.16800001 1.5907701e-38
0.081135795 0.045346808 0.16800001 1.6184285e-38
0.080368817 0.04388015 0.17 1.5162575e-38
0.080448046 0.044633459 0.16940001 1.5904817e-38
0.081210747 0.044800714 0.16900001 1.6831093e-38
0.080768183 0.04547888 0.16950001 1.5351285e-38
0.08114405 0.045886651 0.17 1.5442403e-38
0.081189655 0.046251465 0.17 1.5258731e-38
0.076529749 0.042303447 0.171 1.489031e-38
0.080795705 0.042853892 0.171 1.5533514e-38
0.083685547 0.042853892 0.171 1.4891745e-38
0.084419481 0.042762149 0.171 1.4982498e-38
0.080795705 0.043679565 0.171 1.5717186e-38
0.083593808 0.043496083 0.171 1.4981419e-38
0.084327735 0.043496083 0.171 1.516473e-38
0.079832427 0.044780456 0.171 1.6362556e-38
0.080382869 0.044505231 0.171 1.5439881e-38
0.080589287 0.045537315 0.171 1.4982148e-38
0.079635844 0.046471111 0.171 1.5076143e-38
0.080658101 0.046431795 0.171 1.4059833e-38
0.081208542 0.046707015 0.171 1.4427534e-38
0.079457119 0.0475577 0.171 1.5721149e-38
0.080618776 0.047454048 0.171 1.4614444e-38
0.081208542 0.047257461 0.171 1.4336057e-38
0.079457119 0.048608553 0.171 1.5537122e-38
0.078456305 0.050422527 0.171 1.387364e-38
0.079098493 0.050376654 0.171 1.3141111e-38
0.081545025 0.041720338 0.17200001 1.5072176e-38
0.076515906 0.042735394 0.17200001 1.4982145e-38
0.080852941 0.04282767 0.17200001 1.506894e-38
0.081517339 0.042550836 0.17200001 1.5163652e-38
0.081729583 0.043658167 0.17200001 1.5444555e-38
0.08279077 0.043658167 0.17200001 1.4986095e-38
0.08320602 0.043104503 0.17200001 1.4985739e-38
0.08043769 0.044488665 0.17200001 1.5160417e-38
0.081683442 0.044211831 0.17200001 1.5349123e-38
0.079468779 0.045595996 0.17200001 1.6086691e-38
0.080299281 0.045457583 0.17200001 1.6367596e-38
0.07854601 0.046672568 0.17200002 1.4700519e-38
0.079310589 0.046505589 0.17200002 1.5994139e-38
0.080160864 0.04614966 0.17200001 1.609209e-38
0.077807784 0.047533825 0.17200001 1.4057668e-38
0.078453727 0.047672242 0.17200001 1.442573e-38
0.079191945 0.047533825 0.17200001 1.5716833e-38
0.075593121 0.04947165 0.17200001 1.3414101e-38
0.076423623 0.04947165 0.17200001 1.3412663e-38
0.075474478 0.050381243 0.17200002 1.3604236e-38
0.076502718 0.050440561 0.17200002 1.3783238e-38
0.078361452 0.050717399 0.17200001 1.3597053e-38
0.081601463 0.039456919 0.17300001 1.3148675e-38
0.081601463 0.040013805 0.17300001 1.406595e-38
0.076311067 0.042798225 0.17300001 1.4431129e-38
0.077424832 0.042519782 0.17300001 1.4891389e-38
0.076450288 0.043424718 0.17300001 1.4889589e-38
0.077424832 0.043553997 0.17299999 1.4794515e-38
0.081044577 0.043911994 0.17300001 1.5069659e-38
0.082668819 0.043355107 0.17299999 1.5261605e-38
0.076589502 0.044468876 0.17300001 1.4612278e-38
0.077424832 0.044329654 0.17299999 1.4702313e-38
0.081044577 0.044190433 0.17300001 1.5161136e-38
0.082715228 0.044190433 0.17300001 1.5169047e-38
0.077564053 0.045339011 0.17299999 1.4700155e-38
0.078631409 0.045768272 0.17300002 1.4790911e-38
0.079559557 0.045768272 0.17300002 1.5252971e-38
0.080209255 0.045304202 0.17300001 1.5161136e-38
0.077870339 0.046640724 0.17300001 1.4700878e-38
0.078631409 0.046510786 0.17300002 1.4698718e-38
0.077591896 0.047587428 0.17300001 1.4519005e-38
0.076589502 0.048645508 0.17300001 1.3782159e-38
0.077508368 0.048367064 0.17299999 1.4149142e-38
0.078677818 0.048367064 0.17300001 1.4516485e-38
0.079095483 0.048645508 0.17300001 1.442429e-38
0.075382926 0.049666464 0.17300002 1.3322266e-38
0.076366752 0.049369454 0.17300001 1.3413742e-38
0.077313453 0.049425144 0.17300001 1.3688529e-38
0.079373926 0.049341612 0.17300001 1.4516848e-38
0.074918851 0.050316159 0.17300001 1.3229712e-38
0.075197294 0.050594602 0.17300002 1.3415181e-38
0.077703275 0.050538916 0.17300001 1.4613004e-38
0.075336516 0.051429927 0.17300001 1.3326577e-38
0.077424832 0.05170837 0.17300001 1.3505573e-38
0.077146389 0.052265253 0.17300001 1.3045674e-38
0.081373014 0.040245101 0.17400001 1.415671e-38
0.078572497 0.041925408 0.17400001 1.4892469e-38
0.077312268 0.042765561 0.17400001 1.507578e-38
0.078432471 0.042485509 0.17400001 1.4706278e-38
0.08151304 0.042765561 0.17400001 1.4148782e-38
0.076192059 0.043325666 0.17400001 1.4340378e-38
0.077592321 0.043045614 0.17400001 1.5074701e-38
0.078467481 0.04329066 0.17400001 1.4700882e-38
0.081373014 0.043325666 0.17400001 1.4423572e-38
0.082633249 0.043045614 0.17400001 1.5164731e-38
0.083473399 0.043325666 0.17400001 1.5353442e-38
0.076528117 0.044389863 0.17400001 1.4982507e-38
0.077032216 0.044445872 0.17400001 1.498106e-38
0.078572497 0.044445872 0.17400001 1.4793072e-38
0.080952935 0.044725925 0.17400001 1.4699079e-38
0.077200249 0.045678101 0.17400001 1.4609757e-38
0.07854449 0.045510069 0.17400001 1.4975663e-38
0.079646029 0.045752779 0.17400001 1.4791273e-38
0.080392838 0.045426052 0.17400001 1.4699797e-38
0.07739228 0.046646278 0.17400001 1.4608681e-38
0.078152426 0.046126183 0.17400001 1.4699076e-38
0.075912006 0.04780649 0.17400001 1.5170484e-38
0.076472111 0.047526442 0.17400001 1.4430042e-38
0.077312268 0.047526445 0.17400001 1.4888143e-38
0.078152426 0.047246389 0.17400001 1.5254776e-38
0.075771987 0.048086543 0.17400001 1.4800625e-38
0.076472111 0.048086543 0.17400001 1.4341797e-38
0.077032216 0.048226569 0.17400001 1.4244928e-38
0.0746051 0.049580153 0.17400001 1.3234751e-38
0.075351909 0.049626827 0.17400001 1.3140396e-38
0.076472111 0.049346775 0.17400001 1.3507377e-38
0.078432478 0.04936678 0.17400001 1.4056229e-38
0.078292444 0.050326955 0.17400001 1.4335697e-38
0.078619175 0.051540513 0.17400001 1.3689966e-38
0.078712523 0.052007265 0.17400001 1.3597409e-38
0.079305731 0.040758051 0.17500001 1.3149751e-38
0.081136525 0.040476393 0.17500001 1.3695732e-38
0.083389819 0.040476393 0.17500001 1.4526925e-38
0.078601576 0.041884698 0.17500001 1.5077941e-38
0.079235315 0.041603036 0.17500001 1.4341094e-38
0.078179084 0.042307187 0.17500001 1.5169056e-38
0.079587393 0.042307187 0.17500001 1.4613723e-38
0.076066628 0.043574661 0.17500001 1.3700048e-38
0.077193275 0.043011341 0.17500001 1.443185e-38
0.079446562 0.043292999 0.17500001 1.4515773e-38
0.081699848 0.043574661 0.17500001 1.4146984e-38
0.083389819 0.043293003 0.17500001 1.5533514e-38
0.076066628 0.044278815 0.17500001 1.4250702e-38
0.079540446 0.044654366 0.17500001 1.4516125e-38
0.076911613 0.045827951 0.17500001 1.4703034e-38
0.079305731 0.04554629 0.17500001 1.4975663e-38
0.076911613 0.046109613 0.17500001 1.4794148e-38
0.077193275 0.046672933 0.17500001 1.4885266e-38
0.076489121 0.047377087 0.17500001 1.4242061e-38
0.075503305 0.04850373 0.17500001 1.3783965e-38
0.075784966 0.049771205 0.17500001 1.341698e-38
0.076066628 0.049771205 0.17500001 1.3324785e-38
0.079305731 0.049771205 0.17500001 1.4056586e-38
0.078601576 0.05061619 0.17500001 1.470412e-38
0.079352677 0.05024064 0.17500001 1.4057309e-38
0.0791649 0.05117951 0.17500001 1.3415185e-38
0.078601576 0.052306153 0.17500001 1.3505213e-38
0.081280977 0.040690359 0.17633335 1.3237272e-38
0.083299786 0.040707685 0.17600001 1.3973754e-38
0.084531099 0.040681295 0.17650001 1.4804948e-38
0.085197486 0.040938977 0.177 1.5081891e-38
0.079050727 0.041557498 0.17600001 1.4251061e-38
0.083203323 0.041223858 0.177 1.4616962e-38
0.085482359 0.041223858 0.177 1.4802784e-38
0.086431958 0.04141378 0.177 1.4801703e-38
0.078930125 0.042363379 0.177 1.5077222e-38
0.080183811 0.04212404 0.17600001 1.4705918e-38
0.082166702 0.042690579 0.17600001 1.378252e-38
0.076218024 0.043823663 0.17600001 1.3700048e-38
0.077505723 0.043502897 0.177 1.3791518e-38
0.080183811 0.043257121 0.17600001 1.4700523e-38
0.082348682 0.043645337 0.177 1.3963674e-38
0.076218024 0.044390202 0.17600001 1.434218e-38
0.08092428 0.044784859 0.177 1.4699797e-38
0.081600159 0.044673473 0.17600001 1.4423931e-38
0.080624864 0.045580588 0.17650001 1.4423929e-38
0.081245072 0.045316417 0.17666668 1.4240617e-38
0.08120916 0.046066821 0.177 1.4515766e-38
0.077410765 0.047491219 0.177 1.4425013e-38
0.075475261 0.048530504 0.17625001 1.3234035e-38
0.076575384 0.048491754 0.17650001 1.3971227e-38
0.075368211 0.049772345 0.17600001 1.3694653e-38
0.076481223 0.049486425 0.17650001 1.3784685e-38
0.077351101 0.049205802 0.17600001 1.4154893e-38
0.074801669 0.050338883 0.17600001 1.3051807e-38
0.080808498 0.041743252 0.178 1.3607129e-38
0.082813926 0.041456763 0.178 1.4339657e-38
0.083673395 0.041456763 0.178 1.4432571e-38
0.080808498 0.042316232 0.178 1.4432571e-38
0.087111272 0.042316232 0.178 1.4616591e-38
0.07851658 0.043462191 0.178 1.4341452e-38
0.081596345 0.044464901 0.178 1.4607243e-38
0.082240947 0.044178415 0.178 1.4423932e-38
0.081954457 0.045467615 0.178 1.4148782e-38
0.07593818 0.048046023 0.178 1.2962486e-38
0.07622467 0.048046023 0.178 1.3054681e-38
0.077084132 0.048046023 0.178 1.3874363e-38
0.077943601 0.049478471 0.178 1.461731e-38
0.080665253 0.05162714 0.178 1.3691049e-38
0.081694633 0.041689664 0.17900001 1.3239426e-38
0.086304218 0.041977763 0.17900001 1.4617316e-38
0.07953389 0.042553961 0.17900001 1.4158864e-38
0.086304218 0.042553961 0.17900001 1.4524401e-38
0.087024465 0.042553961 0.17900001 1.4432203e-38
0.079245791 0.043130159 0.17900001 1.4708436e-38
0.081694633 0.043850407 0.17900001 1.4793798e-38
0.082126781 0.043994457 0.17900001 1.4517567e-38
0.081694633 0.044282556 0.17900001 1.4791277e-38
0.082126781 0.044282556 0.17900001 1.4607965e-38
0.082126781 0.045434952 0.17900001 1.442429e-38
0.076940998 0.048315942 0.17900001 1.3695006e-38
0.077805296 0.048027843 0.17900001 1.3875081e-38
0.077517197 0.050332636 0.17900001 1.3692848e-38
0.085192963 0.041922569 0.18000001 1.4340376e-38
0.082875296 0.043950528 0.18000001 1.4610842e-38
0.083165005 0.043950528 0.18000001 1.442645e-38
0.082875296 0.044240236 0.18000001 1.4333176e-38
0.07737083 0.04810302 0.18000001 1.3329466e-38
0.077081122 0.050613824 0.18000001 1.3601741e-38
0.082461759 0.042738106 0.18100001 1.4156344e-38
0.083481371 0.042155471 0.18100001 1.3880478e-38
0.079548582 0.043612063 0.18100001 1.3979139e-38
0.082461759 0.043029424 0.18100001 1.4614804e-38
0.082753077 0.044194698 0.18100001 1.4794877e-38
0.084967844 0.04297423 0.18200001 1.4339657e-38
0.085553698 0.04297423 0.18200001 1.4523688e-38
0.086432479 0.042388376 0.18200001 1.4524767e-38
0.087018333 0.04297423 0.18200001 1.4248533e-38
0.083444618 0.043735843 0.18200001 1.4705918e-38
0.086432479 0.043560088 0.182 1.4890664e-38
0.078230508 0.047953997 0.18200001 1.3973751e-38
0.078230508 0.048686318 0.18200001 1.3696804e-38
0.083962016 0.043357618 0.18300001 1.4339297e-38
0.084551089 0.043210346 0.18300001 1.4339657e-38
0.086760119 0.04321035 0.18300001 1.4523686e-38
0.087300099 0.043701246 0.18300001 1.4615158e-38
0.088380069 0.043799426 0.18300001 1.4615876e-38
0.087349191 0.044388499 0.18300001 1.5166531e-38
0.088321164 0.044329591 0.18300001 1.5816579e-38
0.085393012 0.043861486 0.18450001 1.4339654e-38
0.086789995 0.043742623 0.18400002 1.4707716e-38
0.085475147 0.044278108 0.185 1.4615519e-38
0.079386331 0.048480965 0.18400002 1.397411e-38
0.045769345 -0.009508824 0.20400001 1.4014818e-38
0.045824066 -0.0089615975 0.20400001 1.3553839e-38
0.046644904 -0.0089615975 0.20400001 1.410701e-38
0.028782472 0.038417056 0.20900001 1.3277255e-38
0.029623432 0.038417056 0.20900001 1.3645678e-38
0.03056531 0.038383417 0.20900002 1.3368731e-38
0.04586824 -0.0096087065 0.21100001 1.3553839e-38
0.044340029 0.012465472 0.21100001 1.3185779e-38
0.042472214 0.01365408 0.21100001 1.3462728e-38
0.043660827 0.013654081 0.21100001 1.419921e-38
0.044340029 0.013654081 0.21100001 1.3738592e-38
0.041283604 0.014503089 0.21100001 1.3001389e-38
0.042472214 0.014503088 0.21100001 1.3738231e-38
0.040604398 0.015521896 0.21100001 1.3645316e-38
0.041283604 0.015521896 0.21100001 1.3644956e-38
0.01776501 0.0067239413 0.21200001 1.4935698e-38
0.018106222 0.015595459 0.21200001 1.3369451e-38
0.0078698536 0.019690007 0.21200001 1.3277255e-38
0.0075286417 0.020201825 0.21200001 1.3092864e-38
0.049559817 -0.0055859233 0.21300001 1.3370527e-38
0.050245464 -0.0055859233 0.21300001 1.3001383e-38
0.05427362 -0.0045574582 0.21300001 1.2999941e-38
0.016591793 0.0065271109 0.21300001 1.4935698e-38
0.017163163 0.006755658 0.21300001 1.4751306e-38
0.017334573 0.0076127122 0.21300001 1.4843501e-38
0.017505985 0.0081269452 0.21300001 1.4843499e-38
0.025219474 0.011897984 0.21300001 1.3738233e-38
0.025390886 0.012240806 0.21300001 1.3922625e-38
0.026419347 0.012681576 0.21300003 1.3647118e-38
0.027104994 0.012583627 0.21300001 1.3922626e-38
0.025390886 0.013954915 0.21300001 1.3001391e-38
0.026419349 0.013783503 0.21300001 1.3185783e-38
0.027447816 0.013783503 0.21300001 1.3554207e-38
0.028133459 0.013954915 0.21300001 1.3646761e-38
0.017677397 0.01498338 0.21300001 1.3553842e-38
0.01853445 0.01498338 0.21300001 1.318506e-38
0.024362421 0.01498338 0.21300001 1.3184704e-38
0.025219474 0.014640559 0.21300001 1.3092868e-38
0.016820341 0.015669024 0.21300001 1.3646038e-38
0.017437419 0.015463332 0.21300001 1.3646038e-38
0.01870586 0.015497613 0.21300001 1.3093583e-38
0.019220095 0.015497613 0.21300001 1.3093943e-38
0.016820341 0.016011845 0.21300001 1.3646038e-38
0.017505985 0.016354667 0.21300001 1.3461647e-38
0.018648723 0.016240394 0.21300001 1.3277258e-38
0.019220095 0.016011845 0.21300001 1.3185783e-38
0.0082497969 0.019782884 0.21300001 1.3277255e-38
0.0079069752 0.020468527 0.21300001 1.318506e-38
0.0082497969 0.020297118 0.21300001 1.318506e-38
0.0077927015 0.021268444 0.21300001 1.3092864e-38
0.0082497969 0.021496993 0.21300001 1.3092864e-38
0.019562917 0.024753798 0.21300001 1.3000671e-38
0.01870586 0.025610853 0.21300001 1.3369092e-38
0.019562917 0.025610853 0.21300001 1.31847e-38
0.02024856 0.025268031 0.21300001 1.3092864e-38
0.045353618 -0.010482943 0.215 1.3553841e-38
0.046161052 -0.010367596 0.21499999 1.3830426e-38
0.046204198 -0.0093153678 0.21466666 1.3277253e-38
0.047209259 -0.009056461 0.21400002 1.3277253e-38
0.046520397 -0.007334305 0.21400002 1.3092861e-38
0.046520397 -0.0064732265 0.21400002 1.3093223e-38
0.046520397 -0.0059565795 0.21400002 1.3001747e-38
0.038598478 -0.0021678365 0.21400002 1.337053e-38
0.039459556 -0.0021678365 0.21400002 1.3554921e-38
0.03566448 -0.0011398444 0.215 1.355276e-38
0.036574945 -0.0014359201 0.214 1.3369451e-38
0.037702955 -0.001478974 0.21400002 1.3092864e-38
0.039631769 -0.001478974 0.214 1.3185781e-38
0.040665064 -0.0014789741 0.21400003 1.3278333e-38
0.041310877 -0.0014359201 0.214 1.3370527e-38
0.034972396 -0.00010172232 0.215 1.3460205e-38
0.035408519 -0.00027410375 0.21450001 1.3552759e-38
0.036463004 -0.00023902168 0.21400002 1.3646035e-38
0.037565183 -0.0002734648 0.21400002 1.3093582e-38
0.038598478 -0.0002734648 0.21400002 1.300103e-38
0.042387221 -0.0002734648 0.21400002 1.3461644e-38
0.019573584 0.00093639974 0.215 1.5487427e-38
0.020092646 0.00093639974 0.215 1.521084e-38
0.034972396 0.00059035909 0.215 1.3183618e-38
0.03532638 0.00058761321 0.21400002 1.3183978e-38
0.036531892 0.00058761321 0.214 1.3460925e-38
0.037737399 0.00058761321 0.21400002 1.3185057e-38
0.038426265 0.00058761321 0.21400002 1.3092864e-38
0.019608188 0.0015592731 0.215 1.5764375e-38
0.020092646 0.0014554609 0.215 1.5764734e-38
0.035360824 0.0015520204 0.21400002 1.2999587e-38
0.036531892 0.0016209066 0.214 1.3737152e-38
0.037737399 0.0016209068 0.214 1.3737152e-38
0.038426265 0.0016209068 0.214 1.3645316e-38
0.039631773 0.0016209068 0.214 1.3461644e-38
0.036531892 0.0028264159 0.214 1.3829347e-38
0.037737399 0.0028264159 0.21400002 1.3644957e-38
0.038426265 0.0028264159 0.21400002 1.3460566e-38
0.039631773 0.0028264162 0.214 1.3000667e-38
0.03566448 0.0033586849 0.215 1.3460568e-38
0.036529813 0.0033534777 0.21466668 1.3644957e-38
0.037737399 0.0033430629 0.21400002 1.3460565e-38
0.038426265 0.0033430629 0.21400002 1.3092861e-38
0.039631773 0.0033430632 0.21400003 1.3000668e-38
0.040665064 0.0033430629 0.21400002 1.3369451e-38
0.04135393 0.0033430632 0.21400003 1.3092864e-38
0.036573011 0.004132566 0.21475002 1.3737153e-38
0.037543897 0.0044274819 0.214375 1.3830066e-38
0.038426261 0.004376357 0.214 1.3184697e-38
0.036600776 0.0054785367 0.21400002 1.4567272e-38
0.037737399 0.0054096505 0.21400002 1.3368372e-38
0.038426265 0.00540965 0.21400002 1.3092864e-38
0.035408519 0.0062853796 0.21450001 1.3460568e-38
0.036531892 0.0062707285 0.214 1.438216e-38
0.037737399 0.0062707281 0.21400002 1.2999589e-38
0.015594116 0.0071651321 0.215 1.4658751e-38
0.016378522 0.0075594196 0.21440001 1.4566914e-38
0.017932605 0.0076484531 0.21400002 1.5027893e-38
0.033934273 0.0078572137 0.215 1.3553839e-38
0.034626357 0.0075111738 0.21500002 1.3185057e-38
0.03532638 0.0074762371 0.214 1.3092861e-38
0.036488835 0.0074331835 0.214 1.318506e-38
0.016721798 0.0086519243 0.21466668 1.4474717e-38
0.017415958 0.0085095307 0.21400002 1.4751305e-38
0.034809735 0.0081650997 0.21400002 1.3185057e-38
0.03532638 0.0085095307 0.21400002 1.3092861e-38
0.036302269 0.008394721 0.21400003 1.3092864e-38
0.017324321 0.0092413761 0.215 1.4474719e-38
0.019573584 0.0099334577 0.215 1.4659111e-38
0.020265667 0.0099334577 0.215 1.4474719e-38
0.021130769 0.0097604375 0.215 1.4290328e-38
0.022687953 0.0099334577 0.215 1.4566915e-38
0.03532638 0.0093706092 0.21400002 1.3185418e-38
0.018593134 0.010856234 0.21499999 1.4382524e-38
0.019573584 0.01079856 0.215 1.4013741e-38
0.020406462 0.010839223 0.21466668 1.4290328e-38
0.021427264 0.010773044 0.21450001 1.4382524e-38
0.022563519 0.010822957 0.21480003 1.4474719e-38
0.023322359 0.010856234 0.21499999 1.4198133e-38
0.018535461 0.01131762 0.215 1.4382524e-38
0.019528065 0.011635732 0.21450001 1.4290688e-38
0.020515841 0.011609412 0.21400002 1.4475798e-38
0.021204703 0.011609412 0.21400002 1.4291407e-38
0.022410212 0.011609412 0.214 1.401446e-38
0.023615722 0.011609412 0.21400002 1.3922265e-38
0.024304584 0.011953843 0.21400002 1.3553842e-38
0.025854524 0.011953843 0.21400002 1.3922625e-38
0.026428575 0.011724222 0.21400003 1.4106656e-38
0.015248076 0.012701783 0.215 1.3921546e-38
0.017932605 0.012987137 0.21400002 1.3921546e-38
0.01853521 0.012585331 0.21450001 1.4105937e-38
0.019482544 0.012642705 0.214 1.4290688e-38
0.020515841 0.012642705 0.214 1.4107016e-38
0.021204703 0.012642705 0.214 1.401482e-38
0.02241021 0.012642706 0.214 1.3738233e-38
0.023615723 0.012642704 0.214 1.3553842e-38
0.024304584 0.012642704 0.214 1.3369811e-38
0.025395282 0.012642704 0.214 1.3646757e-38
0.026887815 0.012298274 0.21400002 1.4107016e-38
0.014902035 0.013393865 0.215 1.382935e-38
0.015421096 0.013393864 0.215 1.382935e-38
0.016718749 0.013566885 0.215 1.4013741e-38
0.017615033 0.013466608 0.21433334 1.3644959e-38
0.018621467 0.013676 0.21400002 1.3644959e-38
0.019482546 0.013676 0.21400002 1.3921546e-38
0.020515841 0.013676 0.21400002 1.3646038e-38
0.021204703 0.013676 0.21400002 1.3553842e-38
0.022410212 0.013676 0.21400003 1.3276899e-38
0.023615722 0.013676 0.21400002 1.3369095e-38
0.024304584 0.013676 0.21400002 1.3185423e-38
0.025337875 0.013676 0.21400002 1.3001391e-38
0.013748567 0.014316641 0.21499999 1.382935e-38
0.014729014 0.014258968 0.215 1.3737154e-38
0.015421096 0.014258967 0.215 1.3460568e-38
0.016439877 0.014242185 0.21475002 1.4013741e-38
0.017588174 0.014192647 0.214 1.382935e-38
0.018621467 0.014192646 0.21400002 1.3921546e-38
0.019482546 0.014192646 0.21400002 1.3460568e-38
0.020515841 0.014192646 0.21400002 1.3553482e-38
0.021204701 0.014192646 0.21400002 1.3092508e-38
0.022410208 0.014192645 0.214 1.3184704e-38
0.023615722 0.014192646 0.21400002 1.3369095e-38
0.024304584 0.014192646 0.21400002 1.3276899e-38
0.02516566 0.014020431 0.21400002 1.3001391e-38
0.01247975 0.015643131 0.215 1.382935e-38
0.013517871 0.015470111 0.21500002 1.3552404e-38
0.014729013 0.01547011 0.21500002 1.3552766e-38
0.015421096 0.01547011 0.21500002 1.3552763e-38
0.016363371 0.015343338 0.21420002 1.382935e-38
0.017243741 0.015053725 0.21400002 1.3738233e-38
0.018965898 0.015053725 0.21400002 1.3000668e-38
0.019568652 0.015312048 0.21400002 1.3093224e-38
0.020515841 0.015398156 0.214 1.3001387e-38
0.023558317 0.015168536 0.21400003 1.3092868e-38
0.013517871 0.016508231 0.21500002 1.3277255e-38
0.014729015 0.016508231 0.215 1.3553842e-38
0.015557047 0.01646984 0.21450001 1.3553483e-38
0.01632526 0.016546259 0.21400003 1.3553482e-38
0.018965898 0.01677588 0.21400002 1.3184704e-38
0.01953995 0.016546259 0.21400003 1.3092867e-38
0.01247975 0.017373335 0.215 1.318506e-38
0.013517871 0.017373335 0.21500002 1.318506e-38
0.014729015 0.017373335 0.215 1.3553842e-38
0.015489072 0.017353334 0.21475002 1.3461647e-38
0.0164016 0.017312929 0.21425 1.3369451e-38
0.017588174 0.017292526 0.214 1.3553842e-38
0.018621467 0.017292526 0.21400002 1.3185061e-38
0.012393239 0.018497964 0.215 1.3000668e-38
0.013517871 0.018584477 0.21500002 1.318506e-38
0.014729016 0.018584475 0.21500002 1.3277257e-38
0.015421096 0.018584475 0.21500002 1.3185061e-38
0.016632238 0.018584477 0.21500002 1.300067e-38
0.0086531304 0.019576158 0.21450001 1.3368732e-38
0.0090193413 0.019622598 0.215 1.3368732e-38
0.013517871 0.019622598 0.21500002 1.300031e-38
0.014729014 0.019622598 0.215 1.3092507e-38
0.015421096 0.019622598 0.215 1.3092507e-38
0.0086329598 0.020392407 0.21400002 1.3092864e-38
0.0091346884 0.020545373 0.21499999 1.3092864e-38
0.01247975 0.020660721 0.215 1.3000668e-38
0.0069108037 0.021253485 0.21400002 1.3369451e-38
0.0072891377 0.021698842 0.215 1.3277255e-38
0.0085315965 0.021401936 0.21433334 1.3092864e-38
0.0076351785 0.022044882 0.215 1.318506e-38
0.0085002799 0.022044882 0.215 1.3092864e-38
0.0074621579 0.023775086 0.215 1.3092508e-38
0.0085002799 0.023602065 0.215 1.3000671e-38
0.044521615 -0.010184051 0.21600001 1.3277253e-38
0.045216918 -0.010531701 0.21600001 1.3461645e-38
0.044521615 -0.0098364009 0.21600001 1.3277253e-38
0.045912217 -0.0084458003 0.21600001 1.3092861e-38
0.046781342 -0.0084458003 0.21600001 1.3092861e-38
0.047302816 -0.0084458003 0.21600001 1.3092861e-38
0.046607517 -0.0074028498 0.21600001 1.3092861e-38
0.045912217 -0.0060122488 0.21600001 1.3000666e-38
0.046607513 -0.006359899 0.21600001 1.3001026e-38
0.020765515 0.0055760909 0.21600001 1.502789e-38
0.021750525 0.0058078575 0.21600001 1.4750581e-38
0.02261965 0.0058078575 0.21600001 1.5304114e-38
0.020707574 0.0063293325 0.21600001 1.4658748e-38
0.021750525 0.0061555076 0.21600001 1.3090698e-38
0.02261965 0.0063293329 0.21600001 1.3920821e-38
0.023430834 0.0063872742 0.21600001 1.4013378e-38
0.033280924 0.0063872742 0.21600001 1.3369448e-38
0.034207996 0.0062713907 0.21600001 1.3276534e-38
0.015666645 0.0075461087 0.21600001 1.4566915e-38
0.0208814 0.0078937588 0.21600001 1.4198133e-38
0.021750525 0.0077199335 0.21600001 1.4843139e-38
0.02261965 0.0075461082 0.21600001 1.4751664e-38
0.023430834 0.0073143416 0.21600001 1.4752022e-38
0.033396807 0.0073722834 0.21600001 1.3185057e-38
0.03409211 0.0073722834 0.21600001 1.3369451e-38
0.016014297 0.0085890591 0.21600001 1.4566912e-38
0.020603279 0.0086585898 0.21600001 1.4751306e-38
0.021692583 0.0084731756 0.21600001 1.5120088e-38
0.017752547 0.0094581842 0.21600001 1.4659109e-38
0.018563731 0.0095161265 0.21600001 1.4843502e-38
0.019490797 0.0094581842 0.21600001 1.4659111e-38
0.020464217 0.0094234198 0.21600001 1.4474719e-38
0.013754569 0.01067496 0.21600001 1.4843139e-38
0.014276045 0.01067496 0.21600001 1.4658748e-38
0.017636662 0.010559077 0.21600001 1.4474718e-38
0.018563731 0.010443193 0.21600001 1.4659111e-38
0.012885445 0.011196435 0.21600001 1.4751306e-38
0.013754569 0.011196435 0.21600001 1.4658751e-38
0.014276045 0.011196435 0.21600001 1.4566555e-38
0.017578721 0.011196435 0.21600001 1.4382524e-38
0.012798532 0.012500124 0.21600001 1.4105936e-38
0.013754569 0.012413211 0.21600001 1.4290328e-38
0.014449869 0.012413211 0.21600001 1.4013741e-38
0.015318995 0.012413211 0.21600001 1.4013741e-38
0.017404897 0.012760862 0.21600001 1.4105937e-38
0.011494844 0.013803813 0.21600001 1.3921546e-38
0.012537793 0.013456162 0.21600001 1.401374e-38
0.013754569 0.013456162 0.21600001 1.4013741e-38
0.014276045 0.013456162 0.21600001 1.4013741e-38
0.011378962 0.014383229 0.21600001 1.3737152e-38
0.012537795 0.014325287 0.21600001 1.3921544e-38
0.013580744 0.014151463 0.21600001 1.3921546e-38
0.0094958553 0.015802801 0.21600001 1.382935e-38
0.010625717 0.015542065 0.21600001 1.3921544e-38
0.011355785 0.015611595 0.21600001 1.3737154e-38
0.012277056 0.015455151 0.21600001 1.382935e-38
0.0087136421 0.016585015 0.21600001 1.382935e-38
0.0094089424 0.016585013 0.21600001 1.3645318e-38
0.010625718 0.016585015 0.21600001 1.3461647e-38
0.011321019 0.016585015 0.21600001 1.3461647e-38
0.012363969 0.016585015 0.21600001 1.3553123e-38
0.008481876 0.017396199 0.21600001 1.3737154e-38
0.0094089424 0.01745414 0.21600001 1.3460928e-38
0.010625718 0.01745414 0.21600001 1.3277255e-38
0.011321019 0.01745414 0.21600001 1.3277255e-38
0.012190145 0.01745414 0.21600001 1.318506e-38
0.0094089424 0.018497091 0.21600001 1.3552763e-38
0.010625718 0.018497091 0.21600001 1.3368732e-38
0.011321019 0.018497091 0.21600001 1.318506e-38
0.012190145 0.018670915 0.21600001 1.3092864e-38
0.0095827682 0.01919239 0.21600001 1.3368372e-38
0.010625718 0.01919239 0.21600001 1.3276176e-38
0.011321019 0.01919239 0.21600001 1.31847e-38
0.012306027 0.019250333 0.21600001 1.3092864e-38
0.0096175326 0.020339636 0.21600001 1.318506e-38
0.010625717 0.020409167 0.21600001 1.3000668e-38
0.012329204 0.020339636 0.21600001 1.3000668e-38
0.0064539155 0.021625943 0.21600001 1.3277255e-38
0.0074389246 0.022379184 0.21600001 1.318506e-38
0.0083659925 0.022495067 0.21600001 1.3000668e-38
0.0065408279 0.023624931 0.21600001 1.3092507e-38
0.0074968664 0.023364192 0.21600001 1.3184704e-38
0.043679956 -0.0102312 0.21700001 1.3646035e-38
0.044494897 -0.01069688 0.21700001 1.336945e-38
0.043505326 -0.0097073093 0.21700001 1.3830066e-38
0.044553109 -0.0095326798 0.21700001 1.3553839e-38
0.045076992 -0.0091834208 0.21700001 1.3277253e-38
0.045775514 -0.0084849009 0.21700001 1.3092861e-38
0.043563534 -0.007553542 0.21700001 1.4198849e-38
0.044553109 -0.0076117516 0.21700001 1.3277253e-38
0.04530983 -0.0075535416 0.21700001 1.3185057e-38
0.046124775 -0.0074371221 0.21700001 1.3185057e-38
0.043679956 -0.0067386026 0.21700001 1.3829347e-38
0.044553109 -0.0065639727 0.21700001 1.3000666e-38
0.045426253 -0.0063893427 0.21700001 1.3092503e-38
0.046124775 -0.0065639727 0.21700001 1.3092863e-38
0.017834736 0.0046123369 0.21700001 1.5304117e-38
0.018183995 0.0047869668 0.21700001 1.5396313e-38
0.017834736 0.0051362263 0.21700001 1.5304117e-38
0.021327332 0.0065332651 0.21700001 1.4658748e-38
0.022025852 0.0065332651 0.21700001 1.4474717e-38
0.015739176 0.0079303039 0.21700001 1.4566912e-38
0.020861654 0.0075810445 0.21700001 1.4013381e-38
0.021327332 0.0072317845 0.21700001 1.419777e-38
0.022025852 0.0072317845 0.21700001 1.4843499e-38
0.018882515 0.0086288229 0.21700001 1.5120089e-38
0.019348195 0.0087452428 0.21700001 1.4935696e-38
0.020279553 0.0082795639 0.21700001 1.419813e-38
0.018882515 0.0093273427 0.21700001 1.4751306e-38
0.015040657 0.011248271 0.21700001 1.4289968e-38
0.015389917 0.01212142 0.21700001 1.4013741e-38
0.010151022 0.014566239 0.21700001 1.4013739e-38
0.011198801 0.014216979 0.21700001 1.3829347e-38
0.0085793529 0.015788648 0.21700001 1.382935e-38
0.0096271317 0.015439387 0.21700001 1.3829349e-38
0.011198801 0.015264758 0.21700001 1.3921546e-38
0.0080554634 0.017011056 0.21700001 1.3921546e-38
0.0087539833 0.019106615 0.21700001 1.3552763e-38
0.0054360158 0.021726061 0.21700001 1.3369451e-38
0.0063091647 0.021900691 0.21700001 1.3277255e-38
0.0054360153 0.022424582 0.21700001 1.3277255e-38
0.0064837942 0.022424582 0.21700001 1.3277255e-38
0.0054360158 0.02364699 0.21700001 1.3092864e-38
0.0063091647 0.023472361 0.21700001 1.3092865e-38
0.0054360153 0.024694769 0.21700001 1.3000668e-38
0.0054360153 0.02504403 0.21700001 1.3000668e-38
0.00037174931 0.039189048 0.21700001 1.3183978e-38
0.042302333 -0.012383563 0.21800001 1.3644956e-38
0.041776031 -0.01150639 0.21800001 1.4105934e-38
0.042302333 -0.01150639 0.21800001 1.3644956e-38
0.043442659 -0.011418672 0.21800001 1.3276175e-38
0.044232115 -0.011330956 0.21800001 1.3276176e-38
0.041776031 -0.010980086 0.21800001 1.4013739e-38
0.042302333 -0.010980086 0.21800001 1.3737152e-38
0.043460201 -0.01069939 0.21800001 1.3644956e-38
0.043881245 -0.0092257401 0.21800001 1.3738231e-38
0.044232115 -0.0092257401 0.21800001 1.3738231e-38
0.044933852 -0.0083485674 0.21800001 1.3553839e-38
0.045284722 -0.0083485674 0.21800001 1.3277253e-38
0.045635592 -0.007822264 0.21800001 1.3277253e-38
0.048793413 -0.007822264 0.21800001 1.3092861e-38
0.016630402 0.0045751133 0.21800001 1.5396313e-38
0.017215185 0.0044581573 0.21800001 1.5304117e-38
0.016747357 0.0053938087 0.21800001 1.5304119e-38
0.017215185 0.0055107651 0.21800001 1.5120088e-38
0.015109969 0.0076159798 0.21800001 1.4843499e-38
0.015460839 0.0083177183 0.21800001 1.4751304e-38
0.018267792 0.0083177183 0.21800001 1.5120086e-38
0.019671269 0.0083177183 0.21800001 1.5212282e-38
0.015460839 0.0090194568 0.21800001 1.4751304e-38
0.018267792 0.0090194568 0.21800001 1.4935698e-38
0.0046540671 0.02242266 0.21800001 1.3277255e-38
0.0045838933 0.023580529 0.21800001 1.3368732e-38
0.002829547 0.024457701 0.21800001 1.3460568e-38
0.0037067202 0.024457701 0.21800001 1.3368372e-38
0.0045838933 0.024457701 0.21800001 1.3368731e-38
0.002829547 0.025510309 0.21800001 1.3184701e-38
0.0035312856 0.025334874 0.21800001 1.3184341e-38
0.0049347626 0.025159439 0.21800001 1.3368372e-38
-0.0020826221 0.03743986 0.21800001 1.3091782e-38
-0.0010300145 0.038317032 0.21800001 1.3000305e-38
-0.00044523241 0.039311159 0.21800001 1.3183981e-38
0.041262705 -0.011382932 0.21900001 1.4566912e-38
0.044435013 -0.0085631032 0.21900001 1.3738231e-38
0.045844927 -0.0082106246 0.21900001 1.3277253e-38
0.046197407 -0.0082106246 0.21900001 1.3092861e-38
0.046549886 -0.007858146 0.21900001 1.3092861e-38
0.047607321 -0.007858146 0.21900003 1.3092861e-38
0.015179281 0.0081796329 0.21900001 1.4843499e-38
0.019761505 0.0080033941 0.21900001 1.5488869e-38
0.002372555 0.024687385 0.21900003 1.3552763e-38
0.0023138085 0.02562733 0.219 1.3369091e-38
0.046762444 -0.0082481159 0.22000001 1.3185057e-38
0.047116533 -0.0082481159 0.22000001 1.3185057e-38
0.0016161974 0.024327995 0.22000001 1.3552763e-38
0.0003768887 0.02539026 0.22000001 1.3921546e-38
0.0012621093 0.025390262 0.22000001 1.3460568e-38
0.047686394 -0.0082856072 0.22100002 1.3092861e-38
0.028250275 -0.007251177 0.22200002 1.539631e-38
0.031466041 -0.007965791 0.22200002 1.2999229e-38
0.027714316 -0.0065365629 0.22200002 1.539631e-38
0.028428927 -0.0065365625 0.22200002 1.539631e-38
0.029322198 -0.0065365629 0.22200002 1.5304114e-38
0.018960288 0.0077557229 0.22200002 1.530412e-38
0.018960288 0.0081130303 0.22200002 1.530448e-38
