# .PCD v0.7 - Point Cloud Data file format
VERSION 0.7
FIELDS x y z rgb
SIZE 4 4 4 4
TYPE F F F F
COUNT 1 1 1 1
WIDTH 702
HEIGHT 1
VIEWPOINT 0 0 0 1 0 0 0
POINTS 702
DATA ascii
0.027415743 0.050242942 0.15200001 1.2988717e-38
0.027103603 0.049916811 0.15300001 1.6491052e-38
0.027411418 0.050224628 0.15300001 1.5659851e-38
0.029643694 0.050644495 0.156 1.3265299e-38
0.030853538 0.049827058 0.15900001 1.6583967e-38
0.029872552 0.050765395 0.15900001 1.6582532e-38
0.030597627 0.050594788 0.15900002 1.5291798e-38
0.029829901 0.051106606 0.15900001 1.6213748e-38
0.030597627 0.051106606 0.15900001 1.3264227e-38
0.031176344 0.050655477 0.16000001 1.5292156e-38
0.03156605 0.050506458 0.162 1.6859835e-38
0.031885039 0.051707327 0.16500001 1.6583612e-38
0.032504693 0.051530283 0.16500001 1.6491051e-38
0.032345459 0.050952002 0.16600001 1.4650402e-38
0.032345459 0.051352765 0.16600001 1.6124079e-38
0.032809094 0.05125894 0.16700001 1.5572358e-38
0.033212274 0.051527727 0.16700001 1.6859835e-38
0.033630714 0.051520184 0.16933334 1.4375985e-38
0.034323081 0.051616676 0.16950001 1.6491059e-38
0.034833446 0.051661033 0.171 1.6583976e-38
0.035246279 0.051523421 0.171 1.6952393e-38
0.034971058 0.052211478 0.171 1.6951311e-38
0.035729233 0.051686313 0.17200001 1.7044582e-38
0.0369756 0.053202834 0.178 1.6676522e-38
0.037262086 0.053202834 0.178 1.6860914e-38
0.037471425 0.052637428 0.17900001 1.4744762e-38
0.038047623 0.052637428 0.17900001 1.6586497e-38
0.036751177 0.053357676 0.17900001 1.5205385e-38
0.037567455 0.05330966 0.17900001 1.6860916e-38
0.038047623 0.05321363 0.17900001 1.7045305e-38
0.037970472 0.052641783 0.18000001 1.5112825e-38
0.039399557 0.053688258 0.1848 1.4377433e-38
0.040134251 0.053797778 0.186 1.5391216e-38
0.040350027 0.053786043 0.18700001 1.4192677e-38
0.041608959 0.054343116 0.19000001 1.5114276e-38
0.03430425 -0.0090141408 0.21300001 1.424063e-38
0.034972396 -0.0090987803 0.215 1.4147355e-38
0.034626357 -0.0082336785 0.215 1.3687456e-38
0.046391744 0.063915804 0.21499999 1.6399935e-38
0.045180596 0.064607888 0.215 1.7044582e-38
0.04639174 0.064434871 0.21500002 1.5294674e-38
0.044661537 0.065646008 0.21499999 1.5937878e-38
0.0451806 0.065646008 0.21500002 1.4832621e-38
0.044661537 0.066338092 0.215 1.3082004e-38
0.034613583 -0.0094887512 0.21600001 1.4423942e-38
0.035598595 -0.0093728676 0.21600001 1.4792362e-38
0.03583036 -0.0082719754 0.21600001 1.3595622e-38
0.034787409 -0.0075766752 0.21600001 1.3319397e-38
0.035135061 -0.0077505 0.21600001 1.3135005e-38
0.046781342 0.063517787 0.21600001 1.6861632e-38
0.047476642 0.063517787 0.21600001 1.612299e-38
0.048345767 0.063517787 0.21600001 1.4372014e-38
0.044173967 0.064908393 0.21600001 1.6676169e-38
0.045216918 0.06421309 0.21600001 1.6676891e-38
0.044173967 0.065603688 0.21600001 1.7043507e-38
0.044173967 0.066472813 0.21600001 1.6121552e-38
0.035530563 -0.011511819 0.21700001 1.5528132e-38
0.036520131 -0.011453608 0.21700001 1.5619604e-38
0.037044019 -0.011628238 0.21700001 1.5989107e-38
0.0363455 -0.010929719 0.21700001 1.5711438e-38
0.036555059 -0.0094628278 0.21700001 1.5069665e-38
0.0363455 -0.0083102714 0.21700001 1.3687818e-38
0.035472352 -0.0076117516 0.21700001 1.304317e-38
0.0363455 -0.0077863815 0.21700001 1.322792e-38
0.034948461 -0.0067386026 0.21700001 1.3044249e-38
0.046648663 0.063462593 0.21700001 1.6677608e-38
0.047696441 0.063462593 0.21700001 1.6676882e-38
0.048686009 0.063579015 0.21700001 1.4648228e-38
0.044727735 0.064859636 0.21700001 1.6125529e-38
0.043679956 0.06555815 0.21700001 1.5386526e-38
0.043679956 0.066605933 0.21700001 1.6766921e-38
0.043505326 0.067653708 0.21700001 1.5845684e-38
0.041584399 0.06835223 0.21700001 1.6675446e-38
0.042806804 0.068177596 0.21700001 1.5476903e-38
0.043330695 0.068177596 0.21700001 1.4463113e-38
0.041235138 0.069400012 0.21700001 1.5844967e-38
0.04053662 0.070447788 0.21700001 1.400322e-38
0.039488837 0.07149557 0.21700001 1.3267101e-38
0.036520131 0.073940381 0.21700001 1.3356776e-38
0.035530563 0.074522488 0.21700001 1.3539364e-38
0.043764289 -0.019167034 0.21800001 1.6916454e-38
0.044232115 -0.019225512 0.21800001 1.5162579e-38
0.043881245 -0.018699206 0.21800001 1.5715757e-38
0.044232115 -0.018699206 0.21800001 1.543917e-38
0.035226475 -0.011447911 0.21800001 1.5252624e-38
0.037448645 -0.011447911 0.21800001 1.5896551e-38
0.035811253 -0.010629217 0.21800001 1.5066792e-38
0.036629949 -0.01051226 0.21800001 1.5252975e-38
0.03721473 -0.010629217 0.21800001 1.5252257e-38
0.034407776 -0.0099274786 0.21800001 1.4515419e-38
0.035460383 -0.0099274786 0.21800001 1.4792003e-38
0.036162123 -0.0099274786 0.21800001 1.5254053e-38
0.063880794 0.04972028 0.21800001 1.5485152e-38
0.064626396 0.049413268 0.21800002 1.3550517e-38
0.062711231 0.050655931 0.21800001 1.5855012e-38
0.063529924 0.050597452 0.21800001 1.3273913e-38
0.061600145 0.051474623 0.21800001 1.6039038e-38
0.062652752 0.051474623 0.21800001 1.3918925e-38
0.059670363 0.052878104 0.21800001 1.5301479e-38
0.060442276 0.052597411 0.21800001 1.5577698e-38
0.061424706 0.052527234 0.21800002 1.4563914e-38
0.058617756 0.053930715 0.21800001 1.5482273e-38
0.059494928 0.053755276 0.21800001 1.539259e-38
0.060372099 0.053755276 0.21800001 1.3641973e-38
0.056337107 0.054983322 0.21800001 1.3639848e-38
0.057740584 0.054983322 0.21800001 1.5847828e-38
0.058442317 0.054632451 0.21800001 1.6032574e-38
0.059494928 0.054632451 0.21800001 1.4283382e-38
0.055459931 0.055509619 0.21800001 1.317996e-38
0.056512538 0.055509616 0.21800001 1.4467074e-38
0.057740584 0.055509619 0.21800001 1.6213741e-38
0.058442317 0.055509623 0.21800001 1.5199957e-38
0.05458276 0.056386799 0.21800001 1.317961e-38
0.055459931 0.056386799 0.21800001 1.4006103e-38
0.056512538 0.056386799 0.21800001 1.4373441e-38
0.057740584 0.056386799 0.21800001 1.3172752e-38
0.05458276 0.05726397 0.21800001 1.3821707e-38
0.052652974 0.058492016 0.21800001 1.317924e-38
0.053354722 0.058492012 0.21800002 1.3821709e-38
0.051600367 0.059544619 0.21800001 1.4192658e-38
0.049670588 0.06059723 0.21800001 1.4562536e-38
0.050372321 0.06059723 0.21800001 1.6495018e-38
0.051600367 0.060597226 0.21800002 1.46511e-38
0.048442543 0.06164984 0.21800001 1.4837322e-38
0.049670588 0.061649837 0.21800001 1.7230771e-38
0.050372325 0.061649837 0.21800001 1.686127e-38
0.051424935 0.061649837 0.21800001 1.4281246e-38
0.048442546 0.062176138 0.21800001 1.6586134e-38
0.049670588 0.062176138 0.21800001 1.6860909e-38
0.050313845 0.062117662 0.21800001 1.5939319e-38
0.0512495 0.062000703 0.21800001 1.437272e-38
0.04727298 0.063287221 0.21800001 1.6769805e-38
0.048442543 0.063228741 0.21800001 1.6768355e-38
0.049670588 0.06305331 0.21800001 1.4923373e-38
0.043354943 0.066562004 0.21800001 1.6215913e-38
0.041542117 0.067731567 0.21800001 1.5019547e-38
0.042126898 0.067263745 0.21800001 1.5021358e-38
0.040442724 0.068526864 0.21800001 1.3730987e-38
0.041308206 0.068433307 0.21800001 1.6215553e-38
0.039319947 0.06954439 0.21800001 1.3823909e-38
0.040302381 0.069509305 0.21800001 1.6491063e-38
0.038793642 0.070246123 0.21800001 1.5111025e-38
0.039319947 0.07024613 0.21800001 1.6031166e-38
0.040138643 0.070187651 0.21800001 1.6306302e-38
0.03686386 0.071825042 0.21800001 1.5569837e-38
0.037609458 0.071518026 0.21800002 1.584642e-38
0.038793642 0.071474172 0.21800001 1.630558e-38
0.039319947 0.071123302 0.21800001 1.5937515e-38
0.040021684 0.071123302 0.21800001 1.5015203e-38
0.035811253 0.072877645 0.21800001 1.5568042e-38
0.036512993 0.072702214 0.21800001 1.593609e-38
0.0375656 0.072702214 0.21800001 1.5474388e-38
0.038735162 0.072643735 0.21800001 1.3356778e-38
0.034407776 0.073579386 0.21800001 1.4099051e-38
0.035460386 0.073403947 0.21800001 1.5568754e-38
0.036512993 0.073403947 0.21800001 1.5567299e-38
0.037477881 0.073316231 0.21800001 1.4184731e-38
0.032653429 0.074982867 0.21800001 1.5109229e-38
0.033355169 0.074631996 0.21800001 1.4097245e-38
0.034232341 0.074631996 0.21800001 1.5475832e-38
0.035343427 0.074515037 0.21800001 1.547439e-38
0.032477997 0.0756846 0.21800001 1.5753502e-38
0.033355169 0.0756846 0.21800001 1.5567666e-38
0.034232341 0.0756846 0.21800001 1.4368404e-38
0.031776257 0.076474056 0.21800001 1.5660942e-38
0.032477994 0.07638634 0.21800001 1.5752775e-38
0.033355169 0.07638634 0.21800001 1.5383272e-38
0.031600822 0.077614382 0.21800001 1.4369118e-38
0.037737917 -0.011030453 0.21900001 1.5712877e-38
0.038090397 -0.011382932 0.21900001 1.6081303e-38
0.071575873 0.040607672 0.21900001 1.6776973e-38
0.069637239 0.041841347 0.21900001 1.6684063e-38
0.070588931 0.041559365 0.21900001 1.6592224e-38
0.071525514 0.041388158 0.219 1.5393691e-38
0.068638556 0.042781293 0.21900003 1.7421984e-38
0.069637239 0.042722546 0.21900001 1.6960645e-38
0.070165962 0.042546306 0.21900001 1.6499669e-38
0.068579808 0.043427501 0.21900001 1.7606011e-38
0.069637239 0.043427501 0.21900001 1.6868811e-38
0.068403564 0.044484932 0.219 1.6222363e-38
0.066993654 0.045718614 0.21900001 1.7606016e-38
0.067698613 0.045366134 0.21900001 1.6407113e-38
0.068403564 0.045366134 0.219 1.336577e-38
0.066852666 0.046494063 0.21900001 1.7145032e-38
0.067698613 0.04624733 0.21900001 1.465577e-38
0.065583736 0.047833484 0.21900001 1.6499669e-38
0.066288695 0.047833484 0.21900001 1.4288421e-38
0.064761288 0.048655931 0.21900003 1.6500026e-38
0.065348752 0.048420947 0.21900003 1.6407835e-38
0.061706472 0.049948357 0.21900001 1.5485888e-38
0.062235191 0.049948357 0.21900001 1.650003e-38
0.063468866 0.049772121 0.21900001 1.7329418e-38
0.064526305 0.049243398 0.21900001 1.5946851e-38
0.061530232 0.050653312 0.21900001 1.5762829e-38
0.062235191 0.050653312 0.21900001 1.6592219e-38
0.060531542 0.051240776 0.21900003 1.4196605e-38
0.061471488 0.051123288 0.21900003 1.6039405e-38
0.062058952 0.051005792 0.21900001 1.6592217e-38
0.059591603 0.052415702 0.219 1.355089e-38
0.060414046 0.052180719 0.21900003 1.5762098e-38
0.061353993 0.052063227 0.21900001 1.6039397e-38
0.058534164 0.053473141 0.219 1.3549438e-38
0.059239119 0.053120662 0.21900001 1.4655771e-38
0.05829918 0.054295588 0.21900003 1.4836915e-38
0.05712425 0.055235531 0.21900001 1.4375597e-38
0.030335866 0.077441692 0.21900001 1.3545151e-38
0.031040823 0.077441692 0.21900001 1.5017023e-38
0.030335866 0.078146644 0.21900001 1.5845685e-38
0.031040823 0.078146644 0.21900001 1.5383988e-38
0.044992004 -0.019224849 0.22000001 1.5529918e-38
0.043575648 -0.01887076 0.22000001 1.8118957e-38
0.044992004 -0.01887076 0.22000001 1.5715028e-38
0.036847975 -0.017808495 0.22000001 1.6545518e-38
0.03720206 -0.017454406 0.22000001 1.6548039e-38
0.036847975 -0.014267613 0.22000001 1.599307e-38
0.036493886 -0.013559437 0.22000001 1.6175306e-38
0.038441371 -0.011257865 0.22000001 1.5898708e-38
0.037910238 -0.010372644 0.22000001 1.5806155e-38
0.067653649 0.044865105 0.22000001 1.6682261e-38
0.066945471 0.045927372 0.22000001 1.7882603e-38
0.06729956 0.045219194 0.22000001 1.6591867e-38
0.065883212 0.046812594 0.22000001 1.6684424e-38
0.066414341 0.046547025 0.22000001 1.7421619e-38
0.065706164 0.047697812 0.22000001 1.6591867e-38
0.066237301 0.047697812 0.22000001 1.5762822e-38
0.064466856 0.048228946 0.22000001 1.6407484e-38
0.065352082 0.048051901 0.22000001 1.6684421e-38
0.064112768 0.049291208 0.22000001 1.640783e-38
0.029412121 0.078326434 0.22000001 1.3084169e-38
0.030120298 0.078326434 0.22000001 1.5292879e-38
0.028349856 0.079919837 0.22000001 1.6028652e-38
0.027464636 0.080450967 0.22000001 1.4647881e-38
0.028349856 0.080450967 0.22000001 1.5751698e-38
0.044485115 -0.020023629 0.22100002 1.6638066e-38
0.043595873 -0.019490082 0.22100002 1.7840931e-38
0.04537436 -0.019490082 0.22100002 1.5713589e-38
0.03772686 -0.01824514 0.22100002 1.8021374e-38
0.042706627 -0.018956536 0.22100002 1.6640234e-38
0.043536589 -0.018482273 0.22100002 1.7193408e-38
0.045552209 -0.018956536 0.22100002 1.5715028e-38
0.036304068 -0.017533746 0.22100002 1.6548755e-38
0.037460089 -0.017711595 0.22100002 1.7284523e-38
0.037472788 -0.016517466 0.22099999 1.7380673e-38
0.038438257 -0.016466653 0.22100002 1.7840933e-38
0.037549011 -0.015399558 0.22100002 1.6920057e-38
0.038438257 -0.015755257 0.22100002 1.7473588e-38
0.036304068 -0.014332466 0.22100002 1.8389077e-38
0.037371162 -0.014599239 0.22100002 1.6364006e-38
0.037134033 -0.013502506 0.22100002 1.6176381e-38
0.035414826 -0.011131188 0.22100002 1.5251902e-38
0.038793951 -0.011131188 0.22100002 1.5900501e-38
0.039149649 -0.011309037 0.22100002 1.6545514e-38
0.035414826 -0.010419792 0.22100002 1.4792003e-38
0.038438257 -0.010419792 0.22100002 1.589835e-38
0.03594837 -0.0072185141 0.22100002 1.3043529e-38
0.036304068 -0.0072185141 0.22100002 1.3043529e-38
0.035770521 -0.0066849673 0.22100002 1.3136084e-38
0.036304068 -0.0068628164 0.22100002 1.3043529e-38
0.065293431 0.047736771 0.22100002 1.6500755e-38
0.06440419 0.048626017 0.22100002 1.5485882e-38
0.063692793 0.049337413 0.22100002 1.7422344e-38
0.062803552 0.050048809 0.22100002 1.6223456e-38
0.063337095 0.050048809 0.22100002 1.7514177e-38
0.05159907 0.051827297 0.22100002 1.3186136e-38
0.046502821 -0.021281587 0.223 1.5807927e-38
0.038612183 -0.020114234 0.22200002 1.875821e-38
0.03914503 -0.020563755 0.223 1.7006853e-38
0.044607595 -0.020516843 0.22250001 1.7378507e-38
0.045401022 -0.020471541 0.22200002 1.562211e-38
0.046346623 -0.020494996 0.22225001 1.5717528e-38
0.047280475 -0.020444116 0.223 1.5721483e-38
0.048566595 -0.020384297 0.223 1.4614058e-38
0.03914503 -0.019845922 0.223 1.7285598e-38
0.042375281 -0.019307546 0.223 1.6640597e-38
0.04327257 -0.019666463 0.223 1.6271087e-38
0.045758329 -0.019756926 0.22200002 1.5989815e-38
0.046294287 -0.019399619 0.22200002 1.5073967e-38
0.047526971 -0.01936608 0.22212501 1.5444543e-38
0.048517305 -0.019513542 0.2227143 1.4427513e-38
0.049697179 -0.01941522 0.223 1.3970132e-38
0.038427196 -0.018410254 0.223 1.7838422e-38
0.042458519 -0.018279247 0.22250001 1.7287763e-38
0.046472941 -0.018327698 0.22200002 1.5995578e-38
0.047544863 -0.018327698 0.22200002 1.6737814e-38
0.048616786 -0.018327698 0.22200002 1.4796661e-38
0.04979289 -0.018290615 0.223 1.4058736e-38
0.050510723 -0.018170977 0.223 1.4060894e-38
0.036111034 -0.017613083 0.22200002 1.7101929e-38
0.038431954 -0.017758632 0.22233336 1.7654746e-38
0.042899869 -0.017970391 0.22200002 1.6918263e-38
0.043257177 -0.017970391 0.22200002 1.7007222e-38
0.048616786 -0.017970391 0.22200002 1.5534948e-38
0.049621966 -0.017831406 0.22250001 1.415201e-38
0.050630365 -0.017692421 0.223 1.4523674e-38
0.035555862 -0.016974589 0.223 1.4891757e-38
0.036539804 -0.016612623 0.22200003 1.6551996e-38
0.039324488 -0.016525943 0.223 1.7656537e-38
0.050630365 -0.016974589 0.223 1.4986454e-38
0.036825649 -0.01546924 0.22200002 1.8395187e-38
0.038433529 -0.015111933 0.22200002 1.7473588e-38
0.03914503 -0.015538922 0.223 1.7749097e-38
0.036632612 -0.014821089 0.223 1.8574547e-38
0.037897568 -0.014397319 0.22200002 1.6916101e-38
0.038489398 -0.014679295 0.22266668 1.7288119e-38
0.037540261 -0.013325398 0.22200002 1.6364363e-38
0.03806828 -0.013744338 0.223 1.6640231e-38
0.039684106 -0.011360209 0.22200002 1.6270723e-38
0.034681804 -0.010466942 0.22200002 1.469981e-38
0.037897568 -0.010109634 0.22200002 1.4977466e-38
0.038427196 -0.010155173 0.223 1.5806155e-38
0.03806828 -0.0097962562 0.223 1.4793075e-38
0.035396419 -0.0061792554 0.22200002 1.3136444e-38
0.036551282 -0.0065512848 0.22250001 1.3043889e-38
0.063802347 0.049917966 0.22200002 1.7514179e-38
0.06319245 0.050142821 0.223 1.447322e-38
0.039681096 -0.021016497 0.22400001 1.7650786e-38
0.047492493 -0.021256849 0.22400002 1.5995913e-38
0.048513986 -0.02119676 0.22400001 1.4984994e-38
0.049054775 -0.021557286 0.22400001 1.4803835e-38
0.039681096 -0.020295445 0.22400001 1.7469269e-38
0.044007409 -0.020295445 0.22400001 1.765366e-38
0.049415302 -0.020295445 0.22400001 1.3788256e-38
0.039681096 -0.019934919 0.22400001 1.7654381e-38
0.040402148 -0.019574393 0.22400001 1.7747651e-38
0.041603904 -0.019334042 0.22400002 1.8671052e-38
0.042475175 -0.019664524 0.22400001 1.6916821e-38
0.05049688 -0.019574393 0.22400001 1.3513106e-38
0.051217932 -0.019213866 0.22400001 1.3329438e-38
0.038960043 -0.018132288 0.22400001 1.7193771e-38
0.040402148 -0.018132288 0.22400001 1.6550181e-38
0.041844252 -0.018492814 0.22400001 1.82108e-38
0.042204779 -0.018132288 0.22400001 1.7288127e-38
0.044007409 -0.018132288 0.22400001 1.5808679e-38
0.039500833 -0.017411236 0.22400001 1.6918253e-38
0.042745568 -0.017771762 0.22400001 1.6823911e-38
0.043646883 -0.017771762 0.22400001 1.617494e-38
0.03643636 -0.016329657 0.22400001 1.5719723e-38
0.039681096 -0.016690183 0.22400001 1.7380671e-38
0.040402148 -0.01650992 0.22400001 1.6733499e-38
0.050677143 -0.016690183 0.22400001 1.5262682e-38
0.051578458 -0.016690183 0.22400001 1.3972662e-38
0.03643636 -0.015608605 0.22400001 1.5901955e-38
0.039681096 -0.015608605 0.22400001 1.6919337e-38
0.040402148 -0.015969131 0.22400001 1.7194121e-38
0.038960043 -0.014527027 0.22400001 1.7471793e-38
0.039320569 -0.01470729 0.22400001 1.7378877e-38
0.038599517 -0.013805974 0.22400001 1.6734225e-38
0.040402148 -0.011462553 0.22400001 1.5348765e-38
0.039320569 -0.010561238 0.22400001 1.5808306e-38
0.03643636 -0.0062349248 0.22400001 1.3043529e-38
0.027423205 0.032341368 0.22400001 1.382935e-38
0.048549499 -0.022558862 0.22500001 1.4901783e-38
0.042755328 -0.02111032 0.22500001 1.7928449e-38
0.043117464 -0.02111032 0.22500001 1.7746576e-38
0.046738818 -0.021834591 0.22500001 1.5715729e-38
0.047463089 -0.021834591 0.22500001 1.5534935e-38
0.048549499 -0.021834591 0.22500001 1.5445969e-38
0.040461805 -0.020144626 0.22500001 1.7839848e-38
0.041487854 -0.020023914 0.22500001 1.848558e-38
0.042513907 -0.020265339 0.22500001 1.7654388e-38
0.043298531 -0.02038605 0.22500001 1.6916098e-38
0.050722312 -0.020023914 0.22500001 1.3698934e-38
0.039568532 -0.019444495 0.22499999 1.7562905e-38
0.040703226 -0.019420354 0.22500001 1.7378511e-38
0.041306786 -0.019661777 0.22500001 1.8577056e-38
0.039568532 -0.018430516 0.22499999 1.6824624e-38
0.040703226 -0.018454658 0.22500001 1.6733862e-38
0.041427497 -0.018333947 0.22500001 1.8024965e-38
0.046376683 -0.01857537 0.22500001 1.5715757e-38
0.039858241 -0.017851099 0.22500001 1.7194121e-38
0.040582515 -0.017488964 0.22500001 1.7101921e-38
0.041548211 -0.017609676 0.22500001 1.7284525e-38
0.042393193 -0.017851099 0.22500001 1.7469642e-38
0.04420387 -0.017851099 0.22500001 1.5898353e-38
0.035512615 -0.016764693 0.22500001 1.5256944e-38
0.036236886 -0.016583625 0.22500001 1.5073272e-38
0.040944651 -0.016402557 0.22500001 1.7101561e-38
0.049998041 -0.016402557 0.22500001 1.4704476e-38
0.050722312 -0.016402557 0.22500001 1.3786836e-38
0.051446583 -0.016402557 0.22500001 1.5171924e-38
0.040220376 -0.01531615 0.22500001 1.700973e-38
0.036236886 -0.014954015 0.22500001 1.5714681e-38
0.039858241 -0.014772947 0.22500001 1.6364725e-38
0.040220376 -0.014954015 0.22500001 1.700973e-38
0.038409699 -0.013505472 0.22500001 1.6733146e-38
0.039315037 -0.013867607 0.22500001 1.7010093e-38
0.039858241 -0.012056929 0.22500001 1.6636632e-38
0.03913397 -0.010246251 0.22500001 1.5806155e-38
0.040220376 -0.010608386 0.22500001 1.5902299e-38
0.027907765 0.031218279 0.22500001 1.4290328e-38
0.027545629 0.032123618 0.22500001 1.4013741e-38
0.036961157 0.049506128 0.22500001 1.3554921e-38
0.040399134 -0.021204144 0.22600001 1.8023882e-38
0.048219655 -0.021931633 0.22600001 1.553637e-38
0.040762879 -0.020476654 0.22600001 1.7839847e-38
0.041672245 -0.020476654 0.22600001 1.811572e-38
0.041490372 -0.017202947 0.22600001 1.6731341e-38
0.042581607 -0.017202947 0.22600001 1.6913947e-38
0.043490969 -0.017202947 0.22600001 1.6361126e-38
0.044036586 -0.017202947 0.22600001 1.6178883e-38
0.035549197 -0.016354209 0.22600001 1.5530294e-38
0.041611623 -0.016717954 0.22600001 1.6823898e-38
0.050584 -0.016111713 0.22600001 1.4524401e-38
0.051493362 -0.016111713 0.22600001 1.5354881e-38
0.036397938 -0.015384221 0.22600001 1.5714681e-38
0.040762879 -0.015384221 0.22600001 1.7655099e-38
0.037489172 -0.013201751 0.22600001 1.6083463e-38
0.038944155 -0.013565497 0.22600001 1.6366521e-38
0.0393079 -0.013201751 0.22600001 1.6549834e-38
0.040035389 -0.013929241 0.22600001 1.6364363e-38
0.027304308 0.031538896 0.22600001 1.3646038e-38
0.0373073 0.048816789 0.22600001 1.3093583e-38
0.03657981 0.049544279 0.22600001 1.3278334e-38
0.037125427 0.049362406 0.22600001 1.3462726e-38
0.040943246 -0.021297967 0.22700001 1.8392665e-38
0.042404667 -0.021297967 0.22700001 1.7464594e-38
0.044596795 -0.021297967 0.22700001 1.7932042e-38
0.045327503 -0.018740484 0.22700001 1.5990912e-38
0.042404667 -0.017279066 0.22700001 1.7283086e-38
0.035462927 -0.016183002 0.22700001 1.5529215e-38
0.036193635 -0.016183002 0.22700001 1.4978918e-38
0.035828281 -0.015269617 0.22700001 1.5345179e-38
0.040943246 -0.015086939 0.22700001 1.7747295e-38
0.040577892 -0.014721585 0.22700001 1.6917534e-38
0.038385764 -0.013260166 0.22700001 1.6546239e-38
0.03948183 -0.013381951 0.22700001 1.6641669e-38
0.03802041 -0.012894811 0.22700001 1.6267136e-38
0.03948183 -0.012894812 0.22700001 1.6547316e-38
0.040577892 -0.012164102 0.22700001 1.6545515e-38
0.040943246 -0.010520006 0.22700001 1.5624636e-38
0.039116472 -0.0099719735 0.22700001 1.5620685e-38
0.027425125 0.030947741 0.22700001 1.3553842e-38
0.027425125 0.031313095 0.22700001 1.3553842e-38
0.049529079 0.038620189 0.22700001 1.3001746e-38
0.040760569 0.042456411 0.22700001 1.3001384e-38
0.0413086 0.042456411 0.22700001 1.3092861e-38
0.041123614 -0.023226611 0.22800002 1.6733146e-38
0.04699504 -0.022859648 0.22800002 1.5720051e-38
0.047728967 -0.022859648 0.22800002 1.5812243e-38
0.048279416 -0.022859648 0.22800002 1.5539607e-38
0.040389687 -0.021758756 0.22800002 1.7374199e-38
0.041490577 -0.02139179 0.22800002 1.7190884e-38
0.051031645 -0.020657863 0.22800002 1.3241553e-38
0.041490577 -0.015520365 0.22800002 1.7656178e-38
0.04002272 -0.013685545 0.22800002 1.7009733e-38
0.038554866 -0.012951616 0.22800002 1.6177814e-38
0.039655756 -0.010015903 0.22800002 1.5620685e-38
0.041490577 -0.01056635 0.22800002 1.5712157e-38
0.053600393 0.028515326 0.22800002 1.3831508e-38
0.053233426 0.029432736 0.22800002 1.300211e-38
0.026812011 0.032918893 0.22800002 1.3737154e-38
0.04699504 0.03328586 0.22800002 1.3093943e-38
0.047728967 0.03328586 0.22800002 1.3462726e-38
0.048279416 0.03328586 0.22800002 1.3278334e-38
0.046673946 0.03443262 0.22800003 1.3001027e-38
0.047728967 0.03438675 0.228 1.3092861e-38
0.04827942 0.03438675 0.22800003 1.3185777e-38
0.042041127 -0.024065629 0.22900002 1.6090656e-38
0.040743981 -0.023060171 0.23 1.6365445e-38
0.04160982 -0.023361905 0.22933334 1.6548755e-38
0.042336069 -0.023483695 0.22980002 1.6548752e-38
0.047446877 -0.023451341 0.22900002 1.5816198e-38
0.048491165 -0.023328483 0.22900002 1.5452443e-38
0.040839694 -0.022639856 0.22950001 1.6731348e-38
0.041299254 -0.022319805 0.23 1.7654383e-38
0.042224713 -0.022319805 0.23 1.6545871e-38
0.040935408 -0.021854188 0.22900002 1.793097e-38
0.041672554 -0.021854188 0.22900002 1.7098689e-38
0.042041127 -0.021485614 0.22900002 1.6268928e-38
0.044445813 -0.021579439 0.23 1.7838772e-38
0.050886896 -0.021485614 0.22900002 1.3977316e-38
0.046464011 -0.018905599 0.22900002 1.5897274e-38
0.042965081 -0.017137241 0.23 1.7284162e-38
0.042409807 -0.016581967 0.23 1.7285955e-38
0.041672554 -0.015219864 0.22900002 1.7563983e-38
0.040655404 -0.013591295 0.22950001 1.6364005e-38
0.041672554 -0.011718414 0.22900002 1.5989104e-38
0.042224716 -0.010473945 0.23 1.5250462e-38
0.039461114 -0.0096912589 0.22900002 1.4883838e-38
0.038893066 -0.0089932131 0.23 1.3965122e-38
0.044815995 0.024693446 0.23 1.3093587e-38
0.0446309 0.025248721 0.23 1.3001391e-38
0.042687446 0.030801468 0.23 1.318506e-38
0.028157756 0.031726923 0.23 1.3922625e-38
0.026929609 0.032694705 0.22900002 1.3737154e-38
0.028157756 0.032837473 0.23 1.3921546e-38
0.041299257 0.03339275 0.23 1.3001029e-38
0.045542575 0.033247564 0.22900002 1.3186139e-38
0.046464011 0.034169 0.22900002 1.318506e-38
0.037412331 0.035243664 0.23 1.3001387e-38
0.039461114 0.035274718 0.22900002 1.3001747e-38
0.036301784 0.036909487 0.23 1.337053e-38
0.032970134 0.037649855 0.23 1.3092864e-38
0.031489402 0.03857531 0.23 1.3000668e-38
0.032646224 0.038436491 0.23 1.3000668e-38
0.038355391 0.038223308 0.22900002 1.3001747e-38
0.032379426 0.039642524 0.22975001 1.3184704e-38
0.029453397 0.040981501 0.23 1.3461644e-38
0.028651332 0.041598473 0.23 1.3277254e-38
0.029453397 0.041536774 0.23 1.3460565e-38
0.02914105 0.045226205 0.22900002 1.3091782e-38
0.043151885 -0.023718121 0.23100001 1.701009e-38
0.042780094 -0.022602744 0.23100001 1.7097603e-38
0.043151885 -0.02278864 0.23100001 1.7099042e-38
0.044453159 -0.01721175 0.23100001 1.6454398e-38
0.04147882 -0.014609203 0.23100001 1.7102645e-38
0.03943396 -0.0090323137 0.23100001 1.3965122e-38
0.044639055 0.024800809 0.23100001 1.3185783e-38
0.045010846 0.024429016 0.23100001 1.3185783e-38
0.042780094 0.029634114 0.23100001 1.318506e-38
0.043337781 0.029634114 0.23100001 1.3461647e-38
0.034972448 0.030005906 0.23100001 1.3184704e-38
0.039805751 0.030377699 0.23100001 1.3277255e-38
0.040673267 0.030253768 0.23100001 1.3092864e-38
0.041292921 0.030377699 0.23100001 1.3000668e-38
0.042780094 0.030377699 0.23100001 1.3092864e-38
0.043337781 0.030005906 0.23100001 1.3461647e-38
0.026793009 0.03186487 0.23100001 1.3460565e-38
0.036087826 0.03186487 0.23100001 1.3092508e-38
0.039805751 0.031121284 0.23100001 1.3184704e-38
0.026793009 0.032236662 0.23100001 1.3460568e-38
0.02828018 0.032236662 0.23100001 1.401482e-38
0.033485278 0.032608457 0.23100001 1.3184702e-38
0.034600656 0.032608457 0.23099999 1.300067e-38
0.026421217 0.03335204 0.23100001 1.3552763e-38
0.033361346 0.033599902 0.23100001 1.3092864e-38
0.031700671 0.034690492 0.23099999 1.3092864e-38
0.033299379 0.034653313 0.23100001 1.3092864e-38
0.029767351 0.035582796 0.23100001 1.318506e-38
0.030510936 0.035396896 0.23100001 1.318506e-38
0.031626314 0.0353969 0.23099999 1.318506e-38
0.032741692 0.035396896 0.23100001 1.3461647e-38
0.033299379 0.035396896 0.23100001 1.3092864e-38
0.028466076 0.036512278 0.23100001 1.3184341e-38
0.029581454 0.036512278 0.23100001 1.3000668e-38
0.030510936 0.036512278 0.23100001 1.3092864e-38
0.031626314 0.036512274 0.23099999 1.3277255e-38
0.032741692 0.036512278 0.23100001 1.3092864e-38
0.033299379 0.036512278 0.23100001 1.3092864e-38
0.036273722 0.036512278 0.23100001 1.3001029e-38
0.027722491 0.037813552 0.23100001 1.3092864e-38
0.029581454 0.037441757 0.23100001 1.3000668e-38
0.031700671 0.037367396 0.23099999 1.3092864e-38
0.032741692 0.03744176 0.23100001 1.3092865e-38
0.033299379 0.037069965 0.23100001 1.3092508e-38
0.026421217 0.038309272 0.23100001 1.3276892e-38
0.031626314 0.038433205 0.23100001 1.3000668e-38
0.024934046 0.039672513 0.23100001 1.3276176e-38
0.023446877 0.040416099 0.23100001 1.3368372e-38
0.024376359 0.0402302 0.23100001 1.3183981e-38
0.029643418 0.040292166 0.23100001 1.3092504e-38
0.02270329 0.041159682 0.23100001 1.3183978e-38
0.025305839 0.041903269 0.23100001 1.3000668e-38
0.027722493 0.041531477 0.23099999 1.3369091e-38
0.028404111 0.041283615 0.23100001 1.3738232e-38
0.025305839 0.04227506 0.23100001 1.3000668e-38
0.043712091 -0.017286262 0.23200001 1.6822107e-38
0.042218484 -0.015045849 0.23200001 1.7103008e-38
0.04184508 -0.014299044 0.23200001 1.6918613e-38
0.041471679 -0.013738941 0.23200001 1.7103008e-38
0.042591885 -0.011685229 0.23200001 1.5989104e-38
0.039978072 -0.0090714144 0.23200001 1.424063e-38
0.04352539 0.025281575 0.23200001 1.3001391e-38
0.044085495 0.025281575 0.23200001 1.3185783e-38
0.034377038 0.029762398 0.23200001 1.3369452e-38
0.04352539 0.029015595 0.23200001 1.3369451e-38
0.033443533 0.030322501 0.23200001 1.3092864e-38
0.034377038 0.030322501 0.23200001 1.3184704e-38
0.026908997 0.03162941 0.23200001 1.3460568e-38
0.033630233 0.031256005 0.23200001 1.3092864e-38
0.034003638 0.031256005 0.23200001 1.318506e-38
0.039480202 0.031504944 0.23200001 1.3092508e-38
0.02952281 0.032189511 0.23200001 1.4105937e-38
0.032510027 0.032376211 0.23200001 1.3737154e-38
0.033256833 0.032376211 0.23200001 1.3184704e-38
0.02549007 0.033571102 0.23200002 1.3737154e-38
0.026535595 0.033123016 0.23200001 1.3552763e-38
0.028776007 0.033683121 0.23200001 1.4013741e-38
0.029522812 0.033496417 0.23200001 1.3921546e-38
0.030394083 0.033745352 0.23200001 1.3552763e-38
0.031638756 0.033745352 0.23200001 1.3554202e-38
0.032323327 0.033496417 0.23200001 1.3646397e-38
0.033256833 0.033309717 0.23200001 1.318506e-38
0.029647278 0.034741092 0.23200001 1.3276895e-38
0.030456316 0.034803327 0.23200001 1.318506e-38
0.031389821 0.034616627 0.23200001 1.318506e-38
0.029896213 0.035363428 0.23200001 1.318506e-38
0.025041986 0.036857039 0.23200001 1.3553842e-38
0.026908997 0.036857039 0.23200001 1.3092864e-38
0.027282398 0.036670335 0.23200001 1.3276536e-38
0.028029203 0.036670335 0.23200001 1.31847e-38
0.020561161 0.03760384 0.23200001 1.401338e-38
0.021494666 0.037603844 0.23200001 1.4013378e-38
0.024668584 0.03760384 0.23200001 1.3829351e-38
0.025322039 0.037790544 0.23200001 1.3830426e-38
0.02678453 0.03772831 0.23200001 1.3553121e-38
0.027282398 0.037230439 0.23200001 1.3185057e-38
0.028029203 0.037230439 0.23200001 1.3092864e-38
0.020561161 0.038537346 0.23200001 1.4013381e-38
0.021494666 0.038537346 0.23200001 1.3736794e-38
0.022241469 0.038537346 0.23200001 1.3921186e-38
0.02354838 0.038537346 0.23200001 1.35524e-38
0.024668584 0.038537346 0.23200001 1.3091422e-38
0.02534071 0.038500007 0.23200002 1.3368369e-38
0.020561161 0.039470851 0.23200001 1.3368012e-38
0.021494666 0.039470851 0.23200001 1.3460568e-38
0.022241469 0.039470851 0.23200001 1.382935e-38
0.023548378 0.039470851 0.23200001 1.3368372e-38
0.024668584 0.039470851 0.23200001 1.3275815e-38
0.025041986 0.039097451 0.23200001 1.3368369e-38
0.020561161 0.040404357 0.23200001 1.2999588e-38
0.021494666 0.040404357 0.23200001 1.3276175e-38
0.022241471 0.040404357 0.23200001 1.3183979e-38
0.023299443 0.040342122 0.23200001 1.3368372e-38
0.022054769 0.043204874 0.23200001 1.3091782e-38
0.042775471 -0.015673218 0.23300001 1.7563983e-38
0.042400461 -0.014360678 0.23300001 1.6734225e-38
0.042150453 -0.013860662 0.233 1.7195562e-38
0.04765062 0.021640431 0.23300001 1.3000312e-38
0.044650529 0.024640523 0.23300001 1.3093587e-38
0.042775471 0.025015535 0.23300001 1.3184704e-38
0.043900505 0.025015535 0.23300001 1.3001391e-38
0.044275519 0.025015535 0.23300001 1.3093587e-38
0.033525184 0.029765682 0.233 1.3369451e-38
0.034150206 0.029515674 0.23300001 1.3553842e-38
0.042775471 0.029515674 0.23300001 1.3000668e-38
0.032650158 0.030265698 0.23300001 1.3368372e-38
0.025899947 0.031578239 0.23300001 1.3368369e-38
0.026274959 0.031578239 0.23300001 1.3276174e-38
0.038650345 0.031390734 0.23300001 1.3000668e-38
0.025774943 0.03264077 0.233 1.3552762e-38
0.026274959 0.032515764 0.23300001 1.3368371e-38
0.024399901 0.033640802 0.23300001 1.3921546e-38
0.025337432 0.033453297 0.23300001 1.3552763e-38
0.019399747 0.038640957 0.233 1.3276176e-38
0.020274773 0.038703457 0.23300001 1.3736794e-38
0.019337244 0.039265975 0.23300001 1.3091425e-38
0.020274773 0.039265975 0.23300001 1.3460207e-38
0.042959057 -0.015175554 0.23400001 1.7748377e-38
0.042959057 -0.014422311 0.23400001 1.7748377e-38
0.042582437 -0.01366907 0.23400001 1.7011891e-38
0.043335676 -0.010279479 0.23400001 1.5157188e-38
0.044842161 0.023993034 0.23400001 1.3185783e-38
0.042582437 0.024746276 0.23400001 1.3000312e-38
0.044465542 0.024746276 0.23400001 1.3093587e-38
0.043335676 0.025122898 0.23400001 1.3001391e-38
0.029777318 0.027006002 0.23400001 1.4290325e-38
0.025634484 0.031902075 0.23400001 1.35524e-38
0.025634484 0.032278698 0.23400001 1.35524e-38
0.024598777 0.033314407 0.23400001 1.3644959e-38
0.019231927 0.039057877 0.23400001 1.3091785e-38
0.018855305 0.040187739 0.23400001 1.3091785e-38
0.043520872 -0.016375098 0.23500001 1.7562904e-38
0.043520872 -0.015807752 0.23500001 1.7378157e-38
0.043142643 -0.014105715 0.23500001 1.7565065e-38
0.043142643 -0.013727484 0.23500001 1.7011891e-38
0.043520872 -0.01070164 0.23500001 1.5158267e-38
0.042386182 0.024095569 0.23500001 1.3184704e-38
0.043142643 0.029012566 0.23500001 1.3185783e-38
0.045605268 -0.018723819 0.23600002 1.5993789e-38
0.04446575 -0.01720446 0.23600002 1.6639511e-38
0.043706067 -0.015305259 0.23600002 1.7654386e-38
0.043706067 -0.014545579 0.23600002 1.7747301e-38
0.043706067 -0.011127018 0.23600002 1.5342659e-38
0.043706067 0.029136023 0.23600002 1.3369095e-38
0.044275828 0.029136023 0.23600002 1.3184704e-38
0.025093904 0.032554582 0.23600002 1.3828987e-38
0.024334224 0.033314265 0.23600002 1.3460207e-38
0.044272713 -0.010411268 0.23700002 1.5894753e-38
0.043693401 0.02899988 0.23800001 1.3093587e-38
0.04433183 0.028872194 0.23799999 1.3001031e-38
0.045035612 0.028878033 0.23700002 1.3000312e-38
0.024679614 0.032570772 0.23750001 1.3921183e-38
0.044646323 -0.016461488 0.23900001 1.682534e-38
0.045415659 -0.016461488 0.23900001 1.7007935e-38
0.044646323 -0.015692152 0.23900001 1.6179256e-38
0.045415659 -0.015884487 0.23900001 1.7098338e-38
0.044453986 -0.014538147 0.23900001 1.7101931e-38
0.044261653 -0.013961144 0.23900001 1.7101931e-38
0.044646323 0.028737061 0.23900001 1.3001391e-38
0.045219403 -0.015564671 0.24000001 1.6454048e-38
0.044833124 -0.014405836 0.24000001 1.7101931e-38
0.044446848 -0.012088168 0.24000001 1.5619245e-38
0.044833124 -0.010929335 0.24000001 1.6172419e-38
0.045407817 -0.014853748 0.24100001 1.6546962e-38
0.045019928 -0.011362761 0.24100001 1.635681e-38
0.045407817 -0.010974874 0.24100001 1.5714678e-38
0.044427741 -0.0125784 0.24200001 1.5989464e-38
0.045596231 -0.011409909 0.24200001 1.5806876e-38
0.042655792 -0.0098926313 0.24300002 1.4516138e-38
0.045383982 -0.012485996 0.24400002 1.5895474e-38
0.042481106 -0.0093168439 0.245 1.4056959e-38
0.043416567 -0.0094695808 0.24420002 1.4148436e-38
0.043795522 -0.008791076 0.245 1.3965485e-38
0.04258851 -0.008826958 0.24600001 1.3781449e-38
0.04318241 -0.008826958 0.24600001 1.3873645e-38
0.042960402 -0.0080677513 0.24700001 1.322864e-38
0.043357946 -0.0080677513 0.24700001 1.322864e-38
0.11812769 -0.043164868 1.4660001 1.6408664e-38
0.11845 -0.038550738 1.47 1.6593055e-38
0.11632095 -0.036258634 1.473 1.6777801e-38
0.11655785 -0.03395687 1.4760001 1.6869997e-38
